566662.924,4311379.395,-627.807
566662.924,4311279.395,-611.460
566662.924,4311179.395,-596.403
566662.924,4311079.395,-586.832
566662.924,4310979.395,-579.012
566662.924,4310879.395,-574.376
566662.924,4310779.395,-570.175
566662.924,4310679.395,-567.987
566662.924,4310579.395,-567.282
566662.924,4310479.395,-567.365
566662.924,4310379.395,-568.291
566662.924,4310279.395,-571.161
566662.924,4310179.395,-575.138
566662.924,4310079.395,-576.964
566662.924,4309979.395,-577.831
566662.924,4309879.395,-578.160
566662.924,4309779.395,-578.863
566662.924,4309679.395,-579.512
566662.924,4309579.395,-580.522
566662.924,4309479.395,-583.167
566662.924,4309379.395,-585.612
566662.924,4309279.395,-591.629
566662.924,4309179.395,-594.339
566662.924,4309079.395,-596.272
566662.924,4308979.395,-599.120
566662.924,4308879.395,-602.410
566662.924,4308779.395,-608.068
566662.924,4308679.395,-613.823
566662.924,4308579.395,-617.162
566662.924,4308479.395,-623.765
566662.924,4308379.395,-635.806
566662.924,4308279.395,-646.209
566662.924,4308179.395,-649.999
566662.924,4308079.395,-650.237
566662.924,4307979.395,-648.957
566662.924,4307879.395,-646.884
566662.924,4307779.395,-646.848
566662.924,4307679.395,-647.810
566662.924,4307579.395,-649.009
566662.924,4307479.395,-649.804
566662.924,4307379.395,-650.554
566662.924,4307279.395,-652.078
566662.924,4307179.395,-653.975
566662.924,4307079.395,-653.821
566662.924,4306979.395,-652.530
566662.924,4306879.395,-656.085
566662.924,4306779.395,-660.583
566662.924,4306679.395,-665.147
566662.924,4306579.395,-676.603
566662.924,4306479.395,-683.511
566662.924,4306379.395,-687.189
566662.924,4306279.395,-687.863
566662.924,4306179.395,-685.743
566662.924,4306079.395,-682.147
566762.924,4312479.395,-691.375
566762.924,4312379.395,-684.472
566762.924,4312279.395,-680.123
566762.924,4312179.395,-675.260
566762.924,4312079.395,-671.600
566762.924,4311979.395,-669.539
566762.924,4311879.395,-663.066
566762.924,4311779.395,-656.039
566762.924,4311679.395,-647.998
566762.924,4311579.395,-640.086
566762.924,4311479.395,-631.861
566762.924,4311379.395,-623.320
566762.924,4311279.395,-608.053
566762.924,4311179.395,-590.125
566762.924,4311079.395,-578.902
566762.924,4310979.395,-571.960
566762.924,4310879.395,-568.767
566762.924,4310779.395,-566.131
566762.924,4310679.395,-564.532
566762.924,4310579.395,-563.686
566762.924,4310479.395,-563.932
566762.924,4310379.395,-566.449
566762.924,4310279.395,-568.708
566762.924,4310179.395,-569.201
566762.924,4310079.395,-570.988
566762.924,4309979.395,-571.695
566762.924,4309879.395,-572.726
566762.924,4309779.395,-573.284
566762.924,4309679.395,-574.320
566762.924,4309579.395,-575.860
566762.924,4309479.395,-578.510
566762.924,4309379.395,-580.672
566762.924,4309279.395,-583.717
566762.924,4309179.395,-586.481
566762.924,4309079.395,-588.879
566762.924,4308979.395,-589.955
566762.924,4308879.395,-592.832
566762.924,4308779.395,-598.191
566762.924,4308679.395,-605.446
566762.924,4308579.395,-611.415
566762.924,4308479.395,-619.964
566762.924,4308379.395,-631.518
566762.924,4308279.395,-641.710
566762.924,4308179.395,-649.829
566762.924,4308079.395,-652.564
566762.924,4307979.395,-652.312
566762.924,4307879.395,-651.347
566762.924,4307779.395,-651.811
566762.924,4307679.395,-653.432
566762.924,4307579.395,-652.905
566762.924,4307479.395,-655.228
566762.924,4307379.395,-656.489
566762.924,4307279.395,-658.517
566762.924,4307179.395,-660.107
566762.924,4307079.395,-659.814
566762.924,4306979.395,-663.159
566762.924,4306879.395,-661.772
566762.924,4306779.395,-663.875
566762.924,4306679.395,-670.179
566762.924,4306579.395,-673.275
566762.924,4306479.395,-684.153
566762.924,4306379.395,-691.353
566762.924,4306279.395,-688.651
566762.924,4306179.395,-686.804
566762.924,4306079.395,-683.363
566862.924,4312379.395,-698.732
566862.924,4312279.395,-696.155
566862.924,4312179.395,-691.634
566862.924,4312079.395,-690.640
566862.924,4311979.395,-687.643
566862.924,4311879.395,-681.266
566862.924,4311779.395,-667.126
566862.924,4311679.395,-654.265
566862.924,4311579.395,-641.268
566862.924,4311479.395,-629.274
566862.924,4311379.395,-620.618
566862.924,4311279.395,-602.145
566862.924,4311179.395,-585.240
566862.924,4311079.395,-571.003
566862.924,4310979.395,-567.012
566862.924,4310879.395,-565.233
566862.924,4310779.395,-563.882
566862.924,4310679.395,-562.125
566862.924,4310579.395,-561.905
566862.924,4310479.395,-561.591
566862.924,4310379.395,-562.404
566862.924,4310279.395,-563.196
566862.924,4310179.395,-564.563
566862.924,4310079.395,-565.869
566862.924,4309979.395,-566.268
566862.924,4309879.395,-567.333
566862.924,4309779.395,-568.189
566862.924,4309679.395,-568.914
566862.924,4309579.395,-571.107
566862.924,4309479.395,-572.195
566862.924,4309379.395,-575.429
566862.924,4309279.395,-576.165
566862.924,4309179.395,-577.856
566862.924,4309079.395,-578.740
566862.924,4308979.395,-580.436
566862.924,4308879.395,-582.336
566862.924,4308779.395,-586.055
566862.924,4308679.395,-593.474
566862.924,4308579.395,-598.417
566862.924,4308479.395,-612.168
566862.924,4308379.395,-622.020
566862.924,4308279.395,-633.858
566862.924,4308179.395,-643.314
566862.924,4308079.395,-646.160
566862.924,4307979.395,-651.401
566862.924,4307879.395,-653.465
566862.924,4307779.395,-653.627
566862.924,4307679.395,-653.929
566862.924,4307579.395,-656.699
566862.924,4307479.395,-658.104
566862.924,4307379.395,-660.046
566862.924,4307279.395,-661.092
566862.924,4307179.395,-663.176
566862.924,4307079.395,-662.751
566862.924,4306979.395,-664.944
566862.924,4306879.395,-667.819
566862.924,4306779.395,-668.900
566862.924,4306679.395,-677.185
566862.924,4306579.395,-680.464
566862.924,4306479.395,-688.828
566862.924,4306379.395,-698.022
566862.924,4306279.395,-689.439
566862.924,4306179.395,-687.865
566862.924,4306079.395,-684.579
566962.924,4311879.395,-696.808
566962.924,4311779.395,-681.259
566962.924,4311679.395,-661.836
566962.924,4311579.395,-644.075
566962.924,4311479.395,-632.645
566962.924,4311379.395,-618.160
566962.924,4311279.395,-604.729
566962.924,4311179.395,-587.584
566962.924,4311079.395,-571.956
566962.924,4310979.395,-568.585
566962.924,4310879.395,-567.357
566962.924,4310779.395,-565.494
566962.924,4310679.395,-563.302
566962.924,4310579.395,-561.526
566962.924,4310479.395,-559.859
566962.924,4310379.395,-559.324
566962.924,4310279.395,-559.787
566962.924,4310179.395,-560.144
566962.924,4310079.395,-560.610
566962.924,4309979.395,-561.321
566962.924,4309879.395,-561.902
566962.924,4309779.395,-561.973
566962.924,4309679.395,-562.964
566962.924,4309579.395,-565.398
566962.924,4309479.395,-567.035
566962.924,4309379.395,-567.869
566962.924,4309279.395,-568.813
566962.924,4309179.395,-569.364
566962.924,4309079.395,-569.667
566962.924,4308979.395,-569.295
566962.924,4308879.395,-570.625
566962.924,4308779.395,-573.441
566962.924,4308679.395,-576.813
566962.924,4308579.395,-589.521
566962.924,4308479.395,-597.882
566962.924,4308379.395,-607.679
566962.924,4308279.395,-621.791
566962.924,4308179.395,-631.462
566962.924,4308079.395,-638.438
566962.924,4307979.395,-643.170
566962.924,4307879.395,-647.922
566962.924,4307779.395,-650.295
566962.924,4307679.395,-652.037
566962.924,4307579.395,-655.327
566962.924,4307479.395,-657.734
566962.924,4307379.395,-659.440
566962.924,4307279.395,-661.566
566962.924,4307179.395,-663.991
566962.924,4307079.395,-665.264
566962.924,4306979.395,-665.832
566962.924,4306879.395,-669.360
566962.924,4306779.395,-671.861
566962.924,4306679.395,-679.815
566962.924,4306579.395,-684.651
566962.924,4306479.395,-693.421
566962.924,4306379.395,-697.643
566962.924,4306279.395,-690.227
566962.924,4306179.395,-688.925
566962.924,4306079.395,-685.795
567062.924,4311679.395,-676.379
567062.924,4311579.395,-660.306
567062.924,4311479.395,-636.561
567062.924,4311379.395,-616.997
567062.924,4311279.395,-608.469
567062.924,4311179.395,-595.352
567062.924,4311079.395,-584.560
567062.924,4310979.395,-578.324
567062.924,4310879.395,-574.506
567062.924,4310779.395,-571.395
567062.924,4310679.395,-568.139
567062.924,4310579.395,-562.253
567062.924,4310479.395,-560.451
567062.924,4310379.395,-559.002
567062.924,4310279.395,-556.740
567062.924,4310179.395,-556.717
567062.924,4310079.395,-556.082
567062.924,4309979.395,-556.748
567062.924,4309879.395,-557.318
567062.924,4309779.395,-557.087
567062.924,4309679.395,-558.927
567062.924,4309579.395,-559.339
567062.924,4309479.395,-561.352
567062.924,4309379.395,-560.804
567062.924,4309279.395,-561.794
567062.924,4309179.395,-561.454
567062.924,4309079.395,-561.077
567062.924,4308979.395,-560.831
567062.924,4308879.395,-559.386
567062.924,4308779.395,-563.532
567062.924,4308679.395,-568.667
567062.924,4308579.395,-574.140
567062.924,4308479.395,-581.505
567062.924,4308379.395,-594.776
567062.924,4308279.395,-609.176
567062.924,4308179.395,-619.865
567062.924,4308079.395,-627.173
567062.924,4307979.395,-634.078
567062.924,4307879.395,-637.460
567062.924,4307779.395,-639.518
567062.924,4307679.395,-646.690
567062.924,4307579.395,-651.354
567062.924,4307479.395,-653.327
567062.924,4307379.395,-657.665
567062.924,4307279.395,-659.086
567062.924,4307179.395,-664.162
567062.924,4307079.395,-665.922
567062.924,4306979.395,-666.986
567062.924,4306879.395,-669.825
567062.924,4306779.395,-677.465
567062.924,4306679.395,-682.134
567062.924,4306579.395,-690.061
567062.924,4306479.395,-693.195
567062.924,4306379.395,-697.264
567062.924,4306279.395,-691.015
567062.924,4306179.395,-689.986
567062.924,4306079.395,-687.011
567162.924,4311679.395,-695.725
567162.924,4311579.395,-678.572
567162.924,4311479.395,-651.608
567162.924,4311379.395,-629.128
567162.924,4311279.395,-612.901
567162.924,4311179.395,-609.574
567162.924,4311079.395,-606.262
567162.924,4310979.395,-596.730
567162.924,4310879.395,-589.201
567162.924,4310779.395,-582.557
567162.924,4310679.395,-573.714
567162.924,4310579.395,-568.166
567162.924,4310479.395,-563.900
567162.924,4310379.395,-559.772
567162.924,4310279.395,-557.747
567162.924,4310179.395,-555.245
567162.924,4310079.395,-554.052
567162.924,4309979.395,-553.080
567162.924,4309879.395,-553.234
567162.924,4309779.395,-553.665
567162.924,4309679.395,-554.149
567162.924,4309579.395,-555.335
567162.924,4309479.395,-555.103
567162.924,4309379.395,-555.203
567162.924,4309279.395,-555.198
567162.924,4309179.395,-554.955
567162.924,4309079.395,-553.699
567162.924,4308979.395,-553.158
567162.924,4308879.395,-551.515
567162.924,4308779.395,-551.652
567162.924,4308679.395,-558.830
567162.924,4308579.395,-562.766
567162.924,4308479.395,-567.288
567162.924,4308379.395,-584.589
567162.924,4308279.395,-599.315
567162.924,4308179.395,-606.023
567162.924,4308079.395,-611.286
567162.924,4307979.395,-620.930
567162.924,4307879.395,-624.927
567162.924,4307779.395,-624.000
567162.924,4307679.395,-634.730
567162.924,4307579.395,-641.356
567162.924,4307479.395,-645.472
567162.924,4307379.395,-649.997
567162.924,4307279.395,-651.150
567162.924,4307179.395,-657.885
567162.924,4307079.395,-662.429
567162.924,4306979.395,-668.497
567162.924,4306879.395,-672.023
567162.924,4306779.395,-679.061
567162.924,4306679.395,-685.775
567162.924,4306579.395,-695.169
567162.924,4306479.395,-692.969
567162.924,4306379.395,-696.885
567162.924,4306279.395,-691.804
567162.924,4306179.395,-691.047
567162.924,4306079.395,-688.227
567262.924,4311579.395,-694.218
567262.924,4311479.395,-681.433
567262.924,4311379.395,-665.989
567262.924,4311279.395,-650.203
567262.924,4311179.395,-631.238
567262.924,4311079.395,-626.157
567262.924,4310979.395,-619.774
567262.924,4310879.395,-610.461
567262.924,4310779.395,-603.572
567262.924,4310679.395,-592.546
567262.924,4310579.395,-579.626
567262.924,4310479.395,-569.510
567262.924,4310379.395,-564.694
567262.924,4310279.395,-561.700
567262.924,4310179.395,-556.431
567262.924,4310079.395,-554.253
567262.924,4309979.395,-551.992
567262.924,4309879.395,-551.204
567262.924,4309779.395,-550.442
567262.924,4309679.395,-551.637
567262.924,4309579.395,-551.229
567262.924,4309479.395,-550.867
567262.924,4309379.395,-550.986
567262.924,4309279.395,-550.919
567262.924,4309179.395,-550.579
567262.924,4309079.395,-549.330
567262.924,4308979.395,-546.545
567262.924,4308879.395,-547.267
567262.924,4308779.395,-548.472
567262.924,4308679.395,-552.007
567262.924,4308579.395,-556.463
567262.924,4308479.395,-560.728
567262.924,4308379.395,-573.295
567262.924,4308279.395,-585.836
567262.924,4308179.395,-589.179
567262.924,4308079.395,-588.583
567262.924,4307979.395,-598.465
567262.924,4307879.395,-607.320
567262.924,4307779.395,-609.951
567262.924,4307679.395,-620.029
567262.924,4307579.395,-628.337
567262.924,4307479.395,-629.747
567262.924,4307379.395,-637.022
567262.924,4307279.395,-643.214
567262.924,4307179.395,-649.757
567262.924,4307079.395,-660.082
567262.924,4306979.395,-667.962
567262.924,4306879.395,-671.530
567262.924,4306779.395,-676.999
567262.924,4306679.395,-685.791
567262.924,4306579.395,-694.719
567262.924,4306479.395,-692.743
567262.924,4306379.395,-696.506
567262.924,4306279.395,-692.592
567262.924,4306179.395,-692.107
567262.924,4306079.395,-689.443
567362.924,4311379.395,-690.424
567362.924,4311279.395,-672.105
567362.924,4311179.395,-658.427
567362.924,4311079.395,-637.865
567362.924,4310979.395,-631.576
567362.924,4310879.395,-629.403
567362.924,4310779.395,-626.106
567362.924,4310679.395,-611.727
567362.924,4310579.395,-599.130
567362.924,4310479.395,-587.352
567362.924,4310379.395,-577.967
567362.924,4310279.395,-569.573
567362.924,4310179.395,-563.231
567362.924,4310079.395,-557.638
567362.924,4309979.395,-554.038
567362.924,4309879.395,-550.626
567362.924,4309779.395,-550.801
567362.924,4309679.395,-549.503
567362.924,4309579.395,-549.364
567362.924,4309479.395,-549.127
567362.924,4309379.395,-548.395
567362.924,4309279.395,-547.958
567362.924,4309179.395,-547.057
567362.924,4309079.395,-545.796
567362.924,4308979.395,-543.788
567362.924,4308879.395,-541.834
567362.924,4308779.395,-544.626
567362.924,4308679.395,-547.512
567362.924,4308579.395,-550.793
567362.924,4308479.395,-555.152
567362.924,4308379.395,-563.309
567362.924,4308279.395,-570.989
567362.924,4308179.395,-573.789
567362.924,4308079.395,-574.374
567362.924,4307979.395,-587.522
567362.924,4307879.395,-595.677
567362.924,4307779.395,-602.271
567362.924,4307679.395,-609.690
567362.924,4307579.395,-617.222
567362.924,4307479.395,-621.525
567362.924,4307379.395,-624.869
567362.924,4307279.395,-631.778
567362.924,4307179.395,-642.643
567362.924,4307079.395,-651.084
567362.924,4306979.395,-660.188
567362.924,4306879.395,-667.002
567362.924,4306779.395,-674.435
567362.924,4306679.395,-684.334
567362.924,4306579.395,-697.458
567362.924,4306479.395,-692.517
567362.924,4306379.395,-696.127
567362.924,4306279.395,-693.380
567362.924,4306179.395,-693.168
567362.924,4306079.395,-690.659
567462.924,4311279.395,-688.864
567462.924,4311179.395,-679.498
567462.924,4311079.395,-666.656
567462.924,4310979.395,-643.107
567462.924,4310879.395,-640.938
567462.924,4310779.395,-634.676
567462.924,4310679.395,-631.021
567462.924,4310579.395,-614.806
567462.924,4310479.395,-605.549
567462.924,4310379.395,-601.204
567462.924,4310279.395,-589.076
567462.924,4310179.395,-574.189
567462.924,4310079.395,-564.108
567462.924,4309979.395,-557.167
567462.924,4309879.395,-554.351
567462.924,4309779.395,-551.346
567462.924,4309679.395,-550.386
567462.924,4309579.395,-549.304
567462.924,4309479.395,-548.768
567462.924,4309379.395,-548.023
567462.924,4309279.395,-546.557
567462.924,4309179.395,-545.364
567462.924,4309079.395,-543.995
567462.924,4308979.395,-542.185
567462.924,4308879.395,-541.968
567462.924,4308779.395,-540.923
567462.924,4308679.395,-543.668
567462.924,4308579.395,-546.730
567462.924,4308479.395,-550.854
567462.924,4308379.395,-554.111
567462.924,4308279.395,-559.046
567462.924,4308179.395,-563.086
567462.924,4308079.395,-562.742
567462.924,4307979.395,-573.701
567462.924,4307879.395,-579.129
567462.924,4307779.395,-590.379
567462.924,4307679.395,-599.341
567462.924,4307579.395,-609.812
567462.924,4307479.395,-613.513
567462.924,4307379.395,-620.495
567462.924,4307279.395,-625.489
567462.924,4307179.395,-631.887
567462.924,4307079.395,-647.221
567462.924,4306979.395,-653.570
567462.924,4306879.395,-662.529
567462.924,4306779.395,-671.933
567462.924,4306679.395,-683.846
567462.924,4306579.395,-697.692
567462.924,4306479.395,-692.291
567462.924,4306379.395,-695.748
567462.924,4306279.395,-694.168
567462.924,4306179.395,-694.228
567462.924,4306079.395,-691.875
567562.924,4311179.395,-690.121
567562.924,4311079.395,-684.941
567562.924,4310979.395,-673.472
567562.924,4310879.395,-659.451
567562.924,4310779.395,-653.604
567562.924,4310679.395,-653.787
567562.924,4310579.395,-648.384
567562.924,4310479.395,-642.894
567562.924,4310379.395,-621.340
567562.924,4310279.395,-598.036
567562.924,4310179.395,-585.174
567562.924,4310079.395,-569.419
567562.924,4309979.395,-563.901
567562.924,4309879.395,-560.203
567562.924,4309779.395,-555.199
567562.924,4309679.395,-553.050
567562.924,4309579.395,-551.453
567562.924,4309479.395,-550.607
567562.924,4309379.395,-549.109
567562.924,4309279.395,-547.234
567562.924,4309179.395,-545.061
567562.924,4309079.395,-541.410
567562.924,4308979.395,-540.363
567562.924,4308879.395,-538.530
567562.924,4308779.395,-538.997
567562.924,4308679.395,-541.183
567562.924,4308579.395,-543.614
567562.924,4308479.395,-545.906
567562.924,4308379.395,-547.676
567562.924,4308279.395,-547.161
567562.924,4308179.395,-547.981
567562.924,4308079.395,-552.105
567562.924,4307979.395,-558.586
567562.924,4307879.395,-564.311
567562.924,4307779.395,-575.529
567562.924,4307679.395,-583.601
567562.924,4307579.395,-594.944
567562.924,4307479.395,-602.224
567562.924,4307379.395,-614.531
567562.924,4307279.395,-623.880
567562.924,4307179.395,-632.649
567562.924,4307079.395,-641.158
567562.924,4306979.395,-649.432
567562.924,4306879.395,-658.139
567562.924,4306779.395,-668.195
567562.924,4306679.395,-680.262
567562.924,4306579.395,-695.251
567562.924,4306479.395,-692.065
567562.924,4306379.395,-695.369
567562.924,4306279.395,-694.956
567562.924,4306179.395,-695.289
567562.924,4306079.395,-693.091
567662.924,4311079.395,-695.226
567662.924,4310979.395,-689.597
567662.924,4310879.395,-682.997
567662.924,4310779.395,-678.167
567662.924,4310679.395,-678.999
567662.924,4310579.395,-677.225
567662.924,4310479.395,-669.221
567662.924,4310379.395,-650.171
567662.924,4310279.395,-612.222
567662.924,4310179.395,-589.953
567662.924,4310079.395,-584.021
567662.924,4309979.395,-577.079
567662.924,4309879.395,-567.263
567662.924,4309779.395,-560.305
567662.924,4309679.395,-557.474
567662.924,4309579.395,-555.934
567662.924,4309479.395,-554.035
567662.924,4309379.395,-551.827
567662.924,4309279.395,-548.225
567662.924,4309179.395,-544.205
567662.924,4309079.395,-541.226
567662.924,4308979.395,-536.818
567662.924,4308879.395,-535.851
567662.924,4308779.395,-534.962
567662.924,4308679.395,-537.321
567662.924,4308579.395,-539.372
567662.924,4308479.395,-540.489
567662.924,4308379.395,-540.298
567662.924,4308279.395,-539.500
567662.924,4308179.395,-540.389
567662.924,4308079.395,-541.980
567662.924,4307979.395,-549.386
567662.924,4307879.395,-554.924
567662.924,4307779.395,-567.308
567662.924,4307679.395,-574.674
567662.924,4307579.395,-581.982
567662.924,4307479.395,-593.443
567662.924,4307379.395,-609.351
567662.924,4307279.395,-623.572
567662.924,4307179.395,-631.990
567662.924,4307079.395,-639.686
567662.924,4306979.395,-647.654
567662.924,4306879.395,-655.218
567662.924,4306779.395,-666.320
567662.924,4306679.395,-677.607
567662.924,4306579.395,-690.259
567662.924,4306479.395,-691.839
567662.924,4306379.395,-694.990
567662.924,4306279.395,-695.744
567662.924,4306179.395,-696.349
567662.924,4306079.395,-694.306
567762.924,4310979.395,-698.316
567762.924,4310879.395,-693.347
567762.924,4310779.395,-690.866
567762.924,4310679.395,-690.584
567762.924,4310579.395,-690.438
567762.924,4310479.395,-680.793
567762.924,4310379.395,-662.568
567762.924,4310279.395,-636.334
567762.924,4310179.395,-615.828
567762.924,4310079.395,-607.099
567762.924,4309979.395,-591.787
567762.924,4309879.395,-578.617
567762.924,4309779.395,-566.274
567762.924,4309679.395,-563.151
567762.924,4309579.395,-562.094
567762.924,4309479.395,-560.037
567762.924,4309379.395,-555.412
567762.924,4309279.395,-550.186
567762.924,4309179.395,-543.902
567762.924,4309079.395,-539.334
567762.924,4308979.395,-534.808
567762.924,4308879.395,-529.917
567762.924,4308779.395,-529.945
567762.924,4308679.395,-532.016
567762.924,4308579.395,-534.604
567762.924,4308479.395,-534.434
567762.924,4308379.395,-534.411
567762.924,4308279.395,-532.237
567762.924,4308179.395,-531.154
567762.924,4308079.395,-531.995
567762.924,4307979.395,-535.639
567762.924,4307879.395,-542.871
567762.924,4307779.395,-556.774
567762.924,4307679.395,-570.253
567762.924,4307579.395,-572.441
567762.924,4307479.395,-585.234
567762.924,4307379.395,-598.535
567762.924,4307279.395,-622.156
567762.924,4307179.395,-632.300
567762.924,4307079.395,-641.545
567762.924,4306979.395,-647.954
567762.924,4306879.395,-655.041
567762.924,4306779.395,-664.738
567762.924,4306679.395,-674.962
567762.924,4306579.395,-684.766
567762.924,4306479.395,-691.613
567762.924,4306379.395,-694.611
567762.924,4306279.395,-696.532
567762.924,4306179.395,-697.410
567762.924,4306079.395,-695.522
567862.924,4310479.395,-695.518
567862.924,4310379.395,-680.442
567862.924,4310279.395,-663.110
567862.924,4310179.395,-659.033
567862.924,4310079.395,-644.083
567862.924,4309979.395,-614.258
567862.924,4309879.395,-587.117
567862.924,4309779.395,-575.261
567862.924,4309679.395,-571.351
567862.924,4309579.395,-570.864
567862.924,4309479.395,-568.154
567862.924,4309379.395,-562.438
567862.924,4309279.395,-548.292
567862.924,4309179.395,-543.145
567862.924,4309079.395,-538.491
567862.924,4308979.395,-532.530
567862.924,4308879.395,-527.743
567862.924,4308779.395,-526.214
567862.924,4308679.395,-527.880
567862.924,4308579.395,-529.667
567862.924,4308479.395,-529.397
567862.924,4308379.395,-527.000
567862.924,4308279.395,-525.961
567862.924,4308179.395,-524.221
567862.924,4308079.395,-525.684
567862.924,4307979.395,-531.404
567862.924,4307879.395,-540.567
567862.924,4307779.395,-551.383
567862.924,4307679.395,-566.706
567862.924,4307579.395,-571.788
567862.924,4307479.395,-582.523
567862.924,4307379.395,-610.482
567862.924,4307279.395,-626.296
567862.924,4307179.395,-635.388
567862.924,4307079.395,-643.714
567862.924,4306979.395,-650.042
567862.924,4306879.395,-656.180
567862.924,4306779.395,-664.741
567862.924,4306679.395,-672.148
567862.924,4306579.395,-677.877
567862.924,4306479.395,-681.179
567862.924,4306379.395,-687.308
567862.924,4306279.395,-690.645
567862.924,4306179.395,-693.165
567862.924,4306079.395,-696.738
567962.924,4310279.395,-695.000
567962.924,4310179.395,-685.834
567962.924,4310079.395,-669.729
567962.924,4309979.395,-643.586
567962.924,4309879.395,-598.333
567962.924,4309779.395,-585.350
567962.924,4309679.395,-581.449
567962.924,4309579.395,-581.946
567962.924,4309479.395,-578.262
567962.924,4309379.395,-566.382
567962.924,4309279.395,-555.593
567962.924,4309179.395,-547.821
567962.924,4309079.395,-538.806
567962.924,4308979.395,-532.057
567962.924,4308879.395,-527.778
567962.924,4308779.395,-527.923
567962.924,4308679.395,-527.983
567962.924,4308579.395,-528.122
567962.924,4308479.395,-525.293
567962.924,4308379.395,-524.356
567962.924,4308279.395,-520.466
567962.924,4308179.395,-518.402
567962.924,4308079.395,-520.593
567962.924,4307979.395,-526.551
567962.924,4307879.395,-537.852
567962.924,4307779.395,-546.225
567962.924,4307679.395,-555.247
567962.924,4307579.395,-569.198
567962.924,4307479.395,-587.431
567962.924,4307379.395,-612.177
567962.924,4307279.395,-628.674
567962.924,4307179.395,-641.384
567962.924,4307079.395,-648.246
567962.924,4306979.395,-652.390
567962.924,4306879.395,-656.958
567962.924,4306779.395,-662.892
567962.924,4306679.395,-666.029
567962.924,4306579.395,-671.241
567962.924,4306479.395,-678.260
567962.924,4306379.395,-682.738
567962.924,4306279.395,-687.532
567962.924,4306179.395,-692.959
567962.924,4306079.395,-699.700
568062.924,4310179.395,-697.690
568062.924,4310079.395,-683.874
568062.924,4309979.395,-665.126
568062.924,4309879.395,-634.881
568062.924,4309779.395,-590.885
568062.924,4309679.395,-589.136
568062.924,4309579.395,-593.799
568062.924,4309479.395,-588.783
568062.924,4309379.395,-576.646
568062.924,4309279.395,-569.430
568062.924,4309179.395,-554.876
568062.924,4309079.395,-543.085
568062.924,4308979.395,-535.218
568062.924,4308879.395,-531.228
568062.924,4308779.395,-532.487
568062.924,4308679.395,-531.191
568062.924,4308579.395,-528.500
568062.924,4308479.395,-524.820
568062.924,4308379.395,-520.887
568062.924,4308279.395,-518.965
568062.924,4308179.395,-518.747
568062.924,4308079.395,-520.231
568062.924,4307979.395,-524.785
568062.924,4307879.395,-536.014
568062.924,4307779.395,-543.422
568062.924,4307679.395,-554.270
568062.924,4307579.395,-575.421
568062.924,4307479.395,-607.480
568062.924,4307379.395,-623.007
568062.924,4307279.395,-639.885
568062.924,4307179.395,-646.878
568062.924,4307079.395,-649.564
568062.924,4306979.395,-651.557
568062.924,4306879.395,-655.633
568062.924,4306779.395,-660.144
568062.924,4306679.395,-662.897
568062.924,4306579.395,-669.951
568062.924,4306479.395,-675.486
568062.924,4306379.395,-682.649
568062.924,4306279.395,-688.704
568062.924,4306179.395,-698.405
568162.924,4310179.395,-698.598
568162.924,4310079.395,-693.000
568162.924,4309979.395,-677.031
568162.924,4309879.395,-651.753
568162.924,4309779.395,-617.399
568162.924,4309679.395,-602.945
568162.924,4309579.395,-600.624
568162.924,4309479.395,-595.486
568162.924,4309379.395,-593.615
568162.924,4309279.395,-587.841
568162.924,4309179.395,-571.985
568162.924,4309079.395,-550.710
568162.924,4308979.395,-542.506
568162.924,4308879.395,-544.556
568162.924,4308779.395,-544.174
568162.924,4308679.395,-538.555
568162.924,4308579.395,-530.657
568162.924,4308479.395,-526.726
568162.924,4308379.395,-521.545
568162.924,4308279.395,-518.708
568162.924,4308179.395,-519.292
568162.924,4308079.395,-522.191
568162.924,4307979.395,-527.271
568162.924,4307879.395,-536.744
568162.924,4307779.395,-543.751
568162.924,4307679.395,-562.490
568162.924,4307579.395,-606.058
568162.924,4307479.395,-630.422
568162.924,4307379.395,-635.399
568162.924,4307279.395,-643.136
568162.924,4307179.395,-647.216
568162.924,4307079.395,-647.745
568162.924,4306979.395,-649.278
568162.924,4306879.395,-653.545
568162.924,4306779.395,-657.229
568162.924,4306679.395,-663.975
568162.924,4306579.395,-669.716
568162.924,4306479.395,-677.871
568162.924,4306379.395,-686.824
568162.924,4306279.395,-698.035
568262.924,4310179.395,-696.325
568262.924,4310079.395,-692.836
568262.924,4309979.395,-685.492
568262.924,4309879.395,-666.681
568262.924,4309779.395,-647.795
568262.924,4309679.395,-632.485
568262.924,4309579.395,-620.046
568262.924,4309479.395,-608.477
568262.924,4309379.395,-602.266
568262.924,4309279.395,-595.505
568262.924,4309179.395,-592.981
568262.924,4309079.395,-579.042
568262.924,4308979.395,-561.581
568262.924,4308879.395,-563.283
568262.924,4308779.395,-564.082
568262.924,4308679.395,-549.523
568262.924,4308579.395,-541.916
568262.924,4308479.395,-531.690
568262.924,4308379.395,-524.942
568262.924,4308279.395,-524.243
568262.924,4308179.395,-525.272
568262.924,4308079.395,-527.844
568262.924,4307979.395,-536.120
568262.924,4307879.395,-545.368
568262.924,4307779.395,-550.413
568262.924,4307679.395,-595.554
568262.924,4307579.395,-627.294
568262.924,4307479.395,-638.280
568262.924,4307379.395,-639.385
568262.924,4307279.395,-645.401
568262.924,4307179.395,-645.924
568262.924,4307079.395,-645.801
568262.924,4306979.395,-648.551
568262.924,4306879.395,-651.476
568262.924,4306779.395,-657.632
568262.924,4306679.395,-665.438
568262.924,4306579.395,-675.808
568262.924,4306479.395,-685.826
568262.924,4306379.395,-697.388
568362.924,4310179.395,-696.176
568362.924,4310079.395,-692.761
568362.924,4309979.395,-688.190
568362.924,4309879.395,-680.053
568362.924,4309779.395,-667.039
568362.924,4309679.395,-653.360
568362.924,4309579.395,-641.311
568362.924,4309479.395,-628.362
568362.924,4309379.395,-625.866
568362.924,4309279.395,-629.719
568362.924,4309179.395,-630.277
568362.924,4309079.395,-614.592
568362.924,4308979.395,-595.369
568362.924,4308879.395,-590.941
568362.924,4308779.395,-578.142
568362.924,4308679.395,-561.915
568362.924,4308579.395,-553.395
568362.924,4308479.395,-544.166
568362.924,4308379.395,-536.117
568362.924,4308279.395,-533.468
568362.924,4308179.395,-532.136
568362.924,4308079.395,-533.719
568362.924,4307979.395,-550.404
568362.924,4307879.395,-551.644
568362.924,4307779.395,-585.595
568362.924,4307679.395,-623.593
568362.924,4307579.395,-639.808
568362.924,4307479.395,-639.041
568362.924,4307379.395,-644.535
568362.924,4307279.395,-645.948
568362.924,4307179.395,-645.202
568362.924,4307079.395,-645.922
568362.924,4306979.395,-647.688
568362.924,4306879.395,-655.590
568362.924,4306779.395,-663.067
568362.924,4306679.395,-672.553
568362.924,4306579.395,-683.031
568362.924,4306479.395,-695.428
568462.924,4310179.395,-694.559
568462.924,4310079.395,-691.568
568462.924,4309979.395,-686.496
568462.924,4309879.395,-679.575
568462.924,4309779.395,-674.748
568462.924,4309679.395,-669.081
568462.924,4309579.395,-660.578
568462.924,4309479.395,-652.036
568462.924,4309379.395,-650.375
568462.924,4309279.395,-651.895
568462.924,4309179.395,-652.748
568462.924,4309079.395,-646.753
568462.924,4308979.395,-628.126
568462.924,4308879.395,-606.922
568462.924,4308779.395,-598.378
568462.924,4308679.395,-590.064
568462.924,4308579.395,-581.037
568462.924,4308479.395,-564.076
568462.924,4308379.395,-557.447
568462.924,4308279.395,-547.018
568462.924,4308179.395,-542.871
568462.924,4308079.395,-551.096
568462.924,4307979.395,-560.527
568462.924,4307879.395,-586.522
568462.924,4307779.395,-619.737
568462.924,4307679.395,-640.105
568462.924,4307579.395,-645.735
568462.924,4307479.395,-645.782
568462.924,4307379.395,-647.103
568462.924,4307279.395,-645.104
568462.924,4307179.395,-644.514
568462.924,4307079.395,-646.102
568462.924,4306979.395,-653.716
568462.924,4306879.395,-660.996
568462.924,4306779.395,-669.407
568462.924,4306679.395,-678.715
568462.924,4306579.395,-690.759
568562.924,4310079.395,-695.344
568562.924,4309979.395,-686.790
568562.924,4309879.395,-683.219
568562.924,4309779.395,-675.491
568562.924,4309679.395,-671.596
568562.924,4309579.395,-666.464
568562.924,4309479.395,-660.506
568562.924,4309379.395,-654.962
568562.924,4309279.395,-654.656
568562.924,4309179.395,-656.922
568562.924,4309079.395,-656.437
568562.924,4308979.395,-652.186
568562.924,4308879.395,-634.927
568562.924,4308779.395,-621.977
568562.924,4308679.395,-614.539
568562.924,4308579.395,-587.260
568562.924,4308479.395,-577.387
568562.924,4308379.395,-572.384
568562.924,4308279.395,-566.944
568562.924,4308179.395,-562.415
568562.924,4308079.395,-569.265
568562.924,4307979.395,-589.081
568562.924,4307879.395,-617.653
568562.924,4307779.395,-639.193
568562.924,4307679.395,-647.502
568562.924,4307579.395,-647.181
568562.924,4307479.395,-645.446
568562.924,4307379.395,-641.928
568562.924,4307279.395,-641.739
568562.924,4307179.395,-643.899
568562.924,4307079.395,-651.056
568562.924,4306979.395,-658.783
568562.924,4306879.395,-666.676
568562.924,4306779.395,-675.033
568562.924,4306679.395,-685.158
568562.924,4306579.395,-696.156
568662.924,4309979.395,-689.976
568662.924,4309879.395,-680.420
568662.924,4309779.395,-675.070
568662.924,4309679.395,-669.679
568662.924,4309579.395,-664.720
568662.924,4309479.395,-657.736
568662.924,4309379.395,-652.063
568662.924,4309279.395,-650.847
568662.924,4309179.395,-653.334
568662.924,4309079.395,-656.868
568662.924,4308979.395,-654.473
568662.924,4308879.395,-643.242
568662.924,4308779.395,-636.941
568662.924,4308679.395,-626.036
568662.924,4308579.395,-608.344
568662.924,4308479.395,-585.997
568662.924,4308379.395,-582.784
568662.924,4308279.395,-583.616
568662.924,4308179.395,-581.807
568662.924,4308079.395,-584.177
568662.924,4307979.395,-610.209
568662.924,4307879.395,-637.650
568662.924,4307779.395,-644.414
568662.924,4307679.395,-645.570
568662.924,4307579.395,-642.966
568662.924,4307479.395,-639.112
568662.924,4307379.395,-638.063
568662.924,4307279.395,-640.878
568662.924,4307179.395,-647.293
568662.924,4307079.395,-655.470
568662.924,4306979.395,-663.981
568662.924,4306879.395,-671.309
568662.924,4306779.395,-679.568
568662.924,4306679.395,-690.356
568762.924,4309979.395,-693.886
568762.924,4309879.395,-684.860
568762.924,4309779.395,-677.279
568762.924,4309679.395,-670.157
568762.924,4309579.395,-663.392
568762.924,4309479.395,-656.964
568762.924,4309379.395,-650.777
568762.924,4309279.395,-646.291
568762.924,4309179.395,-647.291
568762.924,4309079.395,-649.139
568762.924,4308979.395,-649.124
568762.924,4308879.395,-644.338
568762.924,4308779.395,-637.174
568762.924,4308679.395,-630.489
568762.924,4308579.395,-618.464
568762.924,4308479.395,-613.183
568762.924,4308379.395,-589.126
568762.924,4308279.395,-594.424
568762.924,4308179.395,-605.711
568762.924,4308079.395,-614.463
568762.924,4307979.395,-637.368
568762.924,4307879.395,-644.856
568762.924,4307779.395,-645.007
568762.924,4307679.395,-640.761
568762.924,4307579.395,-637.411
568762.924,4307479.395,-635.514
568762.924,4307379.395,-637.468
568762.924,4307279.395,-643.732
568762.924,4307179.395,-651.730
568762.924,4307079.395,-659.316
568762.924,4306979.395,-666.276
568762.924,4306879.395,-674.831
568762.924,4306779.395,-686.962
568762.924,4306679.395,-696.711
568862.924,4309879.395,-694.714
568862.924,4309779.395,-685.951
568862.924,4309679.395,-677.172
568862.924,4309579.395,-669.274
568862.924,4309479.395,-662.371
568862.924,4309379.395,-654.497
568862.924,4309279.395,-648.433
568862.924,4309179.395,-645.263
568862.924,4309079.395,-643.499
568862.924,4308979.395,-643.758
568862.924,4308879.395,-639.069
568862.924,4308779.395,-634.472
568862.924,4308679.395,-629.733
568862.924,4308579.395,-624.814
568862.924,4308479.395,-618.090
568862.924,4308379.395,-609.634
568862.924,4308279.395,-610.442
568862.924,4308179.395,-623.630
568862.924,4308079.395,-635.864
568862.924,4307979.395,-641.258
568862.924,4307879.395,-643.814
568862.924,4307779.395,-642.062
568862.924,4307679.395,-639.770
568862.924,4307579.395,-637.524
568862.924,4307479.395,-639.084
568862.924,4307379.395,-643.065
568862.924,4307279.395,-650.968
568862.924,4307179.395,-656.377
568862.924,4307079.395,-662.218
568862.924,4306979.395,-669.408
568862.924,4306879.395,-679.329
568862.924,4306779.395,-689.039
568862.924,4306679.395,-697.711
568962.924,4309679.395,-689.336
568962.924,4309579.395,-681.991
568962.924,4309479.395,-673.288
568962.924,4309379.395,-663.849
568962.924,4309279.395,-655.923
568962.924,4309179.395,-647.730
568962.924,4309079.395,-645.846
568962.924,4308979.395,-642.168
568962.924,4308879.395,-638.855
568962.924,4308779.395,-636.015
568962.924,4308679.395,-633.655
568962.924,4308579.395,-634.244
568962.924,4308479.395,-634.876
568962.924,4308379.395,-630.574
568962.924,4308279.395,-628.196
568962.924,4308179.395,-635.965
568962.924,4308079.395,-643.960
568962.924,4307979.395,-648.151
568962.924,4307879.395,-647.118
568962.924,4307779.395,-644.621
568962.924,4307679.395,-642.788
568962.924,4307579.395,-643.588
568962.924,4307479.395,-647.302
568962.924,4307379.395,-651.532
568962.924,4307279.395,-657.193
568962.924,4307179.395,-661.324
568962.924,4307079.395,-667.054
568962.924,4306979.395,-675.164
568962.924,4306879.395,-682.346
568962.924,4306779.395,-687.245
568962.924,4306679.395,-699.099
569062.924,4309579.395,-696.008
569062.924,4309479.395,-688.015
569062.924,4309379.395,-678.358
569062.924,4309279.395,-666.219
569062.924,4309179.395,-659.762
569062.924,4309079.395,-654.406
569062.924,4308979.395,-649.789
569062.924,4308879.395,-646.040
569062.924,4308779.395,-644.465
569062.924,4308679.395,-645.198
569062.924,4308579.395,-648.432
569062.924,4308479.395,-645.368
569062.924,4308379.395,-643.582
569062.924,4308279.395,-641.202
569062.924,4308179.395,-644.307
569062.924,4308079.395,-651.044
569062.924,4307979.395,-654.034
569062.924,4307879.395,-654.299
569062.924,4307779.395,-651.740
569062.924,4307679.395,-650.397
569062.924,4307579.395,-651.752
569062.924,4307479.395,-653.372
569062.924,4307379.395,-658.484
569062.924,4307279.395,-663.550
569062.924,4307179.395,-668.322
569062.924,4307079.395,-673.251
569062.924,4306979.395,-678.573
569062.924,4306879.395,-682.632
569062.924,4306779.395,-692.365
569062.924,4306679.395,-697.919
569162.924,4309379.395,-691.261
569162.924,4309279.395,-682.472
569162.924,4309179.395,-676.742
569162.924,4309079.395,-668.199
569162.924,4308979.395,-661.967
569162.924,4308879.395,-658.144
569162.924,4308779.395,-656.221
569162.924,4308679.395,-657.526
569162.924,4308579.395,-659.799
569162.924,4308479.395,-655.113
569162.924,4308379.395,-654.137
569162.924,4308279.395,-649.010
569162.924,4308179.395,-651.599
569162.924,4308079.395,-655.038
569162.924,4307979.395,-656.770
569162.924,4307879.395,-656.280
569162.924,4307779.395,-654.850
569162.924,4307679.395,-653.569
569162.924,4307579.395,-656.275
569162.924,4307479.395,-658.949
569162.924,4307379.395,-663.859
569162.924,4307279.395,-668.170
569162.924,4307179.395,-672.456
569162.924,4307079.395,-677.484
569162.924,4306979.395,-682.243
569162.924,4306879.395,-682.950
569162.924,4306779.395,-696.930
569262.924,4309279.395,-699.044
569262.924,4309179.395,-693.307
569262.924,4309079.395,-685.225
569262.924,4308979.395,-679.270
569262.924,4308879.395,-672.625
569262.924,4308779.395,-668.727
569262.924,4308679.395,-670.131
569262.924,4308579.395,-668.573
569262.924,4308479.395,-669.487
569262.924,4308379.395,-664.333
569262.924,4308279.395,-659.262
569262.924,4308179.395,-657.213
569262.924,4308079.395,-656.303
569262.924,4307979.395,-654.661
569262.924,4307879.395,-654.228
569262.924,4307779.395,-653.629
569262.924,4307679.395,-656.147
569262.924,4307579.395,-658.548
569262.924,4307479.395,-663.807
569262.924,4307379.395,-667.472
569262.924,4307279.395,-672.208
569262.924,4307179.395,-675.842
569262.924,4307079.395,-680.417
569262.924,4306979.395,-685.833
569262.924,4306879.395,-690.751
569262.924,4306779.395,-699.404
569362.924,4308979.395,-695.981
569362.924,4308879.395,-687.467
569362.924,4308779.395,-683.759
569362.924,4308679.395,-680.864
569362.924,4308579.395,-677.473
569362.924,4308479.395,-677.029
569362.924,4308379.395,-672.794
569362.924,4308279.395,-666.209
569362.924,4308179.395,-659.552
569362.924,4308079.395,-655.030
569362.924,4307979.395,-652.536
569362.924,4307879.395,-651.942
569362.924,4307779.395,-654.962
569362.924,4307679.395,-658.612
569362.924,4307579.395,-663.975
569362.924,4307479.395,-668.581
569362.924,4307379.395,-672.156
569362.924,4307279.395,-675.759
569362.924,4307179.395,-679.316
569362.924,4307079.395,-683.551
569362.924,4306979.395,-688.492
569362.924,4306879.395,-693.148
569462.924,4308779.395,-697.450
569462.924,4308679.395,-691.573
569462.924,4308579.395,-691.173
569462.924,4308479.395,-688.637
569462.924,4308379.395,-681.445
569462.924,4308279.395,-671.245
569462.924,4308179.395,-661.394
569462.924,4308079.395,-654.749
569462.924,4307979.395,-652.601
569462.924,4307879.395,-653.775
569462.924,4307779.395,-658.577
569462.924,4307679.395,-662.850
569462.924,4307579.395,-669.719
569462.924,4307479.395,-673.909
569462.924,4307379.395,-677.677
569462.924,4307279.395,-679.381
569462.924,4307179.395,-681.463
569462.924,4307079.395,-684.629
569462.924,4306979.395,-691.799
569462.924,4306879.395,-697.262
569562.924,4308679.395,-698.215
569562.924,4308579.395,-694.579
569562.924,4308479.395,-691.145
569562.924,4308379.395,-684.990
569562.924,4308279.395,-673.485
569562.924,4308179.395,-663.078
569562.924,4308079.395,-655.427
569562.924,4307979.395,-653.778
569562.924,4307879.395,-657.544
569562.924,4307779.395,-662.707
569562.924,4307679.395,-669.472
569562.924,4307579.395,-675.091
569562.924,4307479.395,-680.045
569562.924,4307379.395,-682.605
569562.924,4307279.395,-683.564
569562.924,4307179.395,-684.805
569562.924,4307079.395,-689.176
569562.924,4306979.395,-696.065
569662.924,4308579.395,-699.072
569662.924,4308479.395,-693.551
569662.924,4308379.395,-686.679
569662.924,4308279.395,-675.793
569662.924,4308179.395,-664.639
569662.924,4308079.395,-656.742
569662.924,4307979.395,-657.146
569662.924,4307879.395,-662.486
569662.924,4307779.395,-669.280
569662.924,4307679.395,-676.792
569662.924,4307579.395,-682.974
569662.924,4307479.395,-686.112
569662.924,4307379.395,-688.310
569662.924,4307279.395,-689.140
569662.924,4307179.395,-692.101
569662.924,4307079.395,-696.155
569762.924,4308479.395,-694.910
569762.924,4308379.395,-689.447
569762.924,4308279.395,-679.782
569762.924,4308179.395,-668.765
569762.924,4308079.395,-661.900
569762.924,4307979.395,-662.848
569762.924,4307879.395,-669.173
569762.924,4307779.395,-678.344
569762.924,4307679.395,-684.071
569762.924,4307579.395,-690.649
569762.924,4307479.395,-693.984
569762.924,4307379.395,-695.387
569762.924,4307279.395,-696.604
569762.924,4307179.395,-698.765
569862.924,4308479.395,-696.553
569862.924,4308379.395,-691.487
569862.924,4308279.395,-684.246
569862.924,4308179.395,-676.026
569862.924,4308079.395,-670.594
569862.924,4307979.395,-673.028
569862.924,4307879.395,-676.491
569862.924,4307779.395,-684.946
569862.924,4307679.395,-691.553
569862.924,4307579.395,-696.665
569962.924,4308479.395,-695.410
569962.924,4308379.395,-691.768
569962.924,4308279.395,-687.386
569962.924,4308179.395,-683.804
569962.924,4308079.395,-680.463
569962.924,4307979.395,-682.595
569962.924,4307879.395,-687.371
569962.924,4307779.395,-690.786
569962.924,4307679.395,-697.377
570062.924,4308479.395,-697.520
570062.924,4308379.395,-692.835
570062.924,4308279.395,-689.011
570062.924,4308179.395,-688.528
570062.924,4308079.395,-688.444
570062.924,4307979.395,-688.681
570062.924,4307879.395,-693.831
570062.924,4307779.395,-696.412
570162.924,4308379.395,-695.467
570162.924,4308279.395,-692.416
570162.924,4308179.395,-692.879
570162.924,4308079.395,-693.361
570162.924,4307979.395,-694.774
570162.924,4307879.395,-698.198
570262.924,4308279.395,-698.718
570262.924,4308179.395,-698.433
570262.924,4308079.395,-697.710
570762.924,4308979.395,-696.445
570762.924,4308879.395,-689.280
570862.924,4309079.395,-688.199
570862.924,4308979.395,-696.478
570862.924,4308879.395,-689.410
570962.924,4309079.395,-688.385
570962.924,4308979.395,-696.511
570962.924,4308879.395,-689.539
571062.924,4309079.395,-688.570
571062.924,4308979.395,-696.544
571062.924,4308879.395,-689.669
571162.924,4309079.395,-688.756
571162.924,4308979.395,-696.577
571162.924,4308879.395,-689.798
571262.924,4309079.395,-688.942
571262.924,4308979.395,-696.610
571262.924,4308879.395,-689.928
571362.924,4309079.395,-689.128
571362.924,4308979.395,-696.643
571362.924,4308879.395,-690.057
571462.924,4309079.395,-689.314
571462.924,4308979.395,-696.676
571462.924,4308879.395,-690.187
571462.924,4308279.395,-698.895
571562.924,4309079.395,-689.500
571562.924,4308979.395,-696.709
571562.924,4308879.395,-690.316
571562.924,4308379.395,-694.789
571562.924,4308279.395,-698.910
571662.924,4309079.395,-689.686
571662.924,4308979.395,-696.742
571662.924,4308879.395,-690.445
571662.924,4308379.395,-694.741
571662.924,4308279.395,-698.925
571762.924,4309079.395,-689.872
571762.924,4308979.395,-696.776
571762.924,4308879.395,-690.575
571762.924,4308679.395,-695.485
571762.924,4308579.395,-694.865
571762.924,4308379.395,-694.693
571762.924,4308279.395,-698.939
571862.924,4309279.395,-697.678
571862.924,4309079.395,-690.057
571862.924,4308979.395,-696.809
571862.924,4308879.395,-690.704
571862.924,4308779.395,-681.297
571862.924,4308679.395,-695.361
571862.924,4308579.395,-694.664
571862.924,4308379.395,-694.644
571862.924,4308279.395,-698.954
571962.924,4309479.395,-684.432
571962.924,4309379.395,-673.265
571962.924,4309279.395,-697.626
571962.924,4309179.395,-675.864
571962.924,4309079.395,-690.243
571962.924,4308979.395,-696.842
571962.924,4308879.395,-690.834
571962.924,4308779.395,-680.624
571962.924,4308679.395,-695.237
571962.924,4308579.395,-694.464
571962.924,4308379.395,-694.596
571962.924,4308279.395,-698.969
572062.924,4309579.395,-690.865
572062.924,4309479.395,-684.309
572062.924,4309379.395,-672.622
572062.924,4309279.395,-697.573
572062.924,4309179.395,-675.218
572062.924,4309079.395,-690.429
572062.924,4308979.395,-696.875
572062.924,4308879.395,-690.963
572062.924,4308779.395,-679.951
572062.924,4308679.395,-695.113
572062.924,4308579.395,-694.263
572062.924,4308379.395,-694.548
572062.924,4308279.395,-698.984
572162.924,4309379.395,-671.980
572162.924,4309279.395,-697.521
572162.924,4309179.395,-674.572
572162.924,4309079.395,-690.615
572162.924,4308979.395,-696.908
572162.924,4308879.395,-691.093
572162.924,4308779.395,-679.278
572162.924,4308679.395,-694.989
572162.924,4308579.395,-694.063
572162.924,4308379.395,-694.499
572162.924,4308279.395,-698.998
572262.924,4309279.395,-697.468
572262.924,4309179.395,-673.926
572262.924,4309079.395,-690.801
572262.924,4308979.395,-696.941
572262.924,4308879.395,-691.222
572262.924,4308779.395,-678.605
572262.924,4308679.395,-694.864
572262.924,4308579.395,-693.863
572262.924,4308379.395,-694.451
572262.924,4308279.395,-699.013
572362.924,4308979.395,-696.974
572362.924,4308879.395,-691.352
572362.924,4308779.395,-677.932
572362.924,4308679.395,-694.740
572362.924,4308579.395,-693.662
572362.924,4308379.395,-694.402
572362.924,4308279.395,-699.028
572462.924,4308779.395,-677.259
572462.924,4308679.395,-694.616
572462.924,4308579.395,-693.462
572462.924,4308379.395,-694.354
572462.924,4308279.395,-699.043
572562.924,4308679.395,-694.492
572562.924,4308579.395,-693.262
572562.924,4308379.395,-694.306
572562.924,4308279.395,-699.057
572662.924,4308579.395,-693.061
572662.924,4308479.395,-695.225
572662.924,4308379.395,-694.257
572662.924,4308279.395,-699.072
572762.924,4308479.395,-695.137
572762.924,4308379.395,-694.209
572762.924,4308279.395,-699.087
572762.924,4308179.395,-691.262
572762.924,4308079.395,-696.179
572862.924,4308479.395,-695.049
