572562.756,4323579.179,-1220.534
572562.756,4323379.179,-1205.427
572562.756,4323179.179,-1199.495
572562.756,4322979.179,-1172.885
572562.756,4322779.179,-1151.213
572562.756,4322579.179,-1135.534
572562.756,4322379.179,-1127.938
572562.756,4322179.179,-1124.250
572562.756,4321979.179,-1122.603
572562.756,4321779.179,-1122.538
572562.756,4321579.179,-1127.853
572562.756,4321379.179,-1147.447
572562.756,4321179.179,-1151.718
572562.756,4320979.179,-1160.981
572562.756,4320779.179,-1171.486
572562.756,4320579.179,-1186.135
572562.756,4320379.179,-1188.965
572562.756,4320179.179,-1194.021
572562.756,4319979.179,-1207.830
572562.756,4319779.179,-1203.739
572562.756,4319579.179,-1201.035
572562.756,4319379.179,-1188.974
572562.756,4319179.179,-1173.027
572562.756,4318979.179,-1162.716
572562.756,4318779.179,-1145.104
572562.756,4318579.179,-1145.493
572562.756,4318379.179,-1148.145
572562.756,4318179.179,-1151.898
572562.756,4317979.179,-1159.739
572562.756,4317779.179,-1167.526
572562.756,4317579.179,-1155.900
572562.756,4317379.179,-1210.442
572562.756,4317179.179,-1203.843
572562.756,4316979.179,-1201.844
572562.756,4316779.179,-1190.502
572562.756,4316579.179,-1185.127
572562.756,4316379.179,-1183.589
572562.756,4316179.179,-1179.375
572562.756,4315979.179,-1168.576
572562.756,4315779.179,-1150.164
572562.756,4315579.179,-1134.350
572562.756,4315379.179,-1104.150
572562.756,4315179.179,-1090.788
572562.756,4314979.179,-1086.895
572562.756,4314779.179,-1078.639
572562.756,4314579.179,-1056.758
572562.756,4314379.179,-1046.087
572562.756,4314179.179,-1042.776
572562.756,4313979.179,-1012.632
572562.756,4313779.179,-938.747
572562.756,4313579.179,-902.469
572562.756,4313379.179,-903.629
572562.756,4313179.179,-917.715
572562.756,4312979.179,-992.744
572562.756,4312779.179,-1015.291
572562.756,4312579.179,-996.849
572562.756,4312379.179,-934.288
572562.756,4312179.179,-894.900
572562.756,4311979.179,-869.483
572562.756,4311779.179,-842.320
572562.756,4311579.179,-830.017
572562.756,4311379.179,-808.342
572562.756,4311179.179,-795.976
572562.756,4310979.179,-801.068
572562.756,4310779.179,-845.493
572562.756,4310579.179,-910.291
572562.756,4310379.179,-921.523
572562.756,4310179.179,-914.412
572562.756,4309979.179,-932.059
572562.756,4309779.179,-949.960
572562.756,4309579.179,-962.138
572562.756,4309379.179,-959.097
572562.756,4309179.179,-978.890
572562.756,4308979.179,-980.199
572562.756,4308779.179,-958.931
572562.756,4308579.179,-936.546
572562.756,4308379.179,-903.095
572562.756,4308179.179,-882.056
572562.756,4307979.179,-868.889
572562.756,4307779.179,-854.142
572562.756,4307579.179,-842.560
572562.756,4307379.179,-830.336
572562.756,4307179.179,-829.081
572562.756,4306979.179,-836.917
572562.756,4306779.179,-833.266
572562.756,4306579.179,-829.766
572562.756,4306379.179,-831.110
572562.756,4306179.179,-830.338
572562.756,4305979.179,-838.411
572562.756,4305779.179,-837.820
572562.756,4305579.179,-842.424
572562.756,4305379.179,-845.928
572562.756,4304979.179,-860.104
572562.756,4304779.179,-870.321
572762.756,4339379.179,-1367.233
572762.756,4339179.179,-1366.608
572762.756,4338979.179,-1363.955
572762.756,4338779.179,-1358.241
572762.756,4338579.179,-1360.878
572762.756,4338379.179,-1365.293
572762.756,4338179.179,-1365.274
572762.756,4337979.179,-1368.821
572762.756,4337779.179,-1374.349
572762.756,4337579.179,-1377.648
572762.756,4337379.179,-1381.652
572762.756,4337179.179,-1382.006
572762.756,4336979.179,-1382.783
572762.756,4336779.179,-1384.069
572762.756,4336579.179,-1384.988
572762.756,4336379.179,-1384.329
572762.756,4336179.179,-1386.602
572762.756,4335979.179,-1385.398
572762.756,4335779.179,-1386.557
572762.756,4335579.179,-1385.430
572762.756,4335379.179,-1384.450
572762.756,4335179.179,-1379.031
572762.756,4334979.179,-1378.947
572762.756,4334779.179,-1382.078
572762.756,4334579.179,-1388.140
572762.756,4334379.179,-1390.701
572762.756,4334179.179,-1390.267
572762.756,4333979.179,-1392.420
572762.756,4333779.179,-1393.684
572762.756,4333579.179,-1394.524
572762.756,4333379.179,-1394.524
572762.756,4333179.179,-1392.109
572762.756,4332979.179,-1394.093
572762.756,4332779.179,-1393.584
572762.756,4332579.179,-1393.555
572762.756,4332379.179,-1391.034
572762.756,4332179.179,-1391.892
572762.756,4331979.179,-1392.696
572762.756,4331779.179,-1394.414
572762.756,4331579.179,-1393.222
572762.756,4331379.179,-1391.851
572762.756,4331179.179,-1393.586
572762.756,4330979.179,-1394.736
572762.756,4330779.179,-1393.843
572762.756,4330579.179,-1389.718
572762.756,4330379.179,-1391.855
572762.756,4330179.179,-1396.806
572762.756,4329979.179,-1394.535
572762.756,4329779.179,-1399.295
572762.756,4329579.179,-1397.867
572762.756,4329379.179,-1398.519
572762.756,4329179.179,-1397.349
572762.756,4328979.179,-1395.414
572762.756,4328779.179,-1394.617
572762.756,4328579.179,-1393.886
572762.756,4328379.179,-1392.412
572762.756,4328179.179,-1388.310
572762.756,4327979.179,-1397.457
572762.756,4327779.179,-1399.166
572762.756,4327579.179,-1399.635
572762.756,4327379.179,-1394.528
572762.756,4327179.179,-1397.375
572762.756,4326979.179,-1390.110
572762.756,4326779.179,-1381.751
572762.756,4326579.179,-1378.244
572762.756,4326379.179,-1373.023
572762.756,4326179.179,-1382.232
572762.756,4325979.179,-1383.166
572762.756,4325779.179,-1383.859
572762.756,4325579.179,-1370.589
572762.756,4325379.179,-1361.626
572762.756,4325179.179,-1349.856
572762.756,4324979.179,-1349.943
572762.756,4324779.179,-1318.110
572762.756,4324579.179,-1306.486
572762.756,4324379.179,-1292.980
572762.756,4324179.179,-1281.888
572762.756,4323979.179,-1269.393
572762.756,4323779.179,-1244.924
572762.756,4323579.179,-1218.910
572762.756,4323379.179,-1204.322
572762.756,4323179.179,-1189.328
572762.756,4322979.179,-1181.626
572762.756,4322779.179,-1165.730
572762.756,4322579.179,-1147.272
572762.756,4322379.179,-1134.888
572762.756,4322179.179,-1131.435
572762.756,4321979.179,-1130.922
572762.756,4321779.179,-1134.861
572762.756,4321579.179,-1149.366
572762.756,4321379.179,-1154.768
572762.756,4321179.179,-1164.246
572762.756,4320979.179,-1174.333
572762.756,4320779.179,-1185.247
572762.756,4320579.179,-1215.460
572762.756,4320379.179,-1221.399
572762.756,4320179.179,-1218.089
572762.756,4319979.179,-1223.805
572762.756,4319779.179,-1228.227
572762.756,4319579.179,-1231.008
572762.756,4319379.179,-1218.486
572762.756,4319179.179,-1214.864
572762.756,4318979.179,-1211.178
572762.756,4318779.179,-1182.956
572762.756,4318579.179,-1173.503
572762.756,4318379.179,-1172.271
572762.756,4318179.179,-1170.849
572762.756,4317979.179,-1181.393
572762.756,4317779.179,-1190.843
572762.756,4317579.179,-1198.168
572762.756,4317379.179,-1214.237
572762.756,4317179.179,-1215.320
572762.756,4316979.179,-1206.010
572762.756,4316779.179,-1196.649
572762.756,4316579.179,-1193.863
572762.756,4316379.179,-1180.719
572762.756,4316179.179,-1174.347
572762.756,4315979.179,-1161.052
572762.756,4315779.179,-1146.712
572762.756,4315579.179,-1121.471
572762.756,4315379.179,-1102.166
572762.756,4315179.179,-1080.244
572762.756,4314979.179,-1070.515
572762.756,4314779.179,-1053.523
572762.756,4314579.179,-1041.492
572762.756,4314379.179,-1044.460
572762.756,4314179.179,-1043.787
572762.756,4313979.179,-1004.569
572762.756,4313779.179,-945.625
572762.756,4313579.179,-938.742
572762.756,4313379.179,-959.076
572762.756,4313179.179,-989.528
572762.756,4312979.179,-1052.034
572762.756,4312779.179,-1043.248
572762.756,4312579.179,-959.617
572762.756,4312379.179,-901.765
572762.756,4312179.179,-887.171
572762.756,4311979.179,-879.628
572762.756,4311779.179,-884.671
572762.756,4311579.179,-865.264
572762.756,4311379.179,-850.755
572762.756,4311179.179,-848.487
572762.756,4310979.179,-838.786
572762.756,4310779.179,-855.981
572762.756,4310579.179,-902.538
572762.756,4310379.179,-905.990
572762.756,4310179.179,-911.074
572762.756,4309979.179,-961.552
572762.756,4309779.179,-990.824
572762.756,4309579.179,-998.153
572762.756,4309379.179,-996.523
572762.756,4309179.179,-992.767
572762.756,4308979.179,-986.783
572762.756,4308779.179,-966.865
572762.756,4308579.179,-943.858
572762.756,4308379.179,-913.818
572762.756,4308179.179,-880.277
572762.756,4307979.179,-867.143
572762.756,4307779.179,-852.187
572762.756,4307579.179,-836.014
572762.756,4307379.179,-829.186
572762.756,4307179.179,-833.498
572762.756,4306979.179,-842.150
572762.756,4306779.179,-844.429
572762.756,4306579.179,-839.932
572762.756,4306379.179,-845.110
572762.756,4306179.179,-844.439
572762.756,4305979.179,-849.872
572762.756,4305779.179,-847.843
572762.756,4305579.179,-853.361
572762.756,4305379.179,-859.616
572762.756,4305179.179,-865.970
572762.756,4304979.179,-873.343
572762.756,4304779.179,-880.503
572962.756,4339379.179,-1371.148
572962.756,4339179.179,-1366.387
572962.756,4338979.179,-1368.281
572962.756,4338779.179,-1363.640
572962.756,4338579.179,-1368.879
572962.756,4338379.179,-1364.924
572962.756,4338179.179,-1368.841
572962.756,4337979.179,-1369.250
572962.756,4337779.179,-1372.676
572962.756,4337579.179,-1376.032
572962.756,4337379.179,-1380.073
572962.756,4337179.179,-1382.683
572962.756,4336979.179,-1384.490
572962.756,4336779.179,-1385.658
572962.756,4336579.179,-1384.206
572962.756,4336379.179,-1387.997
572962.756,4336179.179,-1387.853
572962.756,4335979.179,-1387.955
572962.756,4335779.179,-1392.563
572962.756,4335579.179,-1390.947
572962.756,4335379.179,-1380.860
572962.756,4335179.179,-1384.957
572962.756,4334979.179,-1380.358
572962.756,4334779.179,-1385.939
572962.756,4334579.179,-1387.252
572962.756,4334379.179,-1388.741
572962.756,4334179.179,-1392.009
572962.756,4333979.179,-1391.328
572962.756,4333779.179,-1394.828
572962.756,4333579.179,-1395.955
572962.756,4333379.179,-1395.311
572962.756,4333179.179,-1395.773
572962.756,4332979.179,-1394.193
572962.756,4332779.179,-1395.090
572962.756,4332579.179,-1392.534
572962.756,4332379.179,-1393.150
572962.756,4332179.179,-1391.981
572962.756,4331979.179,-1393.248
572962.756,4331779.179,-1393.577
572962.756,4331579.179,-1393.233
572962.756,4331379.179,-1394.233
572962.756,4331179.179,-1392.744
572962.756,4330979.179,-1394.205
572962.756,4330779.179,-1392.828
572962.756,4330579.179,-1393.115
572962.756,4330379.179,-1393.707
572962.756,4330179.179,-1399.009
572962.756,4329979.179,-1396.574
572962.756,4329779.179,-1398.954
572962.756,4329579.179,-1398.089
572962.756,4329379.179,-1398.712
572962.756,4329179.179,-1398.086
572962.756,4328979.179,-1397.536
572962.756,4328779.179,-1398.244
572962.756,4328579.179,-1395.659
572962.756,4328379.179,-1398.814
572962.756,4328179.179,-1398.906
572962.756,4327979.179,-1404.054
572962.756,4327779.179,-1405.799
572962.756,4327579.179,-1400.149
572962.756,4327379.179,-1403.202
572962.756,4327179.179,-1401.767
572962.756,4326979.179,-1398.272
572962.756,4326779.179,-1387.002
572962.756,4326579.179,-1384.110
572962.756,4326379.179,-1390.568
572962.756,4326179.179,-1393.666
572962.756,4325979.179,-1398.538
572962.756,4325779.179,-1404.642
572962.756,4325579.179,-1395.262
572962.756,4325379.179,-1379.585
572962.756,4325179.179,-1380.477
572962.756,4324979.179,-1363.341
572962.756,4324779.179,-1328.700
572962.756,4324579.179,-1314.836
572962.756,4324379.179,-1297.677
572962.756,4324179.179,-1286.630
572962.756,4323979.179,-1266.818
572962.756,4323779.179,-1248.644
572962.756,4323579.179,-1221.360
572962.756,4323379.179,-1197.961
572962.756,4323179.179,-1185.985
572962.756,4322979.179,-1181.976
572962.756,4322779.179,-1168.976
572962.756,4322579.179,-1152.554
572962.756,4322379.179,-1141.204
572962.756,4322179.179,-1145.296
572962.756,4321979.179,-1144.632
572962.756,4321779.179,-1152.231
572962.756,4321579.179,-1166.274
572962.756,4321379.179,-1175.523
572962.756,4321179.179,-1189.982
572962.756,4320979.179,-1197.579
572962.756,4320779.179,-1204.770
572962.756,4320579.179,-1238.865
572962.756,4320379.179,-1253.298
572962.756,4320179.179,-1260.146
572962.756,4319979.179,-1254.299
572962.756,4319779.179,-1252.984
572962.756,4319579.179,-1257.848
572962.756,4319379.179,-1249.766
572962.756,4319179.179,-1250.540
572962.756,4318979.179,-1244.686
572962.756,4318779.179,-1217.883
572962.756,4318579.179,-1206.047
572962.756,4318379.179,-1196.957
572962.756,4318179.179,-1196.443
572962.756,4317979.179,-1208.021
572962.756,4317779.179,-1221.253
572962.756,4317579.179,-1223.873
572962.756,4317379.179,-1227.473
572962.756,4317179.179,-1219.541
572962.756,4316979.179,-1208.634
572962.756,4316779.179,-1205.742
572962.756,4316579.179,-1190.932
572962.756,4316379.179,-1188.398
572962.756,4316179.179,-1170.899
572962.756,4315979.179,-1148.256
572962.756,4315779.179,-1129.653
572962.756,4315579.179,-1116.790
572962.756,4315379.179,-1097.929
572962.756,4315179.179,-1081.762
572962.756,4314979.179,-1060.428
572962.756,4314779.179,-1037.368
572962.756,4314579.179,-1030.205
572962.756,4314379.179,-1039.809
572962.756,4314179.179,-1044.392
572962.756,4313979.179,-1009.806
572962.756,4313779.179,-985.834
572962.756,4313579.179,-996.482
572962.756,4313379.179,-1025.248
572962.756,4313179.179,-1090.886
572962.756,4312979.179,-1102.290
572962.756,4312779.179,-1022.317
572962.756,4312579.179,-960.036
572962.756,4312379.179,-925.304
572962.756,4312179.179,-917.535
572962.756,4311979.179,-929.807
572962.756,4311779.179,-932.792
572962.756,4311579.179,-916.494
572962.756,4311179.179,-881.948
572962.756,4310979.179,-860.242
572962.756,4310779.179,-862.645
572962.756,4310579.179,-906.368
572962.756,4310379.179,-888.409
572962.756,4310179.179,-939.180
572962.756,4309979.179,-980.745
572962.756,4309779.179,-1005.833
572962.756,4309579.179,-1002.675
572962.756,4309379.179,-997.521
572962.756,4309179.179,-982.118
572962.756,4308979.179,-955.207
572962.756,4308779.179,-934.258
572962.756,4308579.179,-919.481
572962.756,4308379.179,-906.236
572962.756,4308179.179,-901.527
572962.756,4307979.179,-892.062
572962.756,4307779.179,-868.987
572962.756,4307579.179,-836.648
572962.756,4307379.179,-828.618
572962.756,4307179.179,-843.439
572962.756,4306979.179,-859.156
572962.756,4306779.179,-858.177
572962.756,4306579.179,-860.050
572962.756,4306379.179,-861.305
572962.756,4306179.179,-864.880
572962.756,4305979.179,-857.679
572962.756,4305779.179,-865.499
572962.756,4305579.179,-867.935
572962.756,4305379.179,-874.356
572962.756,4305179.179,-880.811
572962.756,4304979.179,-884.885
572962.756,4304779.179,-893.732
573162.756,4339379.179,-1374.607
573162.756,4339179.179,-1372.517
573162.756,4338979.179,-1367.192
573162.756,4338779.179,-1371.990
573162.756,4338579.179,-1370.185
573162.756,4338379.179,-1368.975
573162.756,4338179.179,-1370.085
573162.756,4337979.179,-1371.800
573162.756,4337779.179,-1371.460
573162.756,4337579.179,-1376.307
573162.756,4337379.179,-1380.888
573162.756,4337179.179,-1383.983
573162.756,4336979.179,-1386.052
573162.756,4336779.179,-1384.405
573162.756,4336579.179,-1384.497
573162.756,4336379.179,-1389.742
573162.756,4336179.179,-1387.838
573162.756,4335979.179,-1397.219
573162.756,4335779.179,-1386.917
573162.756,4335579.179,-1387.383
573162.756,4335379.179,-1393.463
573162.756,4335179.179,-1383.762
573162.756,4334979.179,-1388.021
573162.756,4334779.179,-1386.789
573162.756,4334579.179,-1387.559
573162.756,4334379.179,-1390.581
573162.756,4334179.179,-1393.384
573162.756,4333979.179,-1393.495
573162.756,4333779.179,-1396.513
573162.756,4333579.179,-1395.991
573162.756,4333379.179,-1397.534
573162.756,4333179.179,-1397.622
573162.756,4332979.179,-1396.271
573162.756,4332779.179,-1395.995
573162.756,4332579.179,-1390.912
573162.756,4332379.179,-1395.877
573162.756,4332179.179,-1396.241
573162.756,4331979.179,-1392.834
573162.756,4331779.179,-1394.164
573162.756,4331579.179,-1392.068
573162.756,4331379.179,-1395.053
573162.756,4331179.179,-1393.765
573162.756,4330979.179,-1393.824
573162.756,4330779.179,-1396.895
573162.756,4330579.179,-1393.217
573162.756,4330379.179,-1395.846
573162.756,4330179.179,-1395.338
573162.756,4329979.179,-1396.083
573162.756,4329779.179,-1402.298
573162.756,4329579.179,-1401.168
573162.756,4329379.179,-1399.182
573162.756,4329179.179,-1398.129
573162.756,4328979.179,-1398.714
573162.756,4328779.179,-1400.664
573162.756,4328579.179,-1399.945
573162.756,4328379.179,-1401.662
573162.756,4328179.179,-1401.192
573162.756,4327979.179,-1405.755
573162.756,4327779.179,-1403.862
573162.756,4327579.179,-1401.294
573162.756,4327379.179,-1402.034
573162.756,4327179.179,-1402.831
573162.756,4326979.179,-1399.687
573162.756,4326779.179,-1395.425
573162.756,4326579.179,-1400.162
573162.756,4326379.179,-1405.627
573162.756,4326179.179,-1407.189
573162.756,4325979.179,-1409.086
573162.756,4325779.179,-1409.862
573162.756,4325579.179,-1409.284
573162.756,4325379.179,-1406.087
573162.756,4325179.179,-1388.771
573162.756,4324979.179,-1372.289
573162.756,4324779.179,-1333.225
573162.756,4324579.179,-1319.711
573162.756,4324379.179,-1303.694
573162.756,4324179.179,-1287.193
573162.756,4323979.179,-1267.325
573162.756,4323779.179,-1248.426
573162.756,4323579.179,-1230.348
573162.756,4323379.179,-1213.809
573162.756,4323179.179,-1194.630
573162.756,4322979.179,-1186.199
573162.756,4322779.179,-1173.653
573162.756,4322579.179,-1161.614
573162.756,4322379.179,-1157.056
573162.756,4322179.179,-1163.944
573162.756,4321979.179,-1169.956
573162.756,4321779.179,-1176.105
573162.756,4321579.179,-1191.124
573162.756,4321379.179,-1203.052
573162.756,4321179.179,-1224.332
573162.756,4320979.179,-1233.469
573162.756,4320779.179,-1242.568
573162.756,4320579.179,-1266.625
573162.756,4320379.179,-1279.459
573162.756,4320179.179,-1288.453
573162.756,4319979.179,-1287.125
573162.756,4319779.179,-1278.390
573162.756,4319579.179,-1270.868
573162.756,4319379.179,-1268.360
573162.756,4319179.179,-1267.858
573162.756,4318979.179,-1255.898
573162.756,4318779.179,-1243.892
573162.756,4318579.179,-1226.743
573162.756,4318379.179,-1221.251
573162.756,4318179.179,-1221.366
573162.756,4317979.179,-1227.696
573162.756,4317779.179,-1247.442
573162.756,4317579.179,-1251.018
573162.756,4317379.179,-1239.376
573162.756,4317179.179,-1230.032
573162.756,4316979.179,-1221.053
573162.756,4316779.179,-1210.267
573162.756,4316579.179,-1197.659
573162.756,4316379.179,-1170.494
573162.756,4316179.179,-1146.876
573162.756,4315979.179,-1123.602
573162.756,4315779.179,-1114.289
573162.756,4315579.179,-1103.799
573162.756,4315379.179,-1078.753
573162.756,4315179.179,-1063.002
573162.756,4314979.179,-1041.141
573162.756,4314779.179,-1039.740
573162.756,4314579.179,-1049.985
573162.756,4314379.179,-1068.074
573162.756,4314179.179,-1066.241
573162.756,4313979.179,-1046.423
573162.756,4313779.179,-1052.587
573162.756,4313579.179,-1067.576
573162.756,4313379.179,-1104.903
573162.756,4313179.179,-1128.430
573162.756,4312979.179,-1114.635
573162.756,4312779.179,-1046.110
573162.756,4312579.179,-968.097
573162.756,4312379.179,-957.333
573162.756,4312179.179,-965.471
573162.756,4311979.179,-968.906
573162.756,4311779.179,-963.763
573162.756,4311579.179,-946.833
573162.756,4311379.179,-934.157
573162.756,4311179.179,-911.677
573162.756,4310979.179,-865.793
573162.756,4310779.179,-857.920
573162.756,4310579.179,-838.380
573162.756,4310379.179,-912.341
573162.756,4310179.179,-999.046
573162.756,4309979.179,-1014.119
573162.756,4309779.179,-1017.906
573162.756,4309579.179,-1003.323
573162.756,4309379.179,-977.060
573162.756,4309179.179,-930.326
573162.756,4308979.179,-917.129
573162.756,4308779.179,-900.956
573162.756,4308579.179,-893.635
573162.756,4308379.179,-891.190
573162.756,4308179.179,-891.637
573162.756,4307979.179,-879.883
573162.756,4307779.179,-851.549
573162.756,4307579.179,-826.163
573162.756,4307379.179,-828.084
573162.756,4307179.179,-850.005
573162.756,4306979.179,-865.847
573162.756,4306779.179,-868.039
573162.756,4306579.179,-882.567
573162.756,4306379.179,-881.449
573162.756,4306179.179,-880.416
573162.756,4305979.179,-881.602
573162.756,4305779.179,-882.772
573162.756,4305579.179,-887.575
573162.756,4305379.179,-891.287
573162.756,4305179.179,-896.038
573162.756,4304979.179,-896.446
573162.756,4304779.179,-901.278
573362.756,4339379.179,-1374.944
573362.756,4339179.179,-1374.238
573362.756,4338979.179,-1373.803
573362.756,4338779.179,-1373.655
573362.756,4338579.179,-1372.947
573362.756,4338379.179,-1372.089
573362.756,4338179.179,-1370.989
573362.756,4337979.179,-1372.807
573362.756,4337779.179,-1373.584
573362.756,4337579.179,-1374.960
573362.756,4337379.179,-1379.808
573362.756,4337179.179,-1382.153
573362.756,4336979.179,-1388.763
573362.756,4336779.179,-1384.910
573362.756,4336579.179,-1383.946
573362.756,4336379.179,-1387.132
573362.756,4336179.179,-1393.350
573362.756,4335979.179,-1391.607
573362.756,4335779.179,-1394.515
573362.756,4335579.179,-1391.781
573362.756,4335379.179,-1393.623
573362.756,4335179.179,-1392.579
573362.756,4334979.179,-1386.985
573362.756,4334779.179,-1390.082
573362.756,4334579.179,-1389.089
573362.756,4334379.179,-1390.820
573362.756,4334179.179,-1392.847
573362.756,4333979.179,-1395.667
573362.756,4333779.179,-1396.296
573362.756,4333579.179,-1396.164
573362.756,4333379.179,-1396.334
573362.756,4333179.179,-1397.310
573362.756,4332979.179,-1393.593
573362.756,4332779.179,-1397.874
573362.756,4332579.179,-1390.300
573362.756,4332379.179,-1391.177
573362.756,4332179.179,-1388.362
573362.756,4331979.179,-1393.849
573362.756,4331779.179,-1392.951
573362.756,4331579.179,-1394.034
573362.756,4331379.179,-1395.583
573362.756,4331179.179,-1396.279
573362.756,4330979.179,-1395.937
573362.756,4330779.179,-1393.822
573362.756,4330579.179,-1392.848
573362.756,4330379.179,-1396.935
573362.756,4330179.179,-1393.911
573362.756,4329979.179,-1397.724
573362.756,4329779.179,-1402.172
573362.756,4329579.179,-1397.658
573362.756,4329379.179,-1398.273
573362.756,4329179.179,-1400.285
573362.756,4328979.179,-1399.160
573362.756,4328779.179,-1401.353
573362.756,4328579.179,-1401.771
573362.756,4328379.179,-1403.194
573362.756,4328179.179,-1404.389
573362.756,4327979.179,-1406.411
573362.756,4327779.179,-1399.443
573362.756,4327579.179,-1408.244
573362.756,4327379.179,-1406.043
573362.756,4327179.179,-1403.839
573362.756,4326979.179,-1403.293
573362.756,4326779.179,-1403.914
573362.756,4326579.179,-1406.987
573362.756,4326379.179,-1407.959
573362.756,4326179.179,-1410.532
573362.756,4325979.179,-1413.150
573362.756,4325779.179,-1413.739
573362.756,4325579.179,-1411.431
573362.756,4325379.179,-1409.686
573362.756,4325179.179,-1408.826
573362.756,4324979.179,-1351.756
573362.756,4324779.179,-1338.225
573362.756,4324579.179,-1328.055
573362.756,4324379.179,-1307.149
573362.756,4324179.179,-1289.465
573362.756,4323979.179,-1272.513
573362.756,4323779.179,-1254.733
573362.756,4323579.179,-1244.767
573362.756,4323379.179,-1223.839
573362.756,4323179.179,-1200.776
573362.756,4322979.179,-1192.637
573362.756,4322779.179,-1178.488
573362.756,4322579.179,-1169.920
573362.756,4322379.179,-1176.642
573362.756,4322179.179,-1184.486
573362.756,4321979.179,-1198.120
573362.756,4321779.179,-1210.897
573362.756,4321579.179,-1222.809
573362.756,4321379.179,-1244.936
573362.756,4321179.179,-1268.840
573362.756,4320979.179,-1281.973
573362.756,4320779.179,-1294.025
573362.756,4320579.179,-1299.367
573362.756,4320379.179,-1306.778
573362.756,4320179.179,-1317.398
573362.756,4319979.179,-1310.203
573362.756,4319779.179,-1296.499
573362.756,4319579.179,-1281.424
573362.756,4319379.179,-1281.360
573362.756,4319179.179,-1277.042
573362.756,4318979.179,-1279.519
573362.756,4318779.179,-1262.567
573362.756,4318579.179,-1244.043
573362.756,4318379.179,-1237.790
573362.756,4318179.179,-1258.399
573362.756,4317979.179,-1266.471
573362.756,4317779.179,-1270.582
573362.756,4317579.179,-1267.624
573362.756,4317379.179,-1253.683
573362.756,4317179.179,-1250.654
573362.756,4316979.179,-1239.251
573362.756,4316779.179,-1211.587
573362.756,4316579.179,-1190.943
573362.756,4316379.179,-1161.441
573362.756,4316179.179,-1132.751
573362.756,4315979.179,-1114.107
573362.756,4315779.179,-1089.864
573362.756,4315579.179,-1065.421
573362.756,4315379.179,-1073.849
573362.756,4315179.179,-1065.988
573362.756,4314979.179,-1060.045
573362.756,4314779.179,-1083.177
573362.756,4314579.179,-1098.361
573362.756,4314379.179,-1134.409
573362.756,4314179.179,-1124.152
573362.756,4313979.179,-1114.238
573362.756,4313779.179,-1115.127
573362.756,4313579.179,-1116.959
573362.756,4313379.179,-1147.876
573362.756,4313179.179,-1145.180
573362.756,4312979.179,-1118.460
573362.756,4312779.179,-1047.609
573362.756,4312579.179,-1012.043
573362.756,4312379.179,-1002.105
573362.756,4312179.179,-1006.722
573362.756,4311979.179,-1000.511
573362.756,4311779.179,-987.484
573362.756,4311579.179,-958.433
573362.756,4311379.179,-914.015
573362.756,4311179.179,-882.576
573362.756,4310979.179,-915.066
573362.756,4310779.179,-929.974
573362.756,4310579.179,-910.420
573362.756,4310379.179,-972.830
573362.756,4310179.179,-1031.215
573362.756,4309979.179,-1031.387
573362.756,4309779.179,-1011.946
573362.756,4309579.179,-963.765
573362.756,4309379.179,-916.654
573362.756,4309179.179,-863.522
573362.756,4308979.179,-847.281
573362.756,4308779.179,-838.963
573362.756,4308579.179,-862.259
573362.756,4308379.179,-851.974
573362.756,4308179.179,-859.154
573362.756,4307979.179,-849.466
573362.756,4307779.179,-830.233
573362.756,4307579.179,-824.133
573362.756,4307379.179,-828.969
573362.756,4307179.179,-849.816
573362.756,4306979.179,-864.412
573362.756,4306779.179,-869.159
573362.756,4306579.179,-869.185
573362.756,4306379.179,-876.208
573362.756,4306179.179,-887.614
573362.756,4305979.179,-891.061
573362.756,4305779.179,-896.368
573362.756,4305579.179,-900.040
573362.756,4305379.179,-901.832
573362.756,4305179.179,-904.355
573362.756,4304979.179,-904.168
573362.756,4304779.179,-905.368
573562.756,4339379.179,-1378.993
573562.756,4339179.179,-1377.323
573562.756,4338979.179,-1377.734
573562.756,4338779.179,-1375.120
573562.756,4338579.179,-1373.516
573562.756,4338379.179,-1372.780
573562.756,4338179.179,-1371.761
573562.756,4337979.179,-1375.094
573562.756,4337779.179,-1374.897
573562.756,4337579.179,-1377.219
573562.756,4337379.179,-1380.680
573562.756,4337179.179,-1379.534
573562.756,4336979.179,-1387.328
573562.756,4336779.179,-1388.390
573562.756,4336579.179,-1385.101
573562.756,4336379.179,-1388.552
573562.756,4336179.179,-1393.239
573562.756,4335979.179,-1392.500
573562.756,4335779.179,-1393.562
573562.756,4335579.179,-1394.383
573562.756,4335379.179,-1397.025
573562.756,4335179.179,-1395.094
573562.756,4334979.179,-1392.552
573562.756,4334779.179,-1391.064
573562.756,4334579.179,-1392.848
573562.756,4334379.179,-1392.569
573562.756,4334179.179,-1394.457
573562.756,4333979.179,-1396.880
573562.756,4333779.179,-1397.599
573562.756,4333579.179,-1395.693
573562.756,4333379.179,-1396.731
573562.756,4333179.179,-1393.106
573562.756,4332979.179,-1397.477
573562.756,4332779.179,-1393.813
573562.756,4332579.179,-1397.041
573562.756,4332379.179,-1399.611
573562.756,4332179.179,-1395.115
573562.756,4331979.179,-1391.885
573562.756,4331779.179,-1396.763
573562.756,4331579.179,-1393.708
573562.756,4331379.179,-1396.307
573562.756,4331179.179,-1396.801
573562.756,4330979.179,-1397.323
573562.756,4330779.179,-1396.571
573562.756,4330579.179,-1395.766
573562.756,4330379.179,-1399.017
573562.756,4330179.179,-1400.947
573562.756,4329979.179,-1399.716
573562.756,4329779.179,-1401.171
573562.756,4329579.179,-1397.370
573562.756,4329379.179,-1399.566
573562.756,4329179.179,-1399.499
573562.756,4328979.179,-1401.250
573562.756,4328779.179,-1402.272
573562.756,4328579.179,-1404.044
573562.756,4328379.179,-1402.161
573562.756,4328179.179,-1401.853
573562.756,4327979.179,-1404.211
573562.756,4327379.179,-1395.275
573562.756,4327179.179,-1406.898
573562.756,4326979.179,-1405.636
573562.756,4326779.179,-1406.741
573562.756,4326579.179,-1409.018
573562.756,4326379.179,-1412.416
573562.756,4326179.179,-1415.273
573562.756,4325979.179,-1416.786
573562.756,4325779.179,-1415.325
573562.756,4325579.179,-1413.908
573562.756,4325379.179,-1413.822
573562.756,4325179.179,-1412.252
573562.756,4324979.179,-1377.118
573562.756,4324779.179,-1370.356
573562.756,4324579.179,-1344.908
573562.756,4324379.179,-1313.788
573562.756,4324179.179,-1292.162
573562.756,4323979.179,-1273.672
573562.756,4323779.179,-1258.258
573562.756,4323579.179,-1249.493
573562.756,4323379.179,-1231.224
573562.756,4323179.179,-1212.974
573562.756,4322979.179,-1198.143
573562.756,4322779.179,-1192.252
573562.756,4322579.179,-1188.639
573562.756,4322379.179,-1197.403
573562.756,4322179.179,-1220.117
573562.756,4321979.179,-1237.172
573562.756,4321779.179,-1259.764
573562.756,4321579.179,-1271.981
573562.756,4321379.179,-1296.141
573562.756,4321179.179,-1313.949
573562.756,4320979.179,-1320.334
573562.756,4320779.179,-1324.573
573562.756,4320579.179,-1323.095
573562.756,4320379.179,-1326.943
573562.756,4320179.179,-1336.333
573562.756,4319979.179,-1319.751
573562.756,4319779.179,-1305.260
573562.756,4319579.179,-1298.841
573562.756,4319379.179,-1299.993
573562.756,4319179.179,-1291.717
573562.756,4318979.179,-1291.669
573562.756,4318779.179,-1284.201
573562.756,4318579.179,-1278.880
573562.756,4318379.179,-1272.555
573562.756,4318179.179,-1284.597
573562.756,4317979.179,-1280.614
573562.756,4317779.179,-1288.109
573562.756,4317579.179,-1273.098
573562.756,4317379.179,-1267.771
573562.756,4317179.179,-1252.275
573562.756,4316979.179,-1231.369
573562.756,4316779.179,-1212.576
573562.756,4316579.179,-1191.822
573562.756,4316379.179,-1166.262
573562.756,4316179.179,-1130.739
573562.756,4315979.179,-1107.186
573562.756,4315779.179,-1100.197
573562.756,4315579.179,-1122.026
573562.756,4315379.179,-1109.529
573562.756,4315179.179,-1142.920
573562.756,4314979.179,-1136.295
573562.756,4314779.179,-1148.698
573562.756,4314579.179,-1167.076
573562.756,4314379.179,-1181.997
573562.756,4314179.179,-1178.139
573562.756,4313979.179,-1150.127
573562.756,4313779.179,-1155.827
573562.756,4313579.179,-1165.559
573562.756,4313379.179,-1172.666
573562.756,4313179.179,-1159.428
573562.756,4312979.179,-1114.656
573562.756,4312779.179,-1042.156
573562.756,4312579.179,-1023.295
573562.756,4312379.179,-1035.380
573562.756,4312179.179,-1049.668
573562.756,4311979.179,-1043.064
573562.756,4311779.179,-1019.060
573562.756,4311579.179,-948.647
573562.756,4311179.179,-900.602
573562.756,4310979.179,-951.410
573562.756,4310779.179,-1003.019
573562.756,4310579.179,-989.555
573562.756,4310379.179,-1037.063
573562.756,4310179.179,-1055.297
573562.756,4309979.179,-1032.527
573562.756,4309779.179,-985.242
573562.756,4309579.179,-938.142
573562.756,4309379.179,-896.112
573562.756,4309179.179,-793.413
573562.756,4308979.179,-772.621
573562.756,4308779.179,-759.975
573562.756,4308579.179,-823.814
573562.756,4308379.179,-807.342
573562.756,4308179.179,-804.465
573562.756,4307979.179,-797.531
573562.756,4307779.179,-809.217
573562.756,4307579.179,-850.110
573562.756,4307379.179,-835.421
573562.756,4307179.179,-845.894
573562.756,4306979.179,-866.674
573562.756,4306779.179,-869.116
573562.756,4306579.179,-873.375
573562.756,4306379.179,-879.040
573562.756,4306179.179,-886.919
573562.756,4305979.179,-896.267
573562.756,4305779.179,-905.677
573562.756,4305579.179,-911.072
573562.756,4305379.179,-916.971
573562.756,4305179.179,-917.180
573562.756,4304979.179,-917.812
573562.756,4304779.179,-912.352
573762.756,4339379.179,-1379.961
573762.756,4339179.179,-1379.520
573762.756,4338979.179,-1381.352
573762.756,4338779.179,-1379.092
573762.756,4338579.179,-1378.778
573762.756,4338379.179,-1376.847
573762.756,4338179.179,-1373.835
573762.756,4337979.179,-1374.590
573762.756,4337779.179,-1376.575
573762.756,4337579.179,-1375.638
573762.756,4337379.179,-1378.654
573762.756,4337179.179,-1379.644
573762.756,4336979.179,-1384.164
573762.756,4336779.179,-1388.768
573762.756,4336579.179,-1391.678
573762.756,4336379.179,-1389.167
573762.756,4336179.179,-1390.690
573762.756,4335979.179,-1390.810
573762.756,4335779.179,-1397.497
573762.756,4335579.179,-1391.043
573762.756,4335379.179,-1398.512
573762.756,4335179.179,-1397.634
573762.756,4334979.179,-1395.511
573762.756,4334779.179,-1394.660
573762.756,4334579.179,-1395.867
573762.756,4334379.179,-1394.827
573762.756,4334179.179,-1395.096
573762.756,4333979.179,-1395.023
573762.756,4333779.179,-1398.729
573762.756,4333579.179,-1396.863
573762.756,4333379.179,-1393.986
573762.756,4333179.179,-1394.340
573762.756,4332979.179,-1396.829
573762.756,4332779.179,-1401.922
573762.756,4332179.179,-1392.489
573762.756,4331979.179,-1397.064
573762.756,4331779.179,-1394.196
573762.756,4331579.179,-1396.936
573762.756,4331379.179,-1396.830
573762.756,4331179.179,-1397.559
573762.756,4330979.179,-1396.687
573762.756,4330779.179,-1399.013
573762.756,4330579.179,-1399.544
573762.756,4330379.179,-1401.066
573762.756,4330179.179,-1395.135
573762.756,4329979.179,-1399.618
573762.756,4329779.179,-1401.605
573762.756,4329579.179,-1401.354
573762.756,4329379.179,-1399.478
573762.756,4329179.179,-1400.467
573762.756,4328979.179,-1400.746
573762.756,4328779.179,-1402.038
573762.756,4328579.179,-1404.619
573762.756,4328379.179,-1405.457
573762.756,4328179.179,-1402.204
573762.756,4327379.179,-1405.095
573762.756,4327179.179,-1404.047
573762.756,4326979.179,-1406.172
573762.756,4326779.179,-1410.083
573762.756,4326579.179,-1412.212
573762.756,4326379.179,-1415.928
573762.756,4326179.179,-1417.410
573762.756,4325979.179,-1416.267
573762.756,4325779.179,-1416.644
573762.756,4325579.179,-1416.138
573762.756,4325379.179,-1416.719
573762.756,4325179.179,-1412.226
573762.756,4324979.179,-1403.517
573762.756,4324779.179,-1370.171
573762.756,4324579.179,-1357.701
573762.756,4324379.179,-1332.434
573762.756,4324179.179,-1302.278
573762.756,4323979.179,-1285.092
573762.756,4323779.179,-1269.647
573762.756,4323579.179,-1255.448
573762.756,4323379.179,-1239.989
573762.756,4323179.179,-1226.172
573762.756,4322979.179,-1211.567
573762.756,4322779.179,-1203.836
573762.756,4322579.179,-1221.629
573762.756,4322379.179,-1230.033
573762.756,4322179.179,-1256.651
573762.756,4321979.179,-1290.123
573762.756,4321779.179,-1315.255
573762.756,4321579.179,-1338.601
573762.756,4321379.179,-1334.991
573762.756,4321179.179,-1348.498
573762.756,4320979.179,-1344.694
573762.756,4320779.179,-1333.679
573762.756,4320579.179,-1350.797
573762.756,4320379.179,-1351.067
573762.756,4320179.179,-1366.506
573762.756,4319979.179,-1320.200
573762.756,4319779.179,-1330.783
573762.756,4319579.179,-1320.933
573762.756,4319379.179,-1323.126
573762.756,4319179.179,-1316.909
573762.756,4318979.179,-1307.860
573762.756,4318779.179,-1309.199
573762.756,4318579.179,-1303.490
573762.756,4318379.179,-1302.755
573762.756,4318179.179,-1305.750
573762.756,4317979.179,-1306.129
573762.756,4317779.179,-1301.273
573762.756,4317579.179,-1294.701
573762.756,4317379.179,-1276.886
573762.756,4317179.179,-1261.889
573762.756,4316979.179,-1247.711
573762.756,4316779.179,-1230.405
573762.756,4316579.179,-1215.139
573762.756,4316379.179,-1192.222
573762.756,4316179.179,-1161.679
573762.756,4315979.179,-1155.108
573762.756,4315779.179,-1184.968
573762.756,4315579.179,-1196.051
573762.756,4315379.179,-1206.147
573762.756,4315179.179,-1217.830
573762.756,4314979.179,-1201.074
573762.756,4314779.179,-1211.115
573762.756,4314579.179,-1205.153
573762.756,4314379.179,-1198.987
573762.756,4314179.179,-1191.806
573762.756,4313979.179,-1177.763
573762.756,4313779.179,-1165.879
573762.756,4313579.179,-1175.290
573762.756,4313379.179,-1183.877
573762.756,4313179.179,-1169.449
573762.756,4312979.179,-1137.689
573762.756,4312779.179,-1097.786
573762.756,4312579.179,-1091.891
573762.756,4312379.179,-1078.445
573762.756,4312179.179,-1075.655
573762.756,4311979.179,-1056.981
573762.756,4311779.179,-991.367
573762.756,4311579.179,-905.780
573762.756,4311379.179,-933.139
573762.756,4311179.179,-968.716
573762.756,4310979.179,-1004.426
573762.756,4310779.179,-1058.054
573762.756,4310579.179,-1075.657
573762.756,4310379.179,-1073.881
573762.756,4310179.179,-1052.885
573762.756,4309979.179,-1011.306
573762.756,4309779.179,-956.907
573762.756,4309579.179,-877.706
573762.756,4309379.179,-819.960
573762.756,4309179.179,-740.556
573762.756,4308979.179,-699.221
573762.756,4308779.179,-724.575
573762.756,4308579.179,-764.020
573762.756,4308379.179,-766.391
573762.756,4308179.179,-740.811
573762.756,4307979.179,-749.786
573762.756,4307779.179,-826.357
573762.756,4307579.179,-847.792
573762.756,4307379.179,-841.411
573762.756,4307179.179,-841.380
573762.756,4306979.179,-851.290
573762.756,4306779.179,-851.972
573762.756,4306579.179,-863.754
573762.756,4306379.179,-871.525
573762.756,4306179.179,-887.299
573762.756,4305979.179,-906.285
573762.756,4305779.179,-915.733
573762.756,4305579.179,-925.759
573762.756,4305379.179,-930.876
573762.756,4305179.179,-944.380
573762.756,4304979.179,-956.112
573762.756,4304779.179,-941.034
573962.756,4339379.179,-1379.858
573962.756,4339179.179,-1383.934
573962.756,4338979.179,-1384.382
573962.756,4338779.179,-1380.175
573962.756,4338579.179,-1380.882
573962.756,4338379.179,-1377.987
573962.756,4338179.179,-1375.108
573962.756,4337979.179,-1376.055
573962.756,4337779.179,-1373.918
573962.756,4337579.179,-1378.841
573962.756,4337379.179,-1384.926
573962.756,4337179.179,-1379.265
573962.756,4336979.179,-1388.799
573962.756,4336779.179,-1387.669
573962.756,4336579.179,-1387.558
573962.756,4336379.179,-1392.686
573962.756,4336179.179,-1391.466
573962.756,4335979.179,-1396.722
573962.756,4335779.179,-1394.913
573962.756,4335579.179,-1394.916
573962.756,4335379.179,-1398.961
573962.756,4335179.179,-1398.461
573962.756,4334979.179,-1398.312
573962.756,4334779.179,-1397.806
573962.756,4334579.179,-1395.468
573962.756,4334379.179,-1396.776
573962.756,4334179.179,-1394.578
573962.756,4333979.179,-1398.781
573962.756,4333779.179,-1399.300
573962.756,4333579.179,-1397.075
573962.756,4333379.179,-1400.644
573962.756,4333179.179,-1396.366
573962.756,4332979.179,-1397.712
573962.756,4332179.179,-1392.777
573962.756,4331979.179,-1393.744
573962.756,4331779.179,-1387.723
573962.756,4331579.179,-1398.218
573962.756,4331379.179,-1397.802
573962.756,4331179.179,-1397.449
573962.756,4330979.179,-1399.750
573962.756,4330779.179,-1399.357
573962.756,4330579.179,-1403.084
573962.756,4330379.179,-1401.970
573962.756,4330179.179,-1398.764
573962.756,4329979.179,-1401.396
573962.756,4329779.179,-1400.707
573962.756,4329579.179,-1402.453
573962.756,4329379.179,-1402.401
573962.756,4329179.179,-1400.008
573962.756,4328979.179,-1401.817
573962.756,4328779.179,-1403.858
573962.756,4328579.179,-1403.880
573962.756,4327179.179,-1406.271
573962.756,4326979.179,-1405.545
573962.756,4326779.179,-1408.930
573962.756,4326579.179,-1410.904
573962.756,4326379.179,-1417.232
573962.756,4326179.179,-1415.960
573962.756,4325979.179,-1416.844
573962.756,4325779.179,-1417.028
573962.756,4325579.179,-1416.282
573962.756,4325379.179,-1417.660
573962.756,4325179.179,-1414.945
573962.756,4324979.179,-1407.957
573962.756,4324779.179,-1380.591
573962.756,4324579.179,-1364.002
573962.756,4324379.179,-1346.678
573962.756,4324179.179,-1326.890
573962.756,4323979.179,-1302.944
573962.756,4323779.179,-1282.368
573962.756,4323579.179,-1267.963
573962.756,4323379.179,-1261.140
573962.756,4323179.179,-1253.604
573962.756,4322979.179,-1247.314
573962.756,4322779.179,-1254.150
573962.756,4322579.179,-1256.747
573962.756,4322379.179,-1279.714
573962.756,4322179.179,-1307.468
573962.756,4321979.179,-1341.339
573962.756,4321779.179,-1376.478
573962.756,4321579.179,-1388.305
573962.756,4321379.179,-1394.898
573962.756,4321179.179,-1388.296
573962.756,4320979.179,-1373.121
573962.756,4320779.179,-1372.575
573962.756,4320579.179,-1370.734
573962.756,4320379.179,-1370.896
573962.756,4320179.179,-1367.042
573962.756,4319979.179,-1357.916
573962.756,4319779.179,-1348.115
573962.756,4319579.179,-1347.357
573962.756,4319379.179,-1351.701
573962.756,4319179.179,-1348.195
573962.756,4318979.179,-1332.641
573962.756,4318779.179,-1338.867
573962.756,4318579.179,-1327.743
573962.756,4318379.179,-1338.876
573962.756,4318179.179,-1334.880
573962.756,4317979.179,-1330.757
573962.756,4317779.179,-1318.655
573962.756,4317579.179,-1309.323
573962.756,4317379.179,-1293.346
573962.756,4317179.179,-1279.601
573962.756,4316979.179,-1271.854
573962.756,4316779.179,-1253.160
573962.756,4316579.179,-1237.234
573962.756,4316379.179,-1223.121
573962.756,4316179.179,-1213.995
573962.756,4315979.179,-1197.416
573962.756,4315779.179,-1232.919
573962.756,4315579.179,-1235.788
573962.756,4315379.179,-1235.515
573962.756,4315179.179,-1232.424
573962.756,4314979.179,-1228.172
573962.756,4314779.179,-1221.195
573962.756,4314579.179,-1214.240
573962.756,4314379.179,-1207.001
573962.756,4314179.179,-1190.574
573962.756,4313979.179,-1182.908
573962.756,4313779.179,-1159.327
573962.756,4313579.179,-1198.373
573962.756,4313379.179,-1203.370
573962.756,4313179.179,-1166.745
573962.756,4312979.179,-1149.613
573962.756,4312779.179,-1154.315
573962.756,4312579.179,-1150.442
573962.756,4312379.179,-1115.343
573962.756,4312179.179,-1080.740
573962.756,4311979.179,-1049.966
573962.756,4311779.179,-998.221
573962.756,4311579.179,-961.358
573962.756,4311379.179,-978.425
573962.756,4311179.179,-1034.614
573962.756,4310979.179,-1047.870
573962.756,4310779.179,-1087.797
573962.756,4310579.179,-1080.387
573962.756,4310379.179,-1078.443
573962.756,4310179.179,-1026.951
573962.756,4309979.179,-969.106
573962.756,4309779.179,-911.953
573962.756,4309579.179,-845.019
573962.756,4309379.179,-768.800
573962.756,4309179.179,-712.721
573962.756,4308979.179,-675.863
573962.756,4308779.179,-707.600
573962.756,4308579.179,-725.071
573962.756,4308379.179,-709.267
573962.756,4308179.179,-705.999
573962.756,4307979.179,-772.766
573962.756,4307779.179,-822.078
573962.756,4307579.179,-833.733
573962.756,4307379.179,-843.175
573962.756,4307179.179,-846.893
573962.756,4306979.179,-842.479
573962.756,4306779.179,-844.254
573962.756,4306579.179,-857.513
573962.756,4306379.179,-872.040
573962.756,4306179.179,-897.836
573962.756,4305979.179,-913.222
573962.756,4305779.179,-921.984
573962.756,4305579.179,-926.955
573962.756,4305379.179,-941.257
573962.756,4305179.179,-988.155
573962.756,4304979.179,-1019.987
573962.756,4304779.179,-959.551
574162.756,4339379.179,-1384.476
574162.756,4339179.179,-1387.069
574162.756,4338979.179,-1382.942
574162.756,4338779.179,-1384.048
574162.756,4338579.179,-1381.681
574162.756,4338379.179,-1378.941
574162.756,4338179.179,-1380.438
574162.756,4337979.179,-1378.486
574162.756,4337779.179,-1377.778
574162.756,4337579.179,-1381.563
574162.756,4337379.179,-1379.367
574162.756,4337179.179,-1377.997
574162.756,4336979.179,-1385.739
574162.756,4336779.179,-1389.495
574162.756,4336579.179,-1389.998
574162.756,4336379.179,-1391.371
574162.756,4336179.179,-1395.502
574162.756,4335979.179,-1396.566
574162.756,4335779.179,-1399.541
574162.756,4335579.179,-1398.547
574162.756,4335379.179,-1399.250
574162.756,4335179.179,-1398.632
574162.756,4334979.179,-1400.118
574162.756,4334779.179,-1400.306
574162.756,4334579.179,-1399.009
574162.756,4334379.179,-1396.417
574162.756,4334179.179,-1396.955
574162.756,4333979.179,-1397.463
574162.756,4333779.179,-1402.516
574162.756,4333579.179,-1400.111
574162.756,4333379.179,-1401.953
574162.756,4331979.179,-1394.394
574162.756,4331779.179,-1396.790
574162.756,4331579.179,-1394.888
574162.756,4331379.179,-1397.401
574162.756,4331179.179,-1399.010
574162.756,4330979.179,-1400.466
574162.756,4330779.179,-1400.578
574162.756,4330579.179,-1401.711
574162.756,4330379.179,-1404.307
574162.756,4330179.179,-1399.940
574162.756,4329979.179,-1402.264
574162.756,4329779.179,-1403.196
574162.756,4329579.179,-1405.042
574162.756,4329379.179,-1401.846
574162.756,4329179.179,-1402.705
574162.756,4328979.179,-1402.263
574162.756,4328779.179,-1403.549
574162.756,4327179.179,-1407.820
574162.756,4326979.179,-1407.357
574162.756,4326779.179,-1408.776
574162.756,4326579.179,-1413.319
574162.756,4326379.179,-1412.701
574162.756,4326179.179,-1415.004
574162.756,4325979.179,-1416.836
574162.756,4325779.179,-1416.731
574162.756,4325579.179,-1417.312
574162.756,4325379.179,-1416.344
574162.756,4325179.179,-1414.254
574162.756,4324979.179,-1413.555
574162.756,4324779.179,-1399.078
574162.756,4324579.179,-1380.844
574162.756,4324379.179,-1363.177
574162.756,4324179.179,-1352.667
574162.756,4323979.179,-1334.356
574162.756,4323779.179,-1312.647
574162.756,4323579.179,-1294.583
574162.756,4323379.179,-1287.718
574162.756,4323179.179,-1274.167
574162.756,4322979.179,-1275.569
574162.756,4322779.179,-1289.830
574162.756,4322579.179,-1296.337
574162.756,4322379.179,-1343.113
574162.756,4322179.179,-1357.815
574162.756,4321979.179,-1398.502
574162.756,4321779.179,-1417.834
574162.756,4321579.179,-1427.874
574162.756,4321379.179,-1428.757
574162.756,4321179.179,-1421.540
574162.756,4320979.179,-1411.577
574162.756,4320779.179,-1410.196
574162.756,4320579.179,-1400.846
574162.756,4320379.179,-1399.120
574162.756,4320179.179,-1392.669
574162.756,4319979.179,-1384.812
574162.756,4319779.179,-1367.859
574162.756,4319579.179,-1387.608
574162.756,4319379.179,-1385.579
574162.756,4319179.179,-1379.711
574162.756,4318979.179,-1369.509
574162.756,4318779.179,-1374.339
574162.756,4318579.179,-1379.521
574162.756,4318379.179,-1396.640
574162.756,4318179.179,-1386.870
574162.756,4317979.179,-1374.268
574162.756,4317779.179,-1346.913
574162.756,4317579.179,-1325.651
574162.756,4317379.179,-1315.480
574162.756,4317179.179,-1306.794
574162.756,4316979.179,-1302.858
574162.756,4316779.179,-1286.865
574162.756,4316579.179,-1271.903
574162.756,4316379.179,-1260.922
574162.756,4316179.179,-1233.332
574162.756,4315979.179,-1244.060
574162.756,4315779.179,-1248.818
574162.756,4315579.179,-1252.076
574162.756,4315379.179,-1246.015
574162.756,4315179.179,-1238.840
574162.756,4314979.179,-1232.289
574162.756,4314779.179,-1232.293
574162.756,4314579.179,-1217.474
574162.756,4314379.179,-1214.568
574162.756,4314179.179,-1202.468
574162.756,4313979.179,-1181.337
574162.756,4313779.179,-1170.878
574162.756,4313579.179,-1209.194
574162.756,4313379.179,-1218.657
574162.756,4313179.179,-1193.342
574162.756,4312979.179,-1181.642
574162.756,4312779.179,-1170.206
574162.756,4312579.179,-1152.042
574162.756,4312379.179,-1112.629
574162.756,4312179.179,-1087.038
574162.756,4311979.179,-1070.342
574162.756,4311779.179,-1061.738
