552062.756,4328979.179,-104.341
552062.756,4328929.179,-104.438
552062.756,4328879.179,-104.777
552062.756,4328829.179,-106.331
552062.756,4328779.179,-106.277
552062.756,4328729.179,-106.011
552062.756,4328679.179,-106.071
552062.756,4328629.179,-106.319
552062.756,4328579.179,-106.281
552062.756,4328529.179,-105.248
552062.756,4328479.179,-107.140
552062.756,4328429.179,-106.084
552062.756,4328379.179,-109.310
552062.756,4328329.179,-110.472
552062.756,4328279.179,-110.173
552062.756,4328229.179,-110.143
552062.756,4328179.179,-110.438
552062.756,4328129.179,-110.014
552062.756,4328079.179,-109.794
552062.756,4328029.179,-109.981
552062.756,4327979.179,-109.779
552062.756,4327929.179,-110.034
552062.756,4327879.179,-109.734
552062.756,4327829.179,-109.801
552062.756,4327779.179,-109.472
552062.756,4327729.179,-109.806
552062.756,4327679.179,-109.722
552062.756,4327629.179,-111.191
552062.756,4327579.179,-112.262
552062.756,4327529.179,-112.900
552062.756,4327479.179,-112.703
552062.756,4327429.179,-112.868
552062.756,4327379.179,-113.099
552062.756,4327329.179,-113.432
552062.756,4327279.179,-113.440
552062.756,4327229.179,-112.891
552062.756,4327179.179,-112.709
552062.756,4327129.179,-113.032
552062.756,4327079.179,-113.595
552062.756,4327029.179,-113.688
552062.756,4326979.179,-114.024
552062.756,4326929.179,-114.047
552062.756,4326879.179,-112.809
552062.756,4326829.179,-112.266
552062.756,4326779.179,-111.952
552062.756,4326729.179,-111.117
552062.756,4326679.179,-110.856
552062.756,4326629.179,-111.299
552062.756,4326579.179,-110.404
552062.756,4326529.179,-111.822
552062.756,4326479.179,-113.100
552062.756,4326429.179,-114.644
552062.756,4326379.179,-115.095
552062.756,4326329.179,-115.804
552062.756,4326279.179,-116.277
552062.756,4326229.179,-117.064
552062.756,4326179.179,-117.947
552062.756,4326129.179,-118.575
552062.756,4326079.179,-120.283
552062.756,4326029.179,-121.045
552062.756,4325979.179,-122.228
552062.756,4325929.179,-124.666
552062.756,4325879.179,-130.250
552062.756,4325829.179,-136.974
552062.756,4325779.179,-148.368
552062.756,4325729.179,-163.066
552062.756,4325679.179,-180.350
552062.756,4325629.179,-195.295
552112.756,4330329.179,-66.259
552112.756,4330279.179,-58.946
552112.756,4330229.179,-55.020
552112.756,4330179.179,-54.146
552112.756,4330129.179,-57.085
552112.756,4330079.179,-63.862
552112.756,4330029.179,-72.234
552112.756,4329979.179,-72.652
552112.756,4329929.179,-74.907
552112.756,4329879.179,-76.638
552112.756,4329829.179,-78.351
552112.756,4329779.179,-83.378
552112.756,4329729.179,-86.954
552112.756,4329679.179,-90.361
552112.756,4329629.179,-92.725
552112.756,4329579.179,-95.760
552112.756,4329529.179,-95.876
552112.756,4329479.179,-95.506
552112.756,4329429.179,-96.262
552112.756,4329379.179,-99.569
552112.756,4329329.179,-102.972
552112.756,4329279.179,-103.926
552112.756,4329229.179,-95.973
552112.756,4329179.179,-105.244
552112.756,4329129.179,-105.714
552112.756,4329079.179,-105.593
552112.756,4329029.179,-105.488
552112.756,4328979.179,-105.437
552112.756,4328929.179,-105.597
552112.756,4328879.179,-106.298
552112.756,4328829.179,-106.944
552112.756,4328779.179,-107.085
552112.756,4328729.179,-107.163
552112.756,4328679.179,-107.170
552112.756,4328629.179,-108.111
552112.756,4328579.179,-107.854
552112.756,4328529.179,-109.187
552112.756,4328479.179,-108.431
552112.756,4328429.179,-109.841
552112.756,4328379.179,-111.245
552112.756,4328329.179,-111.367
552112.756,4328279.179,-110.993
552112.756,4328229.179,-110.432
552112.756,4328179.179,-110.643
552112.756,4328129.179,-110.458
552112.756,4328079.179,-110.289
552112.756,4328029.179,-110.346
552112.756,4327979.179,-110.613
552112.756,4327929.179,-110.606
552112.756,4327879.179,-110.201
552112.756,4327829.179,-110.915
552112.756,4327779.179,-111.098
552112.756,4327729.179,-109.969
552112.756,4327679.179,-109.754
552112.756,4327629.179,-112.880
552112.756,4327579.179,-113.247
552112.756,4327529.179,-113.508
552112.756,4327479.179,-113.555
552112.756,4327429.179,-113.571
552112.756,4327379.179,-113.520
552112.756,4327329.179,-113.334
552112.756,4327279.179,-113.311
552112.756,4327229.179,-113.309
552112.756,4327179.179,-113.355
552112.756,4327129.179,-113.229
552112.756,4327079.179,-113.898
552112.756,4327029.179,-114.272
552112.756,4326929.179,-113.828
552112.756,4326879.179,-112.811
552112.756,4326829.179,-112.350
552112.756,4326779.179,-112.032
552112.756,4326729.179,-111.618
552112.756,4326679.179,-111.682
552112.756,4326629.179,-111.339
552112.756,4326579.179,-111.722
552112.756,4326529.179,-112.774
552112.756,4326479.179,-114.117
552112.756,4326429.179,-115.347
552112.756,4326379.179,-116.179
552112.756,4326329.179,-116.703
552112.756,4326279.179,-117.366
552112.756,4326229.179,-118.172
552112.756,4326179.179,-119.320
552112.756,4326129.179,-121.173
552112.756,4326079.179,-122.112
552112.756,4326029.179,-123.711
552112.756,4325979.179,-126.613
552112.756,4325929.179,-130.998
552112.756,4325879.179,-137.274
552112.756,4325829.179,-147.289
552112.756,4325779.179,-157.233
552112.756,4325729.179,-174.865
552112.756,4325679.179,-188.481
552162.756,4330379.179,-72.806
552162.756,4330329.179,-72.849
552162.756,4330279.179,-69.136
552162.756,4330229.179,-66.070
552162.756,4330179.179,-62.395
552162.756,4330129.179,-64.589
552162.756,4330079.179,-78.024
552162.756,4330029.179,-76.640
552162.756,4329979.179,-77.399
552162.756,4329929.179,-78.235
552162.756,4329879.179,-75.228
552162.756,4329829.179,-76.799
552162.756,4329779.179,-83.017
552162.756,4329729.179,-87.682
552162.756,4329679.179,-90.524
552162.756,4329629.179,-92.390
552162.756,4329579.179,-94.392
552162.756,4329529.179,-95.301
552162.756,4329479.179,-97.029
552162.756,4329429.179,-98.612
552162.756,4329379.179,-101.046
552162.756,4329329.179,-103.400
552162.756,4329279.179,-104.676
552162.756,4329229.179,-104.320
552162.756,4329179.179,-105.292
552162.756,4329129.179,-106.530
552162.756,4329079.179,-106.262
552162.756,4329029.179,-106.643
552162.756,4328979.179,-106.784
552162.756,4328929.179,-106.991
552162.756,4328879.179,-107.388
552162.756,4328829.179,-107.658
552162.756,4328779.179,-107.818
552162.756,4328729.179,-108.417
552162.756,4328679.179,-109.102
552162.756,4328629.179,-109.100
552162.756,4328579.179,-109.502
552162.756,4328529.179,-110.619
552162.756,4328479.179,-110.577
552162.756,4328429.179,-111.491
552162.756,4328379.179,-111.908
552162.756,4328329.179,-111.486
552162.756,4328279.179,-112.057
552162.756,4328229.179,-110.894
552162.756,4328179.179,-110.734
552162.756,4328129.179,-110.640
552162.756,4328079.179,-110.443
552162.756,4328029.179,-110.449
552162.756,4327979.179,-110.848
552162.756,4327929.179,-111.012
552162.756,4327879.179,-111.205
552162.756,4327829.179,-112.276
552162.756,4327779.179,-111.648
552162.756,4327729.179,-111.675
552162.756,4327679.179,-112.315
552162.756,4327629.179,-113.644
552162.756,4327579.179,-114.426
552162.756,4327529.179,-113.956
552162.756,4327479.179,-113.992
552162.756,4327429.179,-113.853
552162.756,4327379.179,-114.458
552162.756,4327329.179,-113.828
552162.756,4327279.179,-113.804
552162.756,4327229.179,-113.813
552162.756,4327179.179,-113.781
552162.756,4327129.179,-113.430
552162.756,4327079.179,-113.909
552162.756,4327029.179,-114.024
552162.756,4326979.179,-113.960
552162.756,4326929.179,-113.429
552162.756,4326879.179,-113.228
552162.756,4326829.179,-112.686
552162.756,4326779.179,-111.932
552162.756,4326729.179,-111.747
552162.756,4326679.179,-111.624
552162.756,4326629.179,-112.293
552162.756,4326579.179,-112.821
552162.756,4326529.179,-113.967
552162.756,4326479.179,-115.128
552162.756,4326429.179,-116.187
552162.756,4326379.179,-117.489
552162.756,4326329.179,-118.525
552162.756,4326279.179,-119.398
552162.756,4326229.179,-120.573
552162.756,4326179.179,-122.327
552162.756,4326129.179,-123.638
552162.756,4326079.179,-126.802
552162.756,4326029.179,-130.494
552162.756,4325979.179,-134.475
552162.756,4325929.179,-141.189
552162.756,4325879.179,-150.832
552162.756,4325829.179,-159.964
552162.756,4325729.179,-187.824
552212.756,4330479.179,-77.602
552212.756,4330429.179,-80.488
552212.756,4330379.179,-80.808
552212.756,4330329.179,-80.713
552212.756,4330279.179,-78.640
552212.756,4330229.179,-76.577
552212.756,4330179.179,-76.277
552212.756,4330129.179,-81.970
552212.756,4330079.179,-84.167
552212.756,4330029.179,-83.964
552212.756,4329979.179,-83.418
552212.756,4329929.179,-81.542
552212.756,4329879.179,-70.471
552212.756,4329829.179,-76.249
552212.756,4329779.179,-84.110
552212.756,4329729.179,-88.165
552212.756,4329679.179,-90.952
552212.756,4329629.179,-93.201
552212.756,4329579.179,-93.596
552212.756,4329529.179,-96.981
552212.756,4329479.179,-97.240
552212.756,4329429.179,-99.268
552212.756,4329379.179,-101.847
552212.756,4329329.179,-104.029
552212.756,4329279.179,-105.382
552212.756,4329229.179,-106.094
552212.756,4329179.179,-103.748
552212.756,4329129.179,-106.843
552212.756,4329079.179,-106.966
552212.756,4329029.179,-107.345
552212.756,4328979.179,-107.550
552212.756,4328929.179,-107.998
552212.756,4328879.179,-108.250
552212.756,4328829.179,-108.684
552212.756,4328779.179,-109.156
552212.756,4328729.179,-108.884
552212.756,4328679.179,-108.344
552212.756,4328629.179,-109.565
552212.756,4328579.179,-110.985
552212.756,4328529.179,-111.369
552212.756,4328479.179,-111.767
552212.756,4328429.179,-112.067
552212.756,4328379.179,-111.991
552212.756,4328329.179,-112.704
552212.756,4328279.179,-111.594
552212.756,4328229.179,-111.047
552212.756,4328179.179,-110.762
552212.756,4328129.179,-110.630
552212.756,4328079.179,-111.263
552212.756,4328029.179,-111.139
552212.756,4327979.179,-111.093
552212.756,4327929.179,-111.462
552212.756,4327879.179,-112.164
552212.756,4327829.179,-112.518
552212.756,4327779.179,-112.694
552212.756,4327729.179,-112.993
552212.756,4327679.179,-113.720
552212.756,4327629.179,-114.585
552212.756,4327579.179,-114.449
552212.756,4327529.179,-114.348
552212.756,4327479.179,-113.939
552212.756,4327429.179,-114.940
552212.756,4327379.179,-114.318
552212.756,4327329.179,-113.869
552212.756,4327279.179,-114.097
552212.756,4327229.179,-113.963
552212.756,4327179.179,-114.249
552212.756,4327129.179,-114.640
552212.756,4327079.179,-114.493
552212.756,4327029.179,-113.794
552212.756,4326979.179,-113.838
552212.756,4326929.179,-113.653
552212.756,4326879.179,-113.183
552212.756,4326829.179,-112.564
552212.756,4326779.179,-112.565
552212.756,4326729.179,-112.617
552212.756,4326679.179,-112.754
552212.756,4326629.179,-113.884
552212.756,4326579.179,-114.366
552212.756,4326529.179,-115.914
552212.756,4326479.179,-116.445
552212.756,4326429.179,-118.196
552212.756,4326379.179,-119.523
552212.756,4326329.179,-121.347
552212.756,4326279.179,-122.702
552212.756,4326229.179,-124.567
552212.756,4326179.179,-130.384
552212.756,4326129.179,-132.114
552212.756,4326079.179,-136.847
552212.756,4326029.179,-142.460
552212.756,4325979.179,-149.212
552212.756,4325929.179,-158.068
552212.756,4325879.179,-165.953
552212.756,4325829.179,-177.115
552212.756,4325779.179,-193.936
552262.756,4330529.179,-82.644
552262.756,4330479.179,-84.774
552262.756,4330429.179,-84.425
552262.756,4330379.179,-85.117
552262.756,4330329.179,-85.953
552262.756,4330279.179,-86.235
552262.756,4330229.179,-86.642
552262.756,4330179.179,-87.154
552262.756,4330129.179,-88.622
552262.756,4330079.179,-89.641
552262.756,4330029.179,-88.887
552262.756,4329979.179,-87.873
552262.756,4329929.179,-85.252
552262.756,4329879.179,-81.778
552262.756,4329829.179,-81.265
552262.756,4329779.179,-87.101
552262.756,4329729.179,-88.868
552262.756,4329679.179,-92.906
552262.756,4329629.179,-92.617
552262.756,4329579.179,-96.232
552262.756,4329529.179,-97.464
552262.756,4329479.179,-97.350
552262.756,4329429.179,-100.146
552262.756,4329379.179,-101.755
552262.756,4329329.179,-104.549
552262.756,4329279.179,-105.695
552262.756,4329229.179,-106.457
552262.756,4329179.179,-106.934
552262.756,4329129.179,-107.336
552262.756,4329079.179,-107.598
552262.756,4329029.179,-108.065
552262.756,4328979.179,-108.511
552262.756,4328929.179,-108.928
552262.756,4328879.179,-109.157
552262.756,4328829.179,-109.835
552262.756,4328779.179,-109.618
552262.756,4328729.179,-109.306
552262.756,4328679.179,-111.561
552262.756,4328629.179,-111.878
552262.756,4328579.179,-111.756
552262.756,4328529.179,-112.050
552262.756,4328479.179,-112.360
552262.756,4328429.179,-111.954
552262.756,4328379.179,-112.907
552262.756,4328329.179,-111.796
552262.756,4328279.179,-111.040
552262.756,4328229.179,-110.892
552262.756,4328179.179,-110.721
552262.756,4328129.179,-110.736
552262.756,4328079.179,-111.315
552262.756,4328029.179,-111.338
552262.756,4327979.179,-111.577
552262.756,4327929.179,-112.726
552262.756,4327879.179,-113.287
552262.756,4327829.179,-113.366
552262.756,4327779.179,-113.816
552262.756,4327729.179,-114.256
552262.756,4327679.179,-114.563
552262.756,4327629.179,-114.626
552262.756,4327579.179,-114.551
552262.756,4327529.179,-114.694
552262.756,4327479.179,-114.303
552262.756,4327429.179,-115.041
552262.756,4327379.179,-114.243
552262.756,4327329.179,-114.401
552262.756,4327279.179,-114.676
552262.756,4327229.179,-114.784
552262.756,4327179.179,-115.440
552262.756,4327129.179,-114.569
552262.756,4327079.179,-114.442
552262.756,4327029.179,-114.390
552262.756,4326979.179,-113.974
552262.756,4326929.179,-113.863
552262.756,4326879.179,-113.828
552262.756,4326829.179,-113.350
552262.756,4326779.179,-113.168
552262.756,4326729.179,-113.545
552262.756,4326679.179,-114.107
552262.756,4326629.179,-114.823
552262.756,4326579.179,-115.838
552262.756,4326529.179,-117.227
552262.756,4326479.179,-119.299
552262.756,4326429.179,-121.232
552262.756,4326379.179,-125.400
552262.756,4326329.179,-130.174
552262.756,4326279.179,-131.209
552262.756,4326229.179,-134.639
552262.756,4326179.179,-140.876
552262.756,4326129.179,-147.265
552262.756,4326079.179,-153.435
552262.756,4326029.179,-159.946
552262.756,4325979.179,-167.601
552262.756,4325929.179,-174.279
552262.756,4325879.179,-183.480
552262.756,4325829.179,-193.755
552312.756,4330579.179,-83.429
552312.756,4330529.179,-87.840
552312.756,4330479.179,-88.543
552312.756,4330429.179,-88.602
552312.756,4330379.179,-89.248
552312.756,4330329.179,-90.091
552312.756,4330279.179,-91.591
552312.756,4330229.179,-92.722
552312.756,4330179.179,-93.369
552312.756,4330129.179,-93.544
552312.756,4330079.179,-93.351
552312.756,4330029.179,-93.028
552312.756,4329979.179,-93.134
552312.756,4329929.179,-92.552
552312.756,4329879.179,-91.964
552312.756,4329829.179,-92.782
552312.756,4329779.179,-90.984
552312.756,4329729.179,-89.814
552312.756,4329679.179,-92.848
552312.756,4329629.179,-94.605
552312.756,4329579.179,-96.127
552312.756,4329529.179,-97.897
552312.756,4329479.179,-99.822
552312.756,4329429.179,-100.988
552312.756,4329379.179,-102.658
552312.756,4329329.179,-104.597
552312.756,4329279.179,-105.826
552312.756,4329229.179,-106.553
552312.756,4329179.179,-107.246
552312.756,4329129.179,-107.978
552312.756,4329079.179,-108.645
552312.756,4329029.179,-109.123
552312.756,4328979.179,-109.423
552312.756,4328929.179,-109.894
552312.756,4328879.179,-110.368
552312.756,4328829.179,-110.252
552312.756,4328779.179,-110.318
552312.756,4328729.179,-111.160
552312.756,4328679.179,-111.504
552312.756,4328629.179,-112.164
552312.756,4328579.179,-112.545
552312.756,4328529.179,-112.648
552312.756,4328479.179,-112.658
552312.756,4328429.179,-112.913
552312.756,4328379.179,-112.074
552312.756,4328329.179,-111.369
552312.756,4328279.179,-111.061
552312.756,4328229.179,-110.832
552312.756,4328179.179,-110.611
552312.756,4328129.179,-111.211
552312.756,4328079.179,-111.376
552312.756,4328029.179,-111.581
552312.756,4327979.179,-112.306
552312.756,4327929.179,-113.633
552312.756,4327879.179,-113.408
552312.756,4327829.179,-114.102
552312.756,4327779.179,-114.579
552312.756,4327729.179,-115.090
552312.756,4327679.179,-115.077
552312.756,4327629.179,-114.989
552312.756,4327579.179,-114.979
552312.756,4327529.179,-114.840
552312.756,4327479.179,-115.921
552312.756,4327429.179,-114.716
552312.756,4327379.179,-114.459
552312.756,4327329.179,-114.876
552312.756,4327279.179,-115.023
552312.756,4327229.179,-115.176
552312.756,4327179.179,-114.940
552312.756,4327129.179,-114.575
552312.756,4327079.179,-114.495
552312.756,4327029.179,-114.419
552312.756,4326979.179,-114.248
552312.756,4326929.179,-114.482
552312.756,4326879.179,-114.091
552312.756,4326829.179,-114.151
552312.756,4326779.179,-114.239
552312.756,4326729.179,-114.982
552312.756,4326679.179,-116.241
552312.756,4326629.179,-117.351
552312.756,4326579.179,-117.904
552312.756,4326529.179,-120.723
552312.756,4326479.179,-123.509
552312.756,4326429.179,-130.533
552312.756,4326379.179,-138.906
552312.756,4326329.179,-145.871
552312.756,4326279.179,-146.366
552312.756,4326229.179,-151.561
552312.756,4326179.179,-159.483
552312.756,4326129.179,-165.822
552312.756,4326079.179,-168.571
552312.756,4326029.179,-176.661
552312.756,4325979.179,-184.150
552312.756,4325929.179,-190.247
552312.756,4325879.179,-198.012
552362.756,4330629.179,-85.912
552362.756,4330579.179,-89.164
552362.756,4330529.179,-90.116
552362.756,4330479.179,-91.432
552362.756,4330429.179,-91.587
552362.756,4330379.179,-92.107
552362.756,4330329.179,-94.068
552362.756,4330279.179,-94.579
552362.756,4330229.179,-95.610
552362.756,4330179.179,-95.407
552362.756,4330129.179,-95.787
552362.756,4330079.179,-95.882
552362.756,4330029.179,-96.229
552362.756,4329979.179,-97.220
552362.756,4329929.179,-97.691
552362.756,4329879.179,-97.939
552362.756,4329829.179,-97.036
552362.756,4329779.179,-95.204
552362.756,4329729.179,-94.756
552362.756,4329679.179,-95.785
552362.756,4329629.179,-95.744
552362.756,4329579.179,-96.172
552362.756,4329529.179,-97.709
552362.756,4329479.179,-98.482
552362.756,4329429.179,-102.193
552362.756,4329379.179,-103.041
552362.756,4329329.179,-104.418
552362.756,4329279.179,-105.401
552362.756,4329229.179,-106.526
552362.756,4329179.179,-107.820
552362.756,4329129.179,-108.890
552362.756,4329079.179,-109.790
552362.756,4329029.179,-110.159
552362.756,4328979.179,-110.597
552362.756,4328929.179,-111.009
552362.756,4328879.179,-111.070
552362.756,4328829.179,-110.987
552362.756,4328779.179,-111.949
552362.756,4328729.179,-112.432
552362.756,4328679.179,-112.504
552362.756,4328629.179,-113.106
552362.756,4328579.179,-113.189
552362.756,4328529.179,-113.196
552362.756,4328479.179,-113.080
552362.756,4328429.179,-112.811
552362.756,4328379.179,-111.747
552362.756,4328329.179,-111.319
552362.756,4328279.179,-111.341
552362.756,4328229.179,-111.125
552362.756,4328179.179,-111.477
552362.756,4328129.179,-111.676
552362.756,4328079.179,-111.962
552362.756,4328029.179,-112.311
552362.756,4327979.179,-112.982
552362.756,4327929.179,-113.697
552362.756,4327879.179,-114.239
552362.756,4327829.179,-114.788
552362.756,4327779.179,-115.323
552362.756,4327729.179,-116.183
552362.756,4327679.179,-115.313
552362.756,4327629.179,-115.544
552362.756,4327579.179,-115.163
552362.756,4327529.179,-115.376
552362.756,4327479.179,-115.491
552362.756,4327429.179,-114.661
552362.756,4327379.179,-114.979
552362.756,4327329.179,-115.304
552362.756,4327279.179,-115.077
552362.756,4327229.179,-114.996
552362.756,4327179.179,-114.888
552362.756,4327129.179,-114.869
552362.756,4327079.179,-114.672
552362.756,4327029.179,-114.835
552362.756,4326979.179,-115.058
552362.756,4326929.179,-115.127
552362.756,4326879.179,-115.275
552362.756,4326829.179,-115.221
552362.756,4326779.179,-116.015
552362.756,4326729.179,-118.255
552362.756,4326679.179,-121.090
552362.756,4326629.179,-122.766
552362.756,4326579.179,-124.265
552362.756,4326529.179,-131.709
552362.756,4326479.179,-138.563
552362.756,4326429.179,-145.423
552362.756,4326379.179,-157.150
552362.756,4326329.179,-163.848
552362.756,4326279.179,-164.141
552362.756,4326229.179,-169.156
552362.756,4326179.179,-178.307
552362.756,4326129.179,-182.366
552362.756,4326079.179,-185.076
552362.756,4326029.179,-191.102
552362.756,4325979.179,-198.175
552412.756,4330679.179,-90.340
552412.756,4330629.179,-91.053
552412.756,4330579.179,-91.451
552412.756,4330529.179,-92.581
552412.756,4330479.179,-93.316
552412.756,4330429.179,-93.682
552412.756,4330379.179,-95.406
552412.756,4330329.179,-95.787
552412.756,4330279.179,-96.918
552412.756,4330229.179,-96.907
552412.756,4330179.179,-96.712
552412.756,4330129.179,-97.701
552412.756,4330079.179,-97.808
552412.756,4330029.179,-99.065
552412.756,4329979.179,-100.466
552412.756,4329929.179,-101.623
552412.756,4329879.179,-100.961
552412.756,4329829.179,-98.370
552412.756,4329779.179,-97.540
552412.756,4329729.179,-97.781
552412.756,4329679.179,-96.934
552412.756,4329629.179,-97.267
552412.756,4329579.179,-97.781
552412.756,4329529.179,-99.481
552412.756,4329479.179,-101.431
552412.756,4329429.179,-103.295
552412.756,4329379.179,-104.283
552412.756,4329329.179,-104.719
552412.756,4329279.179,-105.265
552412.756,4329229.179,-106.971
552412.756,4329179.179,-108.645
552412.756,4329129.179,-110.110
552412.756,4329079.179,-110.996
552412.756,4329029.179,-111.463
552412.756,4328979.179,-112.042
552412.756,4328929.179,-111.419
552412.756,4328879.179,-111.656
552412.756,4328829.179,-111.825
552412.756,4328779.179,-112.330
552412.756,4328729.179,-112.848
552412.756,4328679.179,-113.327
552412.756,4328629.179,-113.709
552412.756,4328579.179,-113.567
552412.756,4328529.179,-113.794
552412.756,4328479.179,-113.534
552412.756,4328429.179,-112.340
552412.756,4328379.179,-111.771
552412.756,4328329.179,-111.592
552412.756,4328279.179,-111.402
552412.756,4328229.179,-111.818
552412.756,4328179.179,-111.725
552412.756,4328129.179,-112.007
552412.756,4328079.179,-112.477
552412.756,4328029.179,-113.463
552412.756,4327979.179,-114.153
552412.756,4327929.179,-114.647
552412.756,4327879.179,-115.274
552412.756,4327829.179,-115.703
552412.756,4327779.179,-115.881
552412.756,4327729.179,-116.022
552412.756,4327679.179,-115.868
552412.756,4327629.179,-115.718
552412.756,4327579.179,-115.460
552412.756,4327529.179,-115.152
552412.756,4327479.179,-115.232
552412.756,4327429.179,-115.278
552412.756,4327379.179,-115.287
552412.756,4327329.179,-115.926
552412.756,4327279.179,-115.689
552412.756,4327229.179,-115.253
552412.756,4327179.179,-115.227
552412.756,4327129.179,-115.061
552412.756,4327079.179,-114.804
552412.756,4327029.179,-116.218
552412.756,4326979.179,-116.774
552412.756,4326929.179,-115.552
552412.756,4326879.179,-116.045
552412.756,4326829.179,-116.571
552412.756,4326779.179,-120.214
552412.756,4326729.179,-130.327
552412.756,4326679.179,-136.484
552412.756,4326629.179,-134.103
552412.756,4326579.179,-138.041
552412.756,4326529.179,-146.822
552412.756,4326479.179,-156.997
552412.756,4326429.179,-161.489
552412.756,4326379.179,-173.093
552412.756,4326329.179,-178.915
552412.756,4326279.179,-179.315
552412.756,4326229.179,-184.294
552412.756,4326179.179,-192.455
552412.756,4326129.179,-196.447
552412.756,4326079.179,-197.917
552462.756,4330729.179,-86.915
552462.756,4330679.179,-91.834
552462.756,4330629.179,-92.767
552462.756,4330579.179,-93.566
552462.756,4330529.179,-94.326
552462.756,4330479.179,-95.002
552462.756,4330429.179,-95.291
552462.756,4330379.179,-96.512
552462.756,4330329.179,-98.078
552462.756,4330279.179,-98.888
552462.756,4330229.179,-99.402
552462.756,4330179.179,-100.450
552462.756,4330129.179,-101.400
552462.756,4330079.179,-101.927
552462.756,4330029.179,-102.143
552462.756,4329979.179,-102.308
552462.756,4329929.179,-103.387
552462.756,4329879.179,-102.638
552462.756,4329829.179,-100.540
552462.756,4329779.179,-100.614
552462.756,4329729.179,-98.322
552462.756,4329679.179,-97.668
552462.756,4329629.179,-99.014
552462.756,4329579.179,-100.664
552462.756,4329529.179,-101.759
552462.756,4329479.179,-102.685
552462.756,4329429.179,-103.865
552462.756,4329379.179,-104.929
552462.756,4329329.179,-104.999
552462.756,4329279.179,-106.027
552462.756,4329229.179,-107.676
552462.756,4329179.179,-109.665
552462.756,4329129.179,-111.231
552462.756,4329079.179,-111.944
552462.756,4329029.179,-112.558
552462.756,4328979.179,-111.934
552462.756,4328929.179,-112.293
552462.756,4328879.179,-112.832
552462.756,4328829.179,-113.040
552462.756,4328779.179,-113.532
552462.756,4328729.179,-113.652
552462.756,4328679.179,-113.901
552462.756,4328629.179,-113.985
552462.756,4328579.179,-114.461
552462.756,4328529.179,-113.455
552462.756,4328479.179,-112.614
552462.756,4328429.179,-112.298
552462.756,4328379.179,-112.055
552462.756,4328329.179,-111.755
552462.756,4328279.179,-111.374
552462.756,4328229.179,-111.963
552462.756,4328179.179,-112.237
552462.756,4328129.179,-112.689
552462.756,4328079.179,-113.283
552462.756,4328029.179,-114.705
552462.756,4327979.179,-114.705
552462.756,4327929.179,-115.508
552462.756,4327879.179,-116.270
552462.756,4327829.179,-116.755
552462.756,4327779.179,-116.907
552462.756,4327729.179,-116.193
552462.756,4327679.179,-116.204
552462.756,4327629.179,-116.100
552462.756,4327579.179,-116.230
552462.756,4327529.179,-115.908
552462.756,4327479.179,-115.536
552462.756,4327429.179,-115.649
552462.756,4327379.179,-115.990
552462.756,4327329.179,-116.133
552462.756,4327279.179,-115.581
552462.756,4327229.179,-115.683
552462.756,4327179.179,-115.670
552462.756,4327129.179,-115.491
552462.756,4327079.179,-115.891
552462.756,4327029.179,-116.784
552462.756,4326979.179,-116.317
552462.756,4326929.179,-116.587
552462.756,4326879.179,-117.244
552462.756,4326829.179,-119.230
552462.756,4326779.179,-127.837
552462.756,4326729.179,-147.294
552462.756,4326679.179,-157.794
552462.756,4326629.179,-153.329
552462.756,4326579.179,-152.466
552462.756,4326529.179,-165.829
552462.756,4326479.179,-178.785
552462.756,4326429.179,-177.372
552462.756,4326379.179,-184.718
552462.756,4326329.179,-192.997
552462.756,4326279.179,-193.319
552462.756,4326229.179,-197.811
552512.756,4330779.179,-91.146
552512.756,4330729.179,-93.120
552512.756,4330679.179,-93.233
552512.756,4330629.179,-94.357
552512.756,4330579.179,-95.242
552512.756,4330529.179,-95.794
552512.756,4330479.179,-96.338
552512.756,4330429.179,-96.879
552512.756,4330379.179,-98.129
552512.756,4330329.179,-99.562
552512.756,4330279.179,-100.801
552512.756,4330229.179,-102.114
552512.756,4330179.179,-102.986
552512.756,4330129.179,-103.800
552512.756,4330079.179,-104.727
552512.756,4330029.179,-104.883
552512.756,4329979.179,-105.218
552512.756,4329929.179,-104.639
552512.756,4329879.179,-102.372
552512.756,4329829.179,-101.313
552512.756,4329779.179,-100.072
552512.756,4329729.179,-99.591
552512.756,4329679.179,-100.398
552512.756,4329629.179,-101.005
552512.756,4329579.179,-102.484
552512.756,4329529.179,-103.034
552512.756,4329479.179,-103.409
552512.756,4329429.179,-104.353
552512.756,4329379.179,-104.793
552512.756,4329329.179,-105.991
552512.756,4329279.179,-108.140
552512.756,4329229.179,-109.041
552512.756,4329179.179,-110.676
552512.756,4329129.179,-112.216
552512.756,4329079.179,-113.345
552512.756,4329029.179,-113.079
552512.756,4328979.179,-113.633
552512.756,4328929.179,-113.571
552512.756,4328879.179,-113.868
552512.756,4328829.179,-113.720
552512.756,4328779.179,-114.003
552512.756,4328729.179,-114.168
552512.756,4328679.179,-114.288
552512.756,4328629.179,-114.448
552512.756,4328579.179,-114.768
552512.756,4328529.179,-113.247
552512.756,4328479.179,-112.823
552512.756,4328429.179,-112.457
552512.756,4328379.179,-112.145
552512.756,4328329.179,-112.222
552512.756,4328279.179,-112.574
552512.756,4328229.179,-112.510
552512.756,4328179.179,-112.999
552512.756,4328129.179,-113.272
552512.756,4328079.179,-113.824
552512.756,4328029.179,-114.612
552512.756,4327979.179,-115.577
552512.756,4327929.179,-116.786
552512.756,4327879.179,-117.017
552512.756,4327829.179,-117.677
552512.756,4327779.179,-116.799
552512.756,4327729.179,-116.698
552512.756,4327679.179,-116.411
552512.756,4327629.179,-116.131
552512.756,4327579.179,-116.818
552512.756,4327529.179,-115.981
552512.756,4327479.179,-116.011
552512.756,4327429.179,-116.301
552512.756,4327379.179,-116.662
552512.756,4327329.179,-116.388
552512.756,4327279.179,-116.299
552512.756,4327229.179,-116.136
552512.756,4327179.179,-116.399
552512.756,4327129.179,-116.469
552512.756,4327079.179,-116.676
552512.756,4327029.179,-116.933
552512.756,4326979.179,-117.202
552512.756,4326929.179,-117.882
552512.756,4326879.179,-119.391
552512.756,4326829.179,-123.296
552512.756,4326779.179,-136.498
552512.756,4326729.179,-159.494
552512.756,4326679.179,-177.930
552512.756,4326629.179,-173.500
552512.756,4326579.179,-169.618
552512.756,4326529.179,-177.822
552512.756,4326479.179,-195.688
552512.756,4326429.179,-192.957
552512.756,4326379.179,-196.772
552562.756,4330829.179,-92.946
552562.756,4330779.179,-93.946
552562.756,4330729.179,-94.048
552562.756,4330679.179,-95.161
552562.756,4330629.179,-96.153
552562.756,4330579.179,-96.947
552562.756,4330529.179,-97.613
552562.756,4330479.179,-98.260
552562.756,4330429.179,-98.967
552562.756,4330379.179,-100.306
552562.756,4330329.179,-101.339
552562.756,4330279.179,-102.493
552562.756,4330229.179,-103.638
552562.756,4330179.179,-104.918
552562.756,4330129.179,-105.670
552562.756,4330079.179,-106.446
552562.756,4330029.179,-106.465
552562.756,4329979.179,-107.536
552562.756,4329929.179,-105.301
552562.756,4329879.179,-103.666
552562.756,4329829.179,-103.287
552562.756,4329779.179,-101.709
552562.756,4329729.179,-101.946
552562.756,4329679.179,-100.899
552562.756,4329629.179,-100.848
552562.756,4329579.179,-103.873
552562.756,4329529.179,-104.318
552562.756,4329479.179,-104.798
552562.756,4329429.179,-105.317
552562.756,4329379.179,-105.479
552562.756,4329329.179,-107.228
552562.756,4329279.179,-108.478
552562.756,4329229.179,-109.991
552562.756,4329179.179,-111.669
552562.756,4329129.179,-113.217
552562.756,4329079.179,-113.563
552562.756,4329029.179,-113.986
552562.756,4328979.179,-113.634
552562.756,4328929.179,-114.309
552562.756,4328879.179,-114.090
552562.756,4328829.179,-114.510
552562.756,4328779.179,-114.487
552562.756,4328729.179,-114.445
552562.756,4328679.179,-114.939
552562.756,4328629.179,-115.135
552562.756,4328579.179,-113.787
552562.756,4328529.179,-113.423
552562.756,4328479.179,-113.028
552562.756,4328429.179,-112.643
552562.756,4328379.179,-112.485
552562.756,4328329.179,-113.065
552562.756,4328279.179,-113.201
552562.756,4328229.179,-113.440
552562.756,4328179.179,-114.010
552562.756,4328129.179,-115.025
552562.756,4328079.179,-114.973
552562.756,4328029.179,-115.707
552562.756,4327979.179,-117.282
552562.756,4327929.179,-117.736
552562.756,4327879.179,-117.997
552562.756,4327829.179,-117.777
552562.756,4327779.179,-117.206
552562.756,4327729.179,-116.828
552562.756,4327679.179,-116.516
552562.756,4327629.179,-116.808
552562.756,4327579.179,-116.880
552562.756,4327529.179,-116.545
552562.756,4327479.179,-116.743
552562.756,4327429.179,-116.997
552562.756,4327379.179,-117.086
552562.756,4327329.179,-116.931
552562.756,4327279.179,-116.737
552562.756,4327229.179,-117.171
552562.756,4327179.179,-118.373
552562.756,4327129.179,-117.630
552562.756,4327079.179,-117.665
552562.756,4327029.179,-118.102
552562.756,4326979.179,-118.778
552562.756,4326929.179,-119.535
552562.756,4326879.179,-122.595
552562.756,4326829.179,-130.889
552562.756,4326779.179,-148.040
552562.756,4326729.179,-168.361
552562.756,4326679.179,-187.519
552562.756,4326579.179,-188.561
552562.756,4326529.179,-190.723
552612.756,4330879.179,-89.568
552612.756,4330829.179,-94.948
552612.756,4330779.179,-95.314
552612.756,4330729.179,-96.191
552612.756,4330679.179,-97.160
552612.756,4330629.179,-98.156
552612.756,4330579.179,-99.698
552612.756,4330529.179,-98.911
552612.756,4330479.179,-99.743
552612.756,4330429.179,-100.854
552612.756,4330379.179,-102.289
552612.756,4330329.179,-103.230
552612.756,4330279.179,-104.499
552612.756,4330229.179,-105.654
552612.756,4330179.179,-106.421
552612.756,4330129.179,-107.274
552612.756,4330079.179,-107.589
552612.756,4330029.179,-108.830
552612.756,4329979.179,-107.397
552612.756,4329929.179,-106.400
552612.756,4329879.179,-105.700
552612.756,4329829.179,-103.263
552612.756,4329779.179,-102.886
552612.756,4329729.179,-103.125
552612.756,4329679.179,-102.817
552612.756,4329629.179,-103.981
552612.756,4329579.179,-105.569
552612.756,4329529.179,-105.002
552612.756,4329479.179,-105.656
552612.756,4329429.179,-105.328
552612.756,4329379.179,-106.363
552612.756,4329329.179,-108.070
552612.756,4329279.179,-109.476
552612.756,4329229.179,-111.167
552612.756,4329179.179,-112.839
552612.756,4329129.179,-114.158
552612.756,4329079.179,-113.960
552612.756,4329029.179,-115.127
552612.756,4328979.179,-114.843
552612.756,4328929.179,-114.436
552612.756,4328879.179,-114.385
552612.756,4328829.179,-114.724
552612.756,4328779.179,-114.695
552612.756,4328729.179,-115.751
552612.756,4328679.179,-115.374
552612.756,4328629.179,-114.566
552612.756,4328579.179,-113.930
552612.756,4328529.179,-113.702
552612.756,4328479.179,-113.216
552612.756,4328429.179,-113.099
552612.756,4328379.179,-112.923
552612.756,4328329.179,-114.051
552612.756,4328279.179,-114.266
552612.756,4328229.179,-114.741
552612.756,4328179.179,-115.375
552612.756,4328129.179,-116.311
552612.756,4328079.179,-116.074
552612.756,4328029.179,-118.176
552612.756,4327979.179,-118.515
552612.756,4327929.179,-119.040
552612.756,4327879.179,-118.623
552612.756,4327829.179,-118.178
552612.756,4327779.179,-117.785
552612.756,4327729.179,-117.601
552612.756,4327679.179,-117.600
552612.756,4327629.179,-117.523
552612.756,4327579.179,-117.082
552612.756,4327529.179,-117.590
552612.756,4327479.179,-117.770
552612.756,4327429.179,-117.777
552612.756,4327379.179,-117.541
552612.756,4327329.179,-117.596
552612.756,4327279.179,-118.307
552612.756,4327229.179,-118.527
552612.756,4327179.179,-117.954
552612.756,4327129.179,-118.621
552612.756,4327079.179,-118.749
552612.756,4327029.179,-119.196
552612.756,4326979.179,-120.408
552612.756,4326929.179,-122.728
552612.756,4326879.179,-127.147
552612.756,4326829.179,-137.370
552612.756,4326779.179,-159.262
552612.756,4326729.179,-181.378
552662.756,4330929.179,-92.841
552662.756,4330879.179,-95.252
552662.756,4330829.179,-96.191
552662.756,4330779.179,-97.368
552662.756,4330729.179,-98.396
552662.756,4330679.179,-99.347
552662.756,4330629.179,-100.215
552662.756,4330579.179,-100.194
552662.756,4330529.179,-100.303
552662.756,4330479.179,-101.432
552662.756,4330429.179,-102.660
552662.756,4330379.179,-104.498
552662.756,4330329.179,-105.156
552662.756,4330279.179,-106.354
552662.756,4330229.179,-107.047
552662.756,4330179.179,-107.677
552662.756,4330129.179,-108.462
552662.756,4330079.179,-109.449
552662.756,4330029.179,-108.735
552662.756,4329979.179,-107.882
552662.756,4329929.179,-107.564
552662.756,4329879.179,-106.126
552662.756,4329829.179,-102.900
552662.756,4329779.179,-103.752
552662.756,4329729.179,-103.050
552662.756,4329679.179,-103.912
552662.756,4329629.179,-104.921
552662.756,4329579.179,-106.440
552662.756,4329529.179,-106.443
552662.756,4329479.179,-106.250
552662.756,4329429.179,-107.232
552662.756,4329329.179,-109.349
552662.756,4329279.179,-110.979
552662.756,4329229.179,-112.801
552662.756,4329179.179,-114.298
552662.756,4329129.179,-114.819
552662.756,4329079.179,-115.084
552662.756,4329029.179,-115.013
552662.756,4328979.179,-114.812
552662.756,4328929.179,-115.108
552662.756,4328879.179,-115.062
552662.756,4328829.179,-114.976
552662.756,4328779.179,-114.775
552662.756,4328729.179,-115.150
552662.756,4328679.179,-114.786
552662.756,4328629.179,-114.470
552662.756,4328579.179,-114.316
552662.756,4328529.179,-114.014
552662.756,4328479.179,-113.929
552662.756,4328429.179,-114.119
552662.756,4328379.179,-114.631
552662.756,4328329.179,-115.165
552662.756,4328279.179,-115.559
552662.756,4328229.179,-116.633
552662.756,4328179.179,-117.213
552662.756,4328129.179,-117.544
552662.756,4328079.179,-118.935
552662.756,4328029.179,-119.673
552662.756,4327979.179,-119.732
552662.756,4327929.179,-119.999
552662.756,4327879.179,-119.242
552662.756,4327829.179,-118.796
552662.756,4327779.179,-118.482
552662.756,4327729.179,-118.162
552662.756,4327679.179,-118.029
552662.756,4327629.179,-118.167
552662.756,4327579.179,-118.382
552662.756,4327529.179,-118.520
552662.756,4327479.179,-118.801
552662.756,4327429.179,-118.821
552662.756,4327379.179,-118.232
552662.756,4327329.179,-118.994
552662.756,4327279.179,-120.024
552662.756,4327229.179,-118.835
552662.756,4327179.179,-119.244
552662.756,4327129.179,-119.451
552662.756,4327079.179,-120.282
552662.756,4327029.179,-121.533
552662.756,4326979.179,-122.829
552662.756,4326929.179,-126.383
552662.756,4326879.179,-132.830
552662.756,4326829.179,-144.463
552662.756,4326779.179,-164.533
552662.756,4326729.179,-191.449
552712.756,4330929.179,-95.453
552712.756,4330879.179,-97.081
552712.756,4330829.179,-98.145
552712.756,4330779.179,-99.209
552712.756,4330729.179,-99.079
552712.756,4330679.179,-100.795
552712.756,4330629.179,-101.080
552712.756,4330579.179,-101.316
552712.756,4330529.179,-102.144
552712.756,4330479.179,-103.143
552712.756,4330429.179,-105.150
552712.756,4330379.179,-106.755
552712.756,4330329.179,-107.057
552712.756,4330279.179,-107.573
552712.756,4330229.179,-108.171
552712.756,4330179.179,-108.907
552712.756,4330129.179,-109.998
552712.756,4330079.179,-109.313
552712.756,4330029.179,-109.083
552712.756,4329979.179,-108.919
552712.756,4329929.179,-108.357
552712.756,4329879.179,-105.951
552712.756,4329829.179,-105.093
552712.756,4329779.179,-104.216
552712.756,4329729.179,-104.772
552712.756,4329679.179,-105.114
552712.756,4329629.179,-103.719
552712.756,4329579.179,-106.060
552712.756,4329529.179,-106.642
552712.756,4329479.179,-107.288
552712.756,4329429.179,-107.659
552712.756,4329379.179,-109.067
552712.756,4329279.179,-112.585
552712.756,4329229.179,-114.114
552712.756,4329179.179,-114.459
552712.756,4329129.179,-115.188
552712.756,4329079.179,-115.562
552712.756,4329029.179,-115.090
552712.756,4328979.179,-115.177
552712.756,4328929.179,-115.421
552712.756,4328879.179,-115.295
552712.756,4328829.179,-116.629
552712.756,4328779.179,-116.127
552712.756,4328729.179,-115.281
552712.756,4328679.179,-115.428
552712.756,4328629.179,-114.865
552712.756,4328579.179,-114.723
552712.756,4328529.179,-113.965
552712.756,4328479.179,-114.993
552712.756,4328429.179,-115.303
552712.756,4328379.179,-116.160
552712.756,4328329.179,-117.715
552712.756,4328279.179,-118.816
552712.756,4328229.179,-119.634
552712.756,4328179.179,-121.591
552712.756,4328129.179,-121.755
552712.756,4328079.179,-120.986
552712.756,4328029.179,-121.025
552712.756,4327979.179,-121.586
552712.756,4327929.179,-120.418
552712.756,4327879.179,-120.118
552712.756,4327829.179,-119.638
552712.756,4327779.179,-119.395
552712.756,4327729.179,-119.977
552712.756,4327679.179,-119.507
552712.756,4327629.179,-119.364
552712.756,4327579.179,-119.695
552712.756,4327529.179,-119.534
552712.756,4327479.179,-119.446
552712.756,4327429.179,-119.427
552712.756,4327379.179,-119.561
552712.756,4327329.179,-120.675
552712.756,4327279.179,-120.133
552712.756,4327229.179,-120.376
552712.756,4327179.179,-121.052
552712.756,4327129.179,-121.507
552712.756,4327079.179,-123.210
552712.756,4327029.179,-124.919
552712.756,4326979.179,-130.264
552712.756,4326929.179,-132.815
552712.756,4326879.179,-141.238
552712.756,4326829.179,-159.545
552712.756,4326779.179,-168.063
552712.756,4326729.179,-189.536
552762.756,4330879.179,-98.192
552762.756,4330829.179,-99.718
552762.756,4330779.179,-99.736
552762.756,4330729.179,-100.853
552762.756,4330679.179,-101.038
552762.756,4330629.179,-102.528
552762.756,4330579.179,-103.938
552762.756,4330529.179,-105.331
552762.756,4330479.179,-106.261
552762.756,4330429.179,-106.717
552762.756,4330379.179,-107.616
552762.756,4330329.179,-108.059
552762.756,4330279.179,-108.943
552762.756,4330229.179,-109.192
552762.756,4330179.179,-110.497
552762.756,4330129.179,-110.118
552762.756,4330079.179,-109.895
552762.756,4330029.179,-109.904
552762.756,4329979.179,-109.383
552762.756,4329929.179,-109.010
552762.756,4329879.179,-108.490
552762.756,4329829.179,-106.200
552762.756,4329779.179,-106.134
552762.756,4329729.179,-105.028
552762.756,4329679.179,-105.016
552762.756,4329629.179,-106.353
552762.756,4329579.179,-106.941
552762.756,4329529.179,-107.440
552762.756,4329479.179,-107.730
552762.756,4329429.179,-108.810
552762.756,4329379.179,-110.391
552762.756,4329329.179,-111.360
552762.756,4329229.179,-114.645
552762.756,4329179.179,-114.910
552762.756,4329129.179,-114.832
552762.756,4329079.179,-115.465
552762.756,4329029.179,-115.688
552762.756,4328979.179,-115.589
552762.756,4328929.179,-115.814
552762.756,4328879.179,-116.914
552762.756,4328829.179,-116.332
552762.756,4328779.179,-115.750
552762.756,4328729.179,-115.854
552762.756,4328679.179,-115.867
552762.756,4328629.179,-115.639
552762.756,4328579.179,-115.501
552762.756,4328529.179,-115.944
552762.756,4328479.179,-116.690
552762.756,4328429.179,-117.796
552762.756,4328379.179,-119.068
552762.756,4328329.179,-123.147
552762.756,4328279.179,-130.383
552762.756,4328229.179,-130.974
552762.756,4328179.179,-133.579
552762.756,4328129.179,-130.821
552762.756,4328079.179,-125.824
552762.756,4328029.179,-123.464
552762.756,4327979.179,-122.384
552762.756,4327929.179,-121.846
552762.756,4327879.179,-121.569
552762.756,4327829.179,-120.894
552762.756,4327779.179,-121.015
552762.756,4327729.179,-121.333
552762.756,4327679.179,-120.449
552762.756,4327629.179,-120.546
552762.756,4327579.179,-120.758
552762.756,4327529.179,-120.715
552762.756,4327479.179,-120.275
552762.756,4327429.179,-121.087
552762.756,4327379.179,-121.930
552762.756,4327329.179,-121.209
552762.756,4327279.179,-121.860
552762.756,4327229.179,-122.884
552762.756,4327179.179,-123.946
552762.756,4327129.179,-125.260
552762.756,4327079.179,-130.563
552762.756,4327029.179,-131.917
552762.756,4326979.179,-137.094
552762.756,4326929.179,-144.272
552762.756,4326879.179,-153.562
552762.756,4326829.179,-164.926
552762.756,4326779.179,-176.634
552762.756,4326729.179,-189.192
552812.756,4331029.179,-95.047
552812.756,4330979.179,-96.856
552812.756,4330829.179,-99.383
552812.756,4330779.179,-99.336
552812.756,4330729.179,-100.286
552812.756,4330679.179,-102.353
552812.756,4330629.179,-104.055
552812.756,4330579.179,-106.051
552812.756,4330529.179,-106.921
552812.756,4330479.179,-107.256
552812.756,4330429.179,-108.624
552812.756,4330379.179,-108.865
552812.756,4330329.179,-109.412
552812.756,4330279.179,-110.027
552812.756,4330229.179,-111.003
552812.756,4330179.179,-110.899
552812.756,4330129.179,-110.820
552812.756,4330079.179,-110.949
552812.756,4330029.179,-110.915
552812.756,4329979.179,-110.672
552812.756,4329929.179,-109.961
552812.756,4329879.179,-108.575
552812.756,4329829.179,-107.338
552812.756,4329779.179,-105.619
552812.756,4329729.179,-105.591
552812.756,4329679.179,-105.566
552812.756,4329629.179,-106.080
552812.756,4329579.179,-107.591
552812.756,4329529.179,-108.228
552812.756,4329479.179,-108.480
552812.756,4329429.179,-109.824
552812.756,4329379.179,-111.234
552812.756,4329329.179,-113.077
552812.756,4329279.179,-114.119
552812.756,4329229.179,-114.935
552812.756,4329179.179,-115.317
552812.756,4329129.179,-115.337
552812.756,4329079.179,-115.626
552812.756,4329029.179,-115.739
552812.756,4328979.179,-115.768
552812.756,4328929.179,-117.122
552812.756,4328879.179,-116.518
552812.756,4328829.179,-116.304
552812.756,4328779.179,-116.533
552812.756,4328729.179,-116.770
552812.756,4328679.179,-116.457
552812.756,4328629.179,-116.824
552812.756,4328579.179,-117.789
552812.756,4328529.179,-118.740
552812.756,4328479.179,-121.591
552812.756,4328429.179,-123.226
552812.756,4328379.179,-125.450
552812.756,4328329.179,-134.655
552812.756,4328279.179,-143.648
552812.756,4328229.179,-149.769
552812.756,4328179.179,-151.532
552812.756,4328129.179,-143.449
552812.756,4328079.179,-133.643
552812.756,4328029.179,-130.137
552812.756,4327979.179,-125.035
552812.756,4327929.179,-123.913
552812.756,4327879.179,-123.336
552812.756,4327829.179,-122.784
552812.756,4327779.179,-122.481
552812.756,4327729.179,-122.754
552812.756,4327679.179,-122.858
552812.756,4327629.179,-122.619
552812.756,4327579.179,-122.530
552812.756,4327529.179,-122.538
552812.756,4327479.179,-122.915
552812.756,4327429.179,-123.707
552812.756,4327379.179,-123.762
552812.756,4327329.179,-124.706
552812.756,4327279.179,-125.878
552812.756,4327229.179,-127.672
552812.756,4327179.179,-130.350
552812.756,4327129.179,-133.663
552812.756,4327079.179,-136.317
552812.756,4327029.179,-143.642
552812.756,4326979.179,-150.662
552812.756,4326929.179,-158.579
552812.756,4326879.179,-167.387
552812.756,4326829.179,-176.012
552812.756,4326779.179,-185.484
552812.756,4326729.179,-195.446
552862.756,4331129.179,-90.552
552862.756,4331079.179,-93.978
552862.756,4331029.179,-95.507
552862.756,4330979.179,-97.354
552862.756,4330929.179,-100.019
552862.756,4330779.179,-100.269
552862.756,4330729.179,-101.587
552862.756,4330679.179,-104.249
552862.756,4330629.179,-105.469
552862.756,4330579.179,-106.433
552862.756,4330529.179,-108.261
552862.756,4330479.179,-109.267
552862.756,4330429.179,-109.712
552862.756,4330379.179,-110.012
552862.756,4330329.179,-110.450
552862.756,4330279.179,-111.443
552862.756,4330229.179,-111.913
552862.756,4330179.179,-111.267
552862.756,4330129.179,-111.576
552862.756,4330079.179,-111.619
552862.756,4330029.179,-111.414
552862.756,4329979.179,-111.491
552862.756,4329929.179,-110.147
552862.756,4329879.179,-109.832
552862.756,4329829.179,-108.425
552862.756,4329779.179,-107.772
552862.756,4329729.179,-106.778
552862.756,4329679.179,-105.720
552862.756,4329629.179,-107.248
552862.756,4329579.179,-108.085
552862.756,4329529.179,-109.044
552862.756,4329479.179,-109.467
552862.756,4329429.179,-110.661
552862.756,4329379.179,-112.910
552862.756,4329329.179,-113.958
552862.756,4329279.179,-114.726
552862.756,4329229.179,-115.456
552862.756,4329179.179,-115.205
552862.756,4329129.179,-115.476
552862.756,4329079.179,-115.595
552862.756,4329029.179,-115.738
552862.756,4328979.179,-117.360
552862.756,4328929.179,-116.762
552862.756,4328879.179,-116.573
552862.756,4328829.179,-116.955
552862.756,4328779.179,-117.290
552862.756,4328729.179,-117.576
552862.756,4328679.179,-118.109
552862.756,4328629.179,-119.827
