719978.664,4438575.000,-501.31 
719978.664,4438475.000,-504.24 
719978.664,4438375.000,-507.06 
719978.664,4438275.000,-509.77 
719978.664,4438175.000,-512.13 
719978.664,4438075.000,-514.38 
719978.664,4437975.000,-515.83 
719978.664,4437875.000,-518.47 
719978.664,4437775.000,-522.68 
719978.664,4437675.000,-525.36 
719978.664,4437575.000,-525.67 
719978.664,4437475.000,-529.48 
719978.664,4437375.000,-534.21 
719978.664,4437275.000,-540.3 
719978.664,4437175.000,-543.28 
719978.664,4437075.000,-547.22 
719978.664,4436975.000,-549.6 
719978.664,4436875.000,-552.24 
719978.664,4436775.000,-554.44 
719978.664,4436675.000,-556.47 
719978.664,4436575.000,-558.38 
719978.664,4436475.000,-562.1 
719978.664,4436375.000,-567.06 
719978.664,4436275.000,-573.65 
719978.664,4436175.000,-579.97 
719978.664,4436075.000,-588.21 
719978.664,4435975.000,-599.93 
719978.664,4435875.000,-602.52 
719978.664,4435775.000,-607.17 
719978.664,4435675.000,-612.18 
719978.664,4435575.000,-615.66 
719978.664,4435475.000,-618.86 
720078.664,4457075.000,-140.77 
720078.664,4456975.000,-144.6 
720078.664,4456875.000,-143.3 
720078.664,4456775.000,-142.55 
720078.664,4456675.000,-140.15 
720078.664,4456575.000,-138.7 
720078.664,4456475.000,-139.45 
720078.664,4456375.000,-141.85 
720078.664,4456275.000,-146.8 
720078.664,4456175.000,-153.95 
720078.664,4456075.000,-157.91 
720078.664,4455975.000,-160.35 
720078.664,4455875.000,-163.43 
720078.664,4455775.000,-164.9 
720078.664,4455675.000,-164.08 
720078.664,4455575.000,-160.68 
720078.664,4455475.000,-157.9 
720078.664,4455375.000,-157.1 
720078.664,4455275.000,-156.95 
720078.664,4455175.000,-157.4 
720078.664,4455075.000,-157.45 
720078.664,4454975.000,-156.35 
720078.664,4454875.000,-154.6 
720078.664,4454775.000,-154.1 
720078.664,4454675.000,-153.8 
720078.664,4454575.000,-153.35 
720078.664,4454475.000,-151.9 
720078.664,4454375.000,-151.5 
720078.664,4454275.000,-151.2 
720078.664,4454175.000,-150.7 
720078.664,4454075.000,-150.2 
720078.664,4453975.000,-149.5 
720078.664,4453875.000,-148.1 
720078.664,4453775.000,-148.7 
720078.664,4453675.000,-148.5 
720078.664,4453575.000,-148.7 
720078.664,4453475.000,-149.65 
720078.664,4453375.000,-149.85 
720078.664,4453275.000,-148.45 
720078.664,4453175.000,-149.7 
720078.664,4453075.000,-150 
720078.664,4452975.000,-150.4 
720078.664,4452875.000,-151.3 
720078.664,4452775.000,-151.99 
720078.664,4452675.000,-152.15 
720078.664,4452575.000,-154.16 
720078.664,4452475.000,-156.35 
720078.664,4452375.000,-158.55 
720078.664,4452275.000,-160.84 
720078.664,4452175.000,-163.13 
720078.664,4452075.000,-165.64 
720078.664,4451975.000,-167.82 
720078.664,4451875.000,-169.67 
720078.664,4451775.000,-172.62 
720078.664,4451675.000,-174.3 
720078.664,4451575.000,-174.08 
720078.664,4451475.000,-176.41 
720078.664,4451375.000,-179.7 
720078.664,4451275.000,-180.71 
720078.664,4451175.000,-183.83 
720078.664,4451075.000,-185.27 
720078.664,4450975.000,-185.48 
720078.664,4450875.000,-186.19 
720078.664,4450775.000,-187.82 
720078.664,4450675.000,-190.94 
720078.664,4450575.000,-194.92 
720078.664,4450475.000,-197.93 
720078.664,4450375.000,-198.5 
720078.664,4450275.000,-202.55 
720078.664,4450175.000,-206.55 
720078.664,4450075.000,-210.83 
720078.664,4449975.000,-214.52 
720078.664,4449875.000,-218.91 
720078.664,4449775.000,-223.88 
720078.664,4449675.000,-228.53 
720078.664,4449575.000,-232.84 
720078.664,4449475.000,-237.38 
720078.664,4449375.000,-240.98 
720078.664,4449275.000,-244.56 
720078.664,4449175.000,-248.06 
720078.664,4449075.000,-249.18 
720078.664,4448975.000,-252.03 
720078.664,4448875.000,-254.94 
720078.664,4448775.000,-257.34 
720078.664,4448675.000,-260.32 
720078.664,4448575.000,-262.94 
720078.664,4448475.000,-266.47 
720078.664,4448375.000,-269.45 
720078.664,4448275.000,-272.96 
720078.664,4448175.000,-274.89 
720078.664,4448075.000,-276.83 
720078.664,4447975.000,-278.45 
720078.664,4447875.000,-280.73 
720078.664,4447775.000,-282.13 
720078.664,4447675.000,-283.76 
720078.664,4447575.000,-285.06 
720078.664,4447475.000,-287.1 
720078.664,4447375.000,-288.69 
720078.664,4447275.000,-290.45 
720078.664,4447175.000,-292.68 
720078.664,4447075.000,-295.76 
720078.664,4446975.000,-298.69 
720078.664,4446875.000,-301.87 
720078.664,4446775.000,-305.27 
720078.664,4446675.000,-308.18 
720078.664,4446575.000,-310.44 
720078.664,4446475.000,-313.56 
720078.664,4446375.000,-316.82 
720078.664,4446275.000,-320.43 
720078.664,4446175.000,-323.47 
720078.664,4446075.000,-327.33 
720078.664,4445975.000,-332.21 
720078.664,4445875.000,-336.59 
720078.664,4445775.000,-340.47 
720078.664,4445675.000,-345.17 
720078.664,4445575.000,-348.9 
720078.664,4445475.000,-354.09 
720078.664,4445375.000,-358.67 
720078.664,4445275.000,-365.66 
720078.664,4445175.000,-370.65 
720078.664,4445075.000,-374.6 
720078.664,4444975.000,-380.38 
720078.664,4444875.000,-386.39 
720078.664,4444775.000,-391.13 
720078.664,4444675.000,-396.59 
720078.664,4444575.000,-401.25 
720078.664,4444475.000,-405.68 
720078.664,4444375.000,-408.54 
720078.664,4444275.000,-411.15 
720078.664,4444175.000,-413.61 
720078.664,4444075.000,-417.2 
720078.664,4443975.000,-418.96 
720078.664,4443875.000,-421.12 
720078.664,4443775.000,-423.16 
720078.664,4443675.000,-424.29 
720078.664,4443575.000,-427.09 
720078.664,4443475.000,-430 
720078.664,4443375.000,-431.87 
720078.664,4443275.000,-432.73 
720078.664,4443175.000,-432.61 
720078.664,4443075.000,-432.19 
720078.664,4442975.000,-431 
720078.664,4442875.000,-430.82 
720078.664,4442775.000,-431.03 
720078.664,4442675.000,-431.44 
720078.664,4442575.000,-432.91 
720078.664,4442475.000,-434.08 
720078.664,4442375.000,-436.22 
720078.664,4442275.000,-438.44 
720078.664,4442175.000,-441.29 
720078.664,4442075.000,-443.96 
720078.664,4441975.000,-446.84 
720078.664,4441875.000,-449.22 
720078.664,4441775.000,-450.89 
720078.664,4441675.000,-454.14 
720078.664,4441575.000,-456.88 
720078.664,4441475.000,-458.77 
720078.664,4441375.000,-460.81 
720078.664,4441275.000,-462.54 
720078.664,4441175.000,-464.81 
720078.664,4441075.000,-467.25 
720078.664,4440975.000,-469.69 
720078.664,4440875.000,-471.61 
720078.664,4440775.000,-473.82 
720078.664,4440675.000,-476.3 
720078.664,4440575.000,-477.92 
720078.664,4440475.000,-478.5 
720078.664,4440375.000,-477.98 
720078.664,4440275.000,-474.83 
720078.664,4440175.000,-472.76 
720078.664,4440075.000,-469.81 
720078.664,4439975.000,-466.79 
720078.664,4439875.000,-464.29 
720078.664,4439775.000,-462.37 
720078.664,4439675.000,-463.02 
720078.664,4439575.000,-464.01 
720078.664,4439475.000,-466.07 
720078.664,4439375.000,-468.88 
720078.664,4439275.000,-471.85 
720078.664,4439175.000,-475.46 
720078.664,4439075.000,-480.42 
720078.664,4438975.000,-484.03 
720078.664,4438875.000,-487.99 
720078.664,4438775.000,-491.2 
720078.664,4438675.000,-494.65 
720078.664,4438575.000,-498.15 
720078.664,4438475.000,-501.11 
720078.664,4438375.000,-504.17 
720078.664,4438275.000,-506.1 
720078.664,4438175.000,-508.5 
720078.664,4438075.000,-510.84 
720078.664,4437975.000,-513.04 
720078.664,4437875.000,-514.73 
720078.664,4437775.000,-517.15 
720078.664,4437675.000,-519.31 
720078.664,4437575.000,-520.75 
720078.664,4437475.000,-526.25 
720078.664,4437375.000,-529.23 
720078.664,4437275.000,-535.34 
720078.664,4437175.000,-540.08 
720078.664,4437075.000,-542.2 
720078.664,4436975.000,-545.18 
720078.664,4436875.000,-544.25 
720078.664,4436775.000,-547.52 
720078.664,4436675.000,-550.44 
720078.664,4436575.000,-551.85 
720078.664,4436475.000,-555.36 
720078.664,4436375.000,-560.89 
720078.664,4436275.000,-565.51 
720078.664,4436175.000,-571.97 
720078.664,4436075.000,-579.41 
720078.664,4435975.000,-588.98 
720078.664,4435875.000,-593.69 
720078.664,4435775.000,-599.22 
720078.664,4435675.000,-603.61 
720078.664,4435575.000,-607.55 
720078.664,4435475.000,-612.21 
720078.664,4435375.000,-617.81 
720178.664,4457075.000,-130.67 
720178.664,4456975.000,-145.31 
720178.664,4456875.000,-144.69 
720178.664,4456775.000,-143.95 
720178.664,4456675.000,-141 
720178.664,4456575.000,-139.2 
720178.664,4456475.000,-139.85 
720178.664,4456375.000,-142.45 
720178.664,4456275.000,-147.5 
720178.664,4456175.000,-152.7 
720178.664,4456075.000,-155.76 
720178.664,4455975.000,-157.55 
720178.664,4455875.000,-160.98 
720178.664,4455775.000,-163.41 
720178.664,4455675.000,-163.53 
720178.664,4455575.000,-161.31 
720178.664,4455475.000,-158.25 
720178.664,4455375.000,-156.5 
720178.664,4455275.000,-156.3 
720178.664,4455175.000,-156.15 
720178.664,4455075.000,-157.15 
720178.664,4454975.000,-155.35 
720178.664,4454875.000,-153.85 
720178.664,4454775.000,-153.8 
720178.664,4454675.000,-153.7 
720178.664,4454575.000,-153.6 
720178.664,4454475.000,-152.3 
720178.664,4454375.000,-150.9 
720178.664,4454275.000,-151.45 
720178.664,4454175.000,-150.9 
720178.664,4454075.000,-150.45 
720178.664,4453975.000,-149.64 
720178.664,4453875.000,-148.4 
720178.664,4453775.000,-148.8 
720178.664,4453675.000,-149 
720178.664,4453575.000,-149.2 
720178.664,4453475.000,-148.8 
720178.664,4453375.000,-148.9 
720178.664,4453275.000,-148.1 
720178.664,4453175.000,-148.91 
720178.664,4453075.000,-149.6 
720178.664,4452975.000,-150.2 
720178.664,4452875.000,-150.4 
720178.664,4452775.000,-151.05 
720178.664,4452675.000,-151.2 
720178.664,4452575.000,-152.25 
720178.664,4452475.000,-154.45 
720178.664,4452375.000,-156.45 
720178.664,4452275.000,-158.3 
720178.664,4452175.000,-160.65 
720178.664,4452075.000,-162.84 
720178.664,4451975.000,-165.54 
720178.664,4451875.000,-167.28 
720178.664,4451775.000,-171.22 
720178.664,4451675.000,-173.62 
720178.664,4451575.000,-174.89 
720178.664,4451475.000,-175.94 
720178.664,4451375.000,-178.91 
720178.664,4451275.000,-181.02 
720178.664,4451175.000,-182.92 
720178.664,4451075.000,-185.32 
720178.664,4450975.000,-185.69 
720178.664,4450875.000,-186.6 
720178.664,4450775.000,-187.47 
720178.664,4450675.000,-189.94 
720178.664,4450575.000,-193.3 
720178.664,4450475.000,-197.72 
720178.664,4450375.000,-199.08 
720178.664,4450275.000,-201.03 
720178.664,4450175.000,-204.86 
720178.664,4450075.000,-209.05 
720178.664,4449975.000,-212.94 
720178.664,4449875.000,-217.02 
720178.664,4449775.000,-222.1 
720178.664,4449675.000,-226.36 
720178.664,4449575.000,-230.28 
720178.664,4449475.000,-234.64 
720178.664,4449375.000,-238.18 
720178.664,4449275.000,-241.95 
720178.664,4449175.000,-245.46 
720178.664,4449075.000,-248.47 
720178.664,4448975.000,-250.33 
720178.664,4448875.000,-253.15 
720178.664,4448775.000,-255.54 
720178.664,4448675.000,-257.75 
720178.664,4448575.000,-260.55 
720178.664,4448475.000,-263.26 
720178.664,4448375.000,-266.31 
720178.664,4448275.000,-269.57 
720178.664,4448175.000,-272.26 
720178.664,4448075.000,-273.49 
720178.664,4447975.000,-275.78 
720178.664,4447875.000,-277.86 
720178.664,4447775.000,-279.84 
720178.664,4447675.000,-281.57 
720178.664,4447575.000,-283.68 
720178.664,4447475.000,-284.95 
720178.664,4447375.000,-286.65 
720178.664,4447275.000,-288.8 
720178.664,4447175.000,-290.41 
720178.664,4447075.000,-292.93 
720178.664,4446975.000,-295.94 
720178.664,4446875.000,-299.12 
720178.664,4446775.000,-302.73 
720178.664,4446675.000,-305.54 
720178.664,4446575.000,-308.7 
720178.664,4446475.000,-310.56 
720178.664,4446375.000,-314.15 
720178.664,4446275.000,-317.55 
720178.664,4446175.000,-321.6 
720178.664,4446075.000,-325.18 
720178.664,4445975.000,-329.52 
720178.664,4445875.000,-334.03 
720178.664,4445775.000,-339.14 
720178.664,4445675.000,-343.46 
720178.664,4445575.000,-347.73 
720178.664,4445475.000,-351.47 
720178.664,4445375.000,-356.17 
720178.664,4445275.000,-361.57 
720178.664,4445175.000,-368.7 
720178.664,4445075.000,-371.89 
720178.664,4444975.000,-376.27 
720178.664,4444875.000,-382.49 
720178.664,4444775.000,-386.97 
720178.664,4444675.000,-393.09 
720178.664,4444575.000,-397.4 
720178.664,4444475.000,-401.31 
720178.664,4444375.000,-404.27 
720178.664,4444275.000,-406.77 
720178.664,4444175.000,-410.41 
720178.664,4444075.000,-414.17 
720178.664,4443975.000,-415.16 
720178.664,4443875.000,-417.52 
720178.664,4443775.000,-418.18 
720178.664,4443675.000,-420.17 
720178.664,4443575.000,-421.93 
720178.664,4443475.000,-424.69 
720178.664,4443375.000,-426.46 
720178.664,4443275.000,-428.16 
720178.664,4443175.000,-429.84 
720178.664,4443075.000,-430.72 
720178.664,4442975.000,-430.22 
720178.664,4442875.000,-430.01 
720178.664,4442775.000,-430.22 
720178.664,4442675.000,-430.41 
720178.664,4442575.000,-431.62 
720178.664,4442475.000,-433.32 
720178.664,4442375.000,-434.96 
720178.664,4442275.000,-436.9 
720178.664,4442175.000,-439.63 
720178.664,4442075.000,-442.48 
720178.664,4441975.000,-445.32 
720178.664,4441875.000,-447.85 
720178.664,4441775.000,-449.79 
720178.664,4441675.000,-452.43 
720178.664,4441575.000,-455.62 
720178.664,4441475.000,-457.48 
720178.664,4441375.000,-458.83 
720178.664,4441275.000,-460.43 
720178.664,4441175.000,-462.39 
720178.664,4441075.000,-464.67 
720178.664,4440975.000,-467.64 
720178.664,4440875.000,-470.16 
720178.664,4440775.000,-471.98 
720178.664,4440675.000,-473.93 
720178.664,4440575.000,-475.72 
720178.664,4440475.000,-475.68 
720178.664,4440375.000,-473.87 
720178.664,4440275.000,-469.81 
720178.664,4440175.000,-467 
720178.664,4440075.000,-464.41 
720178.664,4439975.000,-461.44 
720178.664,4439875.000,-459.37 
720178.664,4439775.000,-457.24 
720178.664,4439675.000,-456.78 
720178.664,4439575.000,-457.85 
720178.664,4439475.000,-460.25 
720178.664,4439375.000,-463.09 
720178.664,4439275.000,-466.09 
720178.664,4439175.000,-470.27 
720178.664,4439075.000,-476.14 
720178.664,4438975.000,-479.96 
720178.664,4438875.000,-483.96 
720178.664,4438775.000,-487.66 
720178.664,4438675.000,-490.76 
720178.664,4438575.000,-494.49 
720178.664,4438475.000,-497.84 
720178.664,4438375.000,-500.37 
720178.664,4438275.000,-502.62 
720178.664,4438175.000,-504.38 
720178.664,4438075.000,-506.14 
720178.664,4437975.000,-507.71 
720178.664,4437875.000,-509.23 
720178.664,4437775.000,-510.53 
720178.664,4437675.000,-512.7 
720178.664,4437575.000,-516.06 
720178.664,4437475.000,-522.45 
720178.664,4437375.000,-525.66 
720178.664,4437275.000,-529.74 
720178.664,4437175.000,-532.82 
720178.664,4437075.000,-537.41 
720178.664,4436975.000,-538.75 
720178.664,4436875.000,-537.45 
720178.664,4436775.000,-542.5 
720178.664,4436675.000,-544.3 
720178.664,4436575.000,-544.97 
720178.664,4436475.000,-548.89 
720178.664,4436375.000,-551.95 
720178.664,4436275.000,-556.3 
720178.664,4436175.000,-560.89 
720178.664,4436075.000,-569.88 
720178.664,4435975.000,-580.2 
720178.664,4435875.000,-583.96 
720178.664,4435775.000,-586.26 
720178.664,4435675.000,-592 
720178.664,4435575.000,-598.17 
720178.664,4435475.000,-603.12 
720178.664,4435375.000,-609.45 
720178.664,4435275.000,-615.61 
720278.664,4456975.000,-137.97 
720278.664,4456875.000,-146.9 
720278.664,4456775.000,-146.1 
720278.664,4456675.000,-143.35 
720278.664,4456575.000,-141 
720278.664,4456475.000,-141.5 
720278.664,4456375.000,-143.34 
720278.664,4456275.000,-147.5 
720278.664,4456175.000,-151.2 
720278.664,4456075.000,-153.65 
720278.664,4455975.000,-155.05 
720278.664,4455875.000,-156.56 
720278.664,4455775.000,-160.55 
720278.664,4455675.000,-161.15 
720278.664,4455575.000,-160.89 
720278.664,4455475.000,-158.35 
720278.664,4455375.000,-156.35 
720278.664,4455275.000,-155.3 
720278.664,4455175.000,-155.7 
720278.664,4455075.000,-155.6 
720278.664,4454975.000,-154.6 
720278.664,4454875.000,-154 
720278.664,4454775.000,-153.95 
720278.664,4454675.000,-153.1 
720278.664,4454575.000,-153.3 
720278.664,4454475.000,-152.34 
720278.664,4454375.000,-151.25 
720278.664,4454275.000,-150.55 
720278.664,4454175.000,-150.75 
720278.664,4454075.000,-150.35 
720278.664,4453975.000,-149.25 
720278.664,4453875.000,-148.6 
720278.664,4453775.000,-148.85 
720278.664,4453675.000,-149.4 
720278.664,4453575.000,-149.25 
720278.664,4453475.000,-149.5 
720278.664,4453375.000,-149.1 
720278.664,4453275.000,-148.4 
720278.664,4453175.000,-148.41 
720278.664,4453075.000,-149 
720278.664,4452975.000,-149.45 
720278.664,4452875.000,-150.25 
720278.664,4452775.000,-150.4 
720278.664,4452675.000,-150.45 
720278.664,4452575.000,-150.75 
720278.664,4452475.000,-152.7 
720278.664,4452375.000,-154.55 
720278.664,4452275.000,-155.8 
720278.664,4452175.000,-158.66 
720278.664,4452075.000,-160.63 
720278.664,4451975.000,-162.93 
720278.664,4451875.000,-165.82 
720278.664,4451775.000,-169.45 
720278.664,4451675.000,-171.84 
720278.664,4451575.000,-174.21 
720278.664,4451475.000,-175.05 
720278.664,4451375.000,-178.24 
720278.664,4451275.000,-181.31 
720278.664,4451175.000,-182.6 
720278.664,4451075.000,-185.18 
720278.664,4450975.000,-186.39 
720278.664,4450875.000,-187.19 
720278.664,4450775.000,-187.52 
720278.664,4450675.000,-189.34 
720278.664,4450575.000,-192.81 
720278.664,4450475.000,-196.16 
720278.664,4450375.000,-199.17 
720278.664,4450275.000,-200.13 
720278.664,4450175.000,-203.24 
720278.664,4450075.000,-207.42 
720278.664,4449975.000,-211.34 
720278.664,4449875.000,-214.75 
720278.664,4449775.000,-219.68 
720278.664,4449675.000,-224.43 
720278.664,4449575.000,-228.13 
720278.664,4449475.000,-231.97 
720278.664,4449375.000,-235.47 
720278.664,4449275.000,-239.33 
720278.664,4449175.000,-242.84 
720278.664,4449075.000,-245.74 
720278.664,4448975.000,-248.31 
720278.664,4448875.000,-250.65 
720278.664,4448775.000,-253.53 
720278.664,4448675.000,-255.74 
720278.664,4448575.000,-257.74 
720278.664,4448475.000,-260.88 
720278.664,4448375.000,-263.15 
720278.664,4448275.000,-265.65 
720278.664,4448175.000,-268.85 
720278.664,4448075.000,-270.02 
720278.664,4447975.000,-272.68 
720278.664,4447875.000,-275.05 
720278.664,4447775.000,-277.42 
720278.664,4447675.000,-278.78 
720278.664,4447575.000,-281.07 
720278.664,4447475.000,-282.93 
720278.664,4447375.000,-284.33 
720278.664,4447275.000,-286.68 
720278.664,4447175.000,-288.22 
720278.664,4447075.000,-290.46 
720278.664,4446975.000,-293.05 
720278.664,4446875.000,-296.42 
720278.664,4446775.000,-299.49 
720278.664,4446675.000,-303.55 
720278.664,4446575.000,-306.33 
720278.664,4446475.000,-307.87 
720278.664,4446375.000,-311.11 
720278.664,4446275.000,-314.97 
720278.664,4446175.000,-318.86 
720278.664,4446075.000,-322.21 
720278.664,4445975.000,-327.36 
720278.664,4445875.000,-331.38 
720278.664,4445775.000,-335.89 
720278.664,4445675.000,-341.18 
720278.664,4445575.000,-346.78 
720278.664,4445475.000,-350.21 
720278.664,4445375.000,-354.01 
720278.664,4445275.000,-359.16 
720278.664,4445175.000,-364.78 
720278.664,4445075.000,-370.57 
720278.664,4444975.000,-374.16 
720278.664,4444875.000,-379.15 
720278.664,4444775.000,-384.17 
720278.664,4444675.000,-388.28 
720278.664,4444575.000,-393.27 
720278.664,4444475.000,-396.73 
720278.664,4444375.000,-400.05 
720278.664,4444275.000,-404.16 
720278.664,4444175.000,-407.57 
720278.664,4444075.000,-410.76 
720278.664,4443975.000,-411.5 
720278.664,4443875.000,-413.04 
720278.664,4443775.000,-414.39 
720278.664,4443675.000,-415.66 
720278.664,4443575.000,-416.56 
720278.664,4443475.000,-419.8 
720278.664,4443375.000,-421.71 
720278.664,4443275.000,-423.88 
720278.664,4443175.000,-426.55 
720278.664,4443075.000,-428.83 
720278.664,4442975.000,-429.21 
720278.664,4442875.000,-429.5 
720278.664,4442775.000,-429.71 
720278.664,4442675.000,-429.92 
720278.664,4442575.000,-430.82 
720278.664,4442475.000,-432.14 
720278.664,4442375.000,-433.93 
720278.664,4442275.000,-435.64 
720278.664,4442175.000,-438.03 
720278.664,4442075.000,-440.95 
720278.664,4441975.000,-443.72 
720278.664,4441875.000,-446.13 
720278.664,4441775.000,-448.32 
720278.664,4441675.000,-450.43 
720278.664,4441575.000,-453.61 
720278.664,4441475.000,-455.74 
720278.664,4441375.000,-457.12 
720278.664,4441275.000,-458.66 
720278.664,4441175.000,-460.45 
720278.664,4441075.000,-463.01 
720278.664,4440975.000,-466 
720278.664,4440875.000,-468.61 
720278.664,4440775.000,-470.48 
720278.664,4440675.000,-471.83 
720278.664,4440575.000,-472.59 
720278.664,4440475.000,-472.07 
720278.664,4440375.000,-468.74 
720278.664,4440275.000,-465.7 
720278.664,4440175.000,-461.4 
720278.664,4440075.000,-458.54 
720278.664,4439975.000,-456.24 
720278.664,4439875.000,-454.31 
720278.664,4439775.000,-452.25 
720278.664,4439675.000,-451.26 
720278.664,4439575.000,-451.38 
720278.664,4439475.000,-453.51 
720278.664,4439375.000,-456.94 
720278.664,4439275.000,-460.77 
720278.664,4439175.000,-465.26 
720278.664,4439075.000,-470.3 
720278.664,4438975.000,-475.53 
720278.664,4438875.000,-479.4 
720278.664,4438775.000,-483.73 
720278.664,4438675.000,-486.69 
720278.664,4438575.000,-490.5 
720278.664,4438475.000,-493.97 
720278.664,4438375.000,-496.48 
720278.664,4438275.000,-497.98 
720278.664,4438175.000,-499.34 
720278.664,4438075.000,-500.57 
720278.664,4437975.000,-501.8 
720278.664,4437875.000,-502.74 
720278.664,4437775.000,-503.88 
720278.664,4437675.000,-506.53 
720278.664,4437575.000,-511.32 
720278.664,4437475.000,-517.31 
720278.664,4437375.000,-520.29 
720278.664,4437275.000,-523.84 
720278.664,4437175.000,-527.97 
720278.664,4437075.000,-531.06 
720278.664,4436975.000,-534.09 
720278.664,4436875.000,-533.31 
720278.664,4436775.000,-532.58 
720278.664,4436675.000,-535.12 
720278.664,4436575.000,-539.31 
720278.664,4436475.000,-541.43 
720278.664,4436375.000,-544.63 
720278.664,4436275.000,-547.43 
720278.664,4436175.000,-551.63 
720278.664,4436075.000,-558.08 
720278.664,4435975.000,-566.05 
720278.664,4435875.000,-572.52 
720278.664,4435775.000,-576.39 
720278.664,4435675.000,-579.78 
720278.664,4435575.000,-584.38 
720278.664,4435475.000,-591.63 
720278.664,4435375.000,-601.45 
720278.664,4435275.000,-611.75 
720278.664,4435175.000,-615.03 
720278.664,4435075.000,-617.62 
720278.664,4434775.000,-614.39 
720278.664,4434675.000,-619.82 
720378.664,4456975.000,-131.46 
720378.664,4456875.000,-147.15 
720378.664,4456775.000,-147.6 
720378.664,4456675.000,-145.4 
720378.664,4456575.000,-143 
720378.664,4456475.000,-143.55 
720378.664,4456375.000,-144.6 
720378.664,4456275.000,-147.05 
720378.664,4456175.000,-149.7 
720378.664,4456075.000,-151.86 
720378.664,4455975.000,-153.1 
720378.664,4455875.000,-153.75 
720378.664,4455775.000,-156.01 
720378.664,4455675.000,-158.11 
720378.664,4455575.000,-158.11 
720378.664,4455475.000,-157.6 
720378.664,4455375.000,-155.85 
720378.664,4455275.000,-154.85 
720378.664,4455175.000,-154.45 
720378.664,4455075.000,-153.85 
720378.664,4454975.000,-153.45 
720378.664,4454875.000,-154.2 
720378.664,4454775.000,-153.25 
720378.664,4454675.000,-152.15 
720378.664,4454575.000,-152.15 
720378.664,4454475.000,-152.25 
720378.664,4454375.000,-151.49 
720378.664,4454275.000,-150.75 
720378.664,4454175.000,-150.3 
720378.664,4454075.000,-150 
720378.664,4453975.000,-149.05 
720378.664,4453875.000,-149.15 
720378.664,4453775.000,-149.35 
720378.664,4453675.000,-149.1 
720378.664,4453575.000,-149.65 
720378.664,4453475.000,-149.65 
720378.664,4453375.000,-149.2 
720378.664,4453275.000,-149.1 
720378.664,4453175.000,-148.9 
720378.664,4453075.000,-149.3 
720378.664,4452975.000,-149.3 
720378.664,4452875.000,-149.55 
720378.664,4452775.000,-150.25 
720378.664,4452675.000,-149.96 
720378.664,4452575.000,-150.2 
720378.664,4452475.000,-151.4 
720378.664,4452375.000,-152.9 
720378.664,4452275.000,-154.85 
720378.664,4452175.000,-156.65 
720378.664,4452075.000,-158.95 
720378.664,4451975.000,-160.85 
720378.664,4451875.000,-163.26 
720378.664,4451775.000,-166.57 
720378.664,4451675.000,-169.54 
720378.664,4451575.000,-172.62 
720378.664,4451475.000,-174.76 
720378.664,4451375.000,-176.22 
720378.664,4451275.000,-179.82 
720378.664,4451175.000,-183.3 
720378.664,4451075.000,-184.22 
720378.664,4450975.000,-186.1 
720378.664,4450875.000,-187.6 
720378.664,4450775.000,-188.71 
720378.664,4450675.000,-189.41 
720378.664,4450575.000,-191.76 
720378.664,4450475.000,-195.32 
720378.664,4450375.000,-199.55 
720378.664,4450275.000,-199.29 
720378.664,4450175.000,-202.32 
720378.664,4450075.000,-205.71 
720378.664,4449975.000,-209.35 
720378.664,4449875.000,-213 
720378.664,4449775.000,-217.78 
720378.664,4449675.000,-222.74 
720378.664,4449575.000,-226.54 
720378.664,4449475.000,-229.84 
720378.664,4449375.000,-233.36 
720378.664,4449275.000,-236.57 
720378.664,4449175.000,-239.96 
720378.664,4449075.000,-243.34 
720378.664,4448975.000,-245.72 
720378.664,4448875.000,-248.13 
720378.664,4448775.000,-251.33 
720378.664,4448675.000,-253.44 
720378.664,4448575.000,-255.51 
720378.664,4448475.000,-257.95 
720378.664,4448375.000,-260.84 
720378.664,4448275.000,-262.47 
720378.664,4448175.000,-265.35 
720378.664,4448075.000,-267.41 
720378.664,4447975.000,-269.01 
720378.664,4447875.000,-271.13 
720378.664,4447775.000,-274.22 
720378.664,4447675.000,-276.03 
720378.664,4447575.000,-278.55 
720378.664,4447475.000,-280.26 
720378.664,4447375.000,-282.15 
720378.664,4447275.000,-284.54 
720378.664,4447175.000,-286.28 
720378.664,4447075.000,-288.04 
720378.664,4446975.000,-290.64 
720378.664,4446875.000,-293.36 
720378.664,4446775.000,-296.76 
720378.664,4446675.000,-300.29 
720378.664,4446575.000,-303.49 
720378.664,4446475.000,-305.25 
720378.664,4446375.000,-309.06 
720378.664,4446275.000,-312.77 
720378.664,4446175.000,-316.25 
720378.664,4446075.000,-319.18 
720378.664,4445975.000,-324.16 
720378.664,4445875.000,-329.34 
720378.664,4445775.000,-332.98 
720378.664,4445675.000,-338.55 
720378.664,4445575.000,-343.69 
720378.664,4445475.000,-348.58 
720378.664,4445375.000,-351.72 
720378.664,4445275.000,-356.56 
720378.664,4445175.000,-361.75 
720378.664,4445075.000,-367.86 
720378.664,4444975.000,-371.56 
720378.664,4444875.000,-375.99 
720378.664,4444775.000,-381.1 
720378.664,4444675.000,-384.76 
720378.664,4444575.000,-387.81 
720378.664,4444475.000,-393.4 
720378.664,4444375.000,-396.8 
720378.664,4444275.000,-400.6 
720378.664,4444175.000,-403.6 
720378.664,4444075.000,-406.71 
720378.664,4443975.000,-408.29 
720378.664,4443875.000,-409.17 
720378.664,4443775.000,-411.06 
720378.664,4443675.000,-412.03 
720378.664,4443575.000,-413.23 
720378.664,4443475.000,-415.42 
720378.664,4443375.000,-418.16 
720378.664,4443275.000,-420.08 
720378.664,4443175.000,-423.27 
720378.664,4443075.000,-426.36 
720378.664,4442975.000,-428.54 
720378.664,4442875.000,-429.3 
720378.664,4442775.000,-429.6 
720378.664,4442675.000,-429.69 
720378.664,4442575.000,-430.12 
720378.664,4442475.000,-431.41 
720378.664,4442375.000,-432.52 
720378.664,4442275.000,-434.54 
720378.664,4442175.000,-436.63 
720378.664,4442075.000,-439.34 
720378.664,4441975.000,-441.86 
720378.664,4441875.000,-444.27 
720378.664,4441775.000,-446.53 
720378.664,4441675.000,-448.53 
720378.664,4441575.000,-451.19 
720378.664,4441475.000,-453.98 
720378.664,4441375.000,-455.6 
720378.664,4441275.000,-457.12 
720378.664,4441175.000,-459.04 
720378.664,4441075.000,-461.54 
720378.664,4440975.000,-464.29 
720378.664,4440875.000,-466.5 
720378.664,4440775.000,-468.48 
720378.664,4440675.000,-468.9 
720378.664,4440575.000,-468.68 
720378.664,4440475.000,-467.63 
720378.664,4440375.000,-464.78 
720378.664,4440275.000,-460.67 
720378.664,4440175.000,-456.3 
720378.664,4440075.000,-452.69 
720378.664,4439975.000,-449.8 
720378.664,4439875.000,-449.17 
720378.664,4439775.000,-447.58 
720378.664,4439675.000,-446.75 
720378.664,4439575.000,-445.72 
720378.664,4439475.000,-447.4 
720378.664,4439375.000,-449.9 
720378.664,4439275.000,-455.44 
720378.664,4439175.000,-460.69 
720378.664,4439075.000,-465.86 
720378.664,4438975.000,-470.37 
720378.664,4438875.000,-474.5 
720378.664,4438775.000,-479.15 
720378.664,4438675.000,-482.5 
720378.664,4438575.000,-486.1 
720378.664,4438475.000,-488.9 
720378.664,4438375.000,-491.08 
720378.664,4438275.000,-492.57 
720378.664,4438175.000,-493.73 
720378.664,4438075.000,-494.48 
720378.664,4437975.000,-495.45 
720378.664,4437875.000,-496.38 
720378.664,4437775.000,-497.36 
720378.664,4437675.000,-502.5 
720378.664,4437575.000,-505.72 
720378.664,4437475.000,-510.05 
720378.664,4437375.000,-514.84 
720378.664,4437275.000,-517.78 
720378.664,4437175.000,-521.25 
720378.664,4437075.000,-524.77 
720378.664,4436975.000,-527.98 
720378.664,4436875.000,-526.97 
720378.664,4436775.000,-525.9 
720378.664,4436675.000,-524.52 
720378.664,4436575.000,-525.69 
720378.664,4436475.000,-531.21 
720378.664,4436375.000,-533.66 
720378.664,4436275.000,-536.48 
720378.664,4436175.000,-541.01 
720378.664,4436075.000,-546.52 
720378.664,4435975.000,-552.77 
720378.664,4435875.000,-558.13 
720378.664,4435775.000,-564.45 
720378.664,4435675.000,-568.5 
720378.664,4435575.000,-572.36 
720378.664,4435475.000,-576.52 
720378.664,4435375.000,-589.86 
720378.664,4435275.000,-604.53 
720378.664,4435175.000,-609.84 
720378.664,4435075.000,-610.05 
720378.664,4434975.000,-607.37 
720378.664,4434875.000,-606.59 
720378.664,4434775.000,-607.83 
720378.664,4434675.000,-611.3 
720378.664,4434575.000,-612.24 
720378.664,4434475.000,-615.85 
720378.664,4434375.000,-616.19 
720378.664,4434275.000,-619.21 
720478.664,4456875.000,-145.1 
720478.664,4456775.000,-148.35 
720478.664,4456675.000,-146.85 
720478.664,4456575.000,-144.95 
720478.664,4456475.000,-144.9 
720478.664,4456375.000,-145.65 
720478.664,4456275.000,-147.45 
720478.664,4456175.000,-148.4 
720478.664,4456075.000,-150.15 
720478.664,4455975.000,-151.4 
720478.664,4455875.000,-152.2 
720478.664,4455775.000,-152.75 
720478.664,4455675.000,-153.56 
720478.664,4455575.000,-155.41 
720478.664,4455475.000,-155.8 
720478.664,4455375.000,-155.5 
720478.664,4455275.000,-154.5 
720478.664,4455175.000,-153.6 
720478.664,4455075.000,-153.8 
720478.664,4454975.000,-153.21 
720478.664,4454875.000,-153.95 
720478.664,4454775.000,-152.25 
720478.664,4454675.000,-151.4 
720478.664,4454575.000,-151.4 
720478.664,4454475.000,-151.45 
720478.664,4454375.000,-151.3 
720478.664,4454275.000,-150.6 
720478.664,4454175.000,-150.5 
720478.664,4454075.000,-150 
720478.664,4453975.000,-149.65 
720478.664,4453875.000,-150.1 
720478.664,4453775.000,-150 
720478.664,4453675.000,-150.25 
720478.664,4453575.000,-150.45 
720478.664,4453475.000,-149.8 
720478.664,4453375.000,-149.7 
720478.664,4453275.000,-149.45 
720478.664,4453175.000,-149 
720478.664,4453075.000,-149.5 
720478.664,4452975.000,-149.5 
720478.664,4452875.000,-149.35 
720478.664,4452775.000,-149.5 
720478.664,4452675.000,-149.35 
720478.664,4452575.000,-149.7 
720478.664,4452475.000,-150.95 
720478.664,4452375.000,-151.8 
720478.664,4452275.000,-153.2 
720478.664,4452175.000,-154.95 
720478.664,4452075.000,-156.65 
720478.664,4451975.000,-158.95 
720478.664,4451875.000,-161.14 
720478.664,4451775.000,-163.95 
720478.664,4451675.000,-167.25 
720478.664,4451575.000,-170.42 
720478.664,4451475.000,-172.71 
720478.664,4451375.000,-175.03 
720478.664,4451275.000,-179.2 
720478.664,4451175.000,-181.91 
720478.664,4451075.000,-184.76 
720478.664,4450975.000,-185.02 
720478.664,4450875.000,-187.05 
720478.664,4450775.000,-189.02 
720478.664,4450675.000,-189.81 
720478.664,4450575.000,-191.03 
720478.664,4450475.000,-194.53 
720478.664,4450375.000,-197.73 
720478.664,4450275.000,-201.05 
720478.664,4450175.000,-201.82 
720478.664,4450075.000,-204.33 
720478.664,4449975.000,-207.93 
720478.664,4449875.000,-211.23 
720478.664,4449775.000,-215.32 
720478.664,4449675.000,-220.86 
720478.664,4449575.000,-224.94 
720478.664,4449475.000,-228.14 
720478.664,4449375.000,-231.52 
720478.664,4449275.000,-234.24 
720478.664,4449175.000,-237.23 
720478.664,4449075.000,-240.65 
720478.664,4448975.000,-243.37 
720478.664,4448875.000,-245.83 
720478.664,4448775.000,-248.47 
720478.664,4448675.000,-251.22 
720478.664,4448575.000,-253.23 
720478.664,4448475.000,-255.24 
720478.664,4448375.000,-257.34 
720478.664,4448275.000,-259.47 
720478.664,4448175.000,-262.42 
720478.664,4448075.000,-264.57 
720478.664,4447975.000,-265.48 
720478.664,4447875.000,-268.74 
720478.664,4447775.000,-270.94 
720478.664,4447675.000,-273.33 
720478.664,4447575.000,-275.85 
720478.664,4447475.000,-277.52 
720478.664,4447375.000,-279.83 
720478.664,4447275.000,-281.93 
720478.664,4447175.000,-284.12 
720478.664,4447075.000,-285.99 
720478.664,4446975.000,-288.35 
720478.664,4446875.000,-290.94 
720478.664,4446775.000,-293.76 
720478.664,4446675.000,-297.42 
720478.664,4446575.000,-300.46 
720478.664,4446475.000,-302.98 
720478.664,4446375.000,-305.55 
720478.664,4446275.000,-310.36 
720478.664,4446175.000,-314.24 
720478.664,4446075.000,-317.38 
720478.664,4445975.000,-321.56 
720478.664,4445875.000,-326.47 
720478.664,4445775.000,-331.13 
720478.664,4445675.000,-335.6 
720478.664,4445575.000,-341.55 
720478.664,4445475.000,-345.13 
720478.664,4445375.000,-349.58 
720478.664,4445275.000,-353.94 
720478.664,4445175.000,-359.52 
720478.664,4445075.000,-365.79 
720478.664,4444975.000,-370.86 
720478.664,4444875.000,-373.18 
720478.664,4444775.000,-376.26 
720478.664,4444675.000,-380.47 
720478.664,4444575.000,-385.28 
720478.664,4444475.000,-389.9 
720478.664,4444375.000,-393.66 
720478.664,4444275.000,-397 
720478.664,4444175.000,-400.12 
720478.664,4444075.000,-402.18 
720478.664,4443975.000,-405.45 
720478.664,4443875.000,-405.81 
720478.664,4443775.000,-407.08 
720478.664,4443675.000,-408.76 
720478.664,4443575.000,-410.34 
720478.664,4443475.000,-412.09 
720478.664,4443375.000,-414.85 
720478.664,4443275.000,-417.53 
720478.664,4443175.000,-420.26 
720478.664,4443075.000,-423.75 
720478.664,4442975.000,-427.04 
720478.664,4442875.000,-428.81 
720478.664,4442775.000,-429.39 
720478.664,4442675.000,-429.89 
720478.664,4442575.000,-429.52 
720478.664,4442475.000,-430.61 
720478.664,4442375.000,-431.61 
720478.664,4442275.000,-433.31 
720478.664,4442175.000,-435.26 
720478.664,4442075.000,-438.03 
720478.664,4441975.000,-440.34 
720478.664,4441875.000,-442.82 
720478.664,4441775.000,-444.83 
720478.664,4441675.000,-446.81 
720478.664,4441575.000,-449.04 
720478.664,4441475.000,-451.62 
720478.664,4441375.000,-453.84 
720478.664,4441275.000,-455.89 
720478.664,4441175.000,-457.99 
720478.664,4441075.000,-460.35 
720478.664,4440975.000,-462.78 
720478.664,4440875.000,-464.58 
720478.664,4440775.000,-465.11 
720478.664,4440675.000,-464.76 
720478.664,4440575.000,-463.54 
720478.664,4440475.000,-461.85 
720478.664,4440375.000,-459.42 
720478.664,4440275.000,-454.49 
720478.664,4440175.000,-449.69 
720478.664,4440075.000,-447.16 
720478.664,4439975.000,-445.05 
720478.664,4439875.000,-443.37 
720478.664,4439775.000,-442.76 
720478.664,4439675.000,-441.65 
720478.664,4439575.000,-441.55 
720478.664,4439475.000,-442.09 
720478.664,4439375.000,-445.31 
720478.664,4439275.000,-449.79 
720478.664,4439175.000,-456.17 
720478.664,4439075.000,-461.64 
720478.664,4438975.000,-465.59 
720478.664,4438875.000,-469.49 
720478.664,4438775.000,-473.45 
720478.664,4438675.000,-477.59 
720478.664,4438575.000,-480.41 
720478.664,4438475.000,-483.19 
720478.664,4438375.000,-485.44 
720478.664,4438275.000,-486.9 
720478.664,4438175.000,-487.56 
720478.664,4438075.000,-487.98 
720478.664,4437975.000,-488.76 
720478.664,4437875.000,-490.42 
720478.664,4437775.000,-492.03 
720478.664,4437675.000,-495.09 
720478.664,4437575.000,-500.81 
720478.664,4437475.000,-502.87 
720478.664,4437375.000,-506.74 
720478.664,4437275.000,-510.68 
720478.664,4437175.000,-515.56 
720478.664,4437075.000,-519.14 
720478.664,4436975.000,-521.78 
720478.664,4436875.000,-520.91 
720478.664,4436775.000,-518.98 
720478.664,4436675.000,-518.21 
720478.664,4436575.000,-519.97 
720478.664,4436475.000,-521.32 
720478.664,4436375.000,-522.95 
720478.664,4436275.000,-526.76 
720478.664,4436175.000,-529.87 
720478.664,4436075.000,-534.66 
720478.664,4435975.000,-537.49 
720478.664,4435875.000,-543.32 
720478.664,4435775.000,-549.08 
720478.664,4435675.000,-555.88 
720478.664,4435575.000,-561.43 
720478.664,4435475.000,-564.2 
720478.664,4435375.000,-575.66 
720478.664,4435275.000,-586.88 
720478.664,4435175.000,-591.72 
720478.664,4435075.000,-597.15 
720478.664,4434975.000,-596.52 
720478.664,4434875.000,-592.2 
720478.664,4434775.000,-593.75 
720478.664,4434675.000,-601.96 
720478.664,4434575.000,-599.73 
720478.664,4434475.000,-605.06 
720478.664,4434375.000,-606.05 
720478.664,4434275.000,-607.32 
720478.664,4434175.000,-608.69 
720478.664,4434075.000,-610.49 
720478.664,4433975.000,-614.16 
720578.664,4456875.000,-143.76 
720578.664,4456775.000,-148.65 
720578.664,4456675.000,-148.05 
720578.664,4456575.000,-146.7 
720578.664,4456475.000,-146.7 
720578.664,4456375.000,-147 
720578.664,4456275.000,-147.65 
720578.664,4456175.000,-148.25 
720578.664,4456075.000,-148.5 
720578.664,4455975.000,-149.9 
720578.664,4455875.000,-150.75 
720578.664,4455775.000,-151.5 
720578.664,4455675.000,-151.55 
720578.664,4455575.000,-152.35 
720578.664,4455475.000,-154.1 
720578.664,4455375.000,-155 
720578.664,4455275.000,-155 
720578.664,4455175.000,-154.1 
720578.664,4455075.000,-153.45 
720578.664,4454975.000,-153.09 
720578.664,4454875.000,-152.75 
720578.664,4454775.000,-150.9 
720578.664,4454675.000,-150.7 
720578.664,4454575.000,-150.6 
720578.664,4454475.000,-150.85 
720578.664,4454375.000,-150.25 
720578.664,4454275.000,-149.6 
720578.664,4454175.000,-149.8 
720578.664,4454075.000,-149.8 
720578.664,4453975.000,-150 
720578.664,4453875.000,-150.35 
720578.664,4453775.000,-150.45 
720578.664,4453675.000,-151.25 
720578.664,4453575.000,-151.4 
720578.664,4453475.000,-150.95 
720578.664,4453375.000,-150.6 
720578.664,4453275.000,-150 
720578.664,4453175.000,-149.2 
720578.664,4453075.000,-149.9 
720578.664,4452975.000,-150 
720578.664,4452875.000,-149.75 
720578.664,4452775.000,-149.85 
720578.664,4452675.000,-149.3 
720578.664,4452575.000,-148.8 
720578.664,4452475.000,-150.35 
720578.664,4452375.000,-151.1 
720578.664,4452275.000,-152.1 
720578.664,4452175.000,-153.75 
720578.664,4452075.000,-155.05 
720578.664,4451975.000,-157.15 
720578.664,4451875.000,-159.3 
720578.664,4451775.000,-160.97 
720578.664,4451675.000,-165.04 
720578.664,4451575.000,-168.34 
720578.664,4451475.000,-171.39 
720578.664,4451375.000,-173.32 
720578.664,4451275.000,-176.92 
720578.664,4451175.000,-180.42 
720578.664,4451075.000,-184.47 
720578.664,4450975.000,-185.77 
720578.664,4450875.000,-185.92 
720578.664,4450775.000,-188.21 
720578.664,4450675.000,-189.91 
720578.664,4450575.000,-191.5 
720578.664,4450475.000,-193.72 
720578.664,4450375.000,-196.93 
720578.664,4450275.000,-200.74 
720578.664,4450175.000,-201.69 
720578.664,4450075.000,-203.72 
720578.664,4449975.000,-206.52 
720578.664,4449875.000,-209.95 
720578.664,4449775.000,-213.04 
720578.664,4449675.000,-218.81 
720578.664,4449575.000,-223.16 
720578.664,4449475.000,-226.72 
720578.664,4449375.000,-229.33 
720578.664,4449275.000,-232.53 
720578.664,4449175.000,-234.94 
720578.664,4449075.000,-238.07 
720578.664,4448975.000,-240.94 
720578.664,4448875.000,-243.13 
720578.664,4448775.000,-245.85 
720578.664,4448675.000,-248.82 
720578.664,4448575.000,-250.63 
720578.664,4448475.000,-252.55 
720578.664,4448375.000,-254.71 
720578.664,4448275.000,-256.71 
720578.664,4448175.000,-258.74 
720578.664,4448075.000,-261.54 
720578.664,4447975.000,-263.06 
720578.664,4447875.000,-265.46 
720578.664,4447775.000,-267.74 
720578.664,4447675.000,-270.03 
720578.664,4447575.000,-272.54 
720578.664,4447475.000,-275.48 
720578.664,4447375.000,-277.23 
720578.664,4447275.000,-279.37 
720578.664,4447175.000,-281.27 
720578.664,4447075.000,-283.82 
720578.664,4446975.000,-285.82 
720578.664,4446875.000,-288.35 
720578.664,4446775.000,-291.36 
720578.664,4446675.000,-294.14 
720578.664,4446575.000,-297.52 
720578.664,4446475.000,-300.69 
720578.664,4446375.000,-303.13 
720578.664,4446275.000,-306.37 
720578.664,4446175.000,-311.95 
720578.664,4446075.000,-314.92 
720578.664,4445975.000,-319.1 
720578.664,4445875.000,-323.37 
720578.664,4445775.000,-329.01 
720578.664,4445675.000,-333.06 
720578.664,4445575.000,-338.65 
720578.664,4445475.000,-344.23 
720578.664,4445375.000,-348.24 
720578.664,4445275.000,-352.45 
720578.664,4445175.000,-357.19 
720578.664,4445075.000,-363.15 
720578.664,4444975.000,-366.59 
720578.664,4444875.000,-369.76 
720578.664,4444775.000,-373.68 
720578.664,4444675.000,-378.1 
720578.664,4444575.000,-382.15 
720578.664,4444475.000,-385.18 
720578.664,4444375.000,-388.75 
720578.664,4444275.000,-391.97 
720578.664,4444175.000,-394.24 
720578.664,4444075.000,-397.78 
720578.664,4443975.000,-401.36 
720578.664,4443875.000,-402.87 
720578.664,4443775.000,-404.02 
720578.664,4443675.000,-406.25 
720578.664,4443575.000,-408.42 
720578.664,4443475.000,-410.53 
720578.664,4443375.000,-413.08 
720578.664,4443275.000,-415.15 
720578.664,4443175.000,-418.06 
720578.664,4443075.000,-421.26 
720578.664,4442975.000,-425.36 
720578.664,4442875.000,-427.54 
720578.664,4442775.000,-429.12 
720578.664,4442675.000,-429.6 
720578.664,4442575.000,-429.53 
720578.664,4442475.000,-430.11 
720578.664,4442375.000,-431.6 
720578.664,4442275.000,-432.82 
720578.664,4442175.000,-434.5 
720578.664,4442075.000,-436.62 
720578.664,4441975.000,-439.21 
720578.664,4441875.000,-441.15 
720578.664,4441775.000,-443.19 
720578.664,4441675.000,-445.13 
720578.664,4441575.000,-446.94 
720578.664,4441475.000,-449.18 
720578.664,4441375.000,-452.36 
720578.664,4441275.000,-454.85 
720578.664,4441175.000,-457.27 
720578.664,4441075.000,-459.55 
720578.664,4440975.000,-461.04 
720578.664,4440875.000,-461.56 
720578.664,4440775.000,-461.28 
720578.664,4440675.000,-459.87 
720578.664,4440575.000,-457.97 
720578.664,4440475.000,-455.36 
720578.664,4440375.000,-453.08 
720578.664,4440275.000,-448.11 
720578.664,4440175.000,-445.42 
720578.664,4440075.000,-442.04 
720578.664,4439975.000,-440.08 
720578.664,4439875.000,-438.75 
720578.664,4439775.000,-438.16 
720578.664,4439675.000,-438.11 
720578.664,4439575.000,-437.81 
720578.664,4439475.000,-437.95 
720578.664,4439375.000,-440.38 
720578.664,4439275.000,-445.3 
720578.664,4439175.000,-450.99 
720578.664,4439075.000,-456.86 
720578.664,4438975.000,-460.99 
720578.664,4438875.000,-464.08 
720578.664,4438775.000,-467.34 
720578.664,4438675.000,-470.57 
720578.664,4438575.000,-473.72 
720578.664,4438475.000,-476.68 
720578.664,4438375.000,-478.74 
720578.664,4438275.000,-480.07 
720578.664,4438175.000,-480.82 
720578.664,4438075.000,-481.66 
720578.664,4437975.000,-482.71 
720578.664,4437875.000,-484.73 
720578.664,4437775.000,-486.63 
720578.664,4437675.000,-488.73 
720578.664,4437575.000,-492.42 
720578.664,4437475.000,-497.07 
720578.664,4437375.000,-500 
720578.664,4437275.000,-502.58 
720578.664,4437175.000,-508.41 
720578.664,4437075.000,-512.84 
720578.664,4436975.000,-515.72 
720578.664,4436875.000,-515.9 
720578.664,4436775.000,-513.95 
720578.664,4436675.000,-514.59 
720578.664,4436575.000,-514.38 
720578.664,4436475.000,-517.29 
720578.664,4436375.000,-515.99 
720578.664,4436275.000,-516.3 
720578.664,4436175.000,-519.01 
720578.664,4436075.000,-522.55 
720578.664,4435975.000,-525.63 
720578.664,4435875.000,-530.08 
720578.664,4435775.000,-535.07 
720578.664,4435675.000,-540.44 
720578.664,4435575.000,-545.93 
720578.664,4435475.000,-550.62 
720578.664,4435375.000,-558.27 
720578.664,4435275.000,-565.6 
720578.664,4435175.000,-575.6 
720578.664,4435075.000,-578.58 
720578.664,4434975.000,-573.78 
720578.664,4434875.000,-575.25 
720578.664,4434775.000,-577.95 
720578.664,4434675.000,-585.33 
720578.664,4434575.000,-588.72 
720578.664,4434475.000,-590.92 
720578.664,4434375.000,-596.36 
720578.664,4434275.000,-602.08 
720578.664,4434175.000,-605.57 
720578.664,4434075.000,-610.8 
720578.664,4433975.000,-614.9 
720678.664,4456875.000,-137.46 
720678.664,4456775.000,-145.31 
720678.664,4456675.000,-148.65 
720678.664,4456575.000,-147.8 
720678.664,4456475.000,-148.5 
720678.664,4456375.000,-148.5 
720678.664,4456275.000,-148.7 
720678.664,4456175.000,-148.5 
720678.664,4456075.000,-148.1 
720678.664,4455975.000,-148.45 
720678.664,4455875.000,-149.1 
720678.664,4455775.000,-149.75 
720678.664,4455675.000,-149.5 
720678.664,4455575.000,-150.45 
720678.664,4455475.000,-152.45 
720678.664,4455375.000,-153.85 
720678.664,4455275.000,-154.85 
720678.664,4455175.000,-154.5 
720678.664,4455075.000,-153.35 
720678.664,4454975.000,-152 
720678.664,4454875.000,-150.85 
720678.664,4454775.000,-149.7 
720678.664,4454675.000,-149.35 
720678.664,4454575.000,-149.2 
720678.664,4454475.000,-149.3 
720678.664,4454375.000,-149 
720678.664,4454275.000,-148.35 
720678.664,4454175.000,-148.4 
720678.664,4454075.000,-148.9 
720678.664,4453975.000,-149.45 
720678.664,4453875.000,-149.6 
720678.664,4453775.000,-149.95 
720678.664,4453675.000,-150.7 
720678.664,4453575.000,-151.45 
720678.664,4453475.000,-151.15 
720678.664,4453375.000,-151.2 
720678.664,4453275.000,-151.1 
720678.664,4453175.000,-149.95 
720678.664,4453075.000,-149.95 
720678.664,4452975.000,-150.3 
720678.664,4452875.000,-150.35 
720678.664,4452775.000,-150.5 
720678.664,4452675.000,-149.85 
720678.664,4452575.000,-148.95 
720678.664,4452475.000,-149.2 
720678.664,4452375.000,-150 
720678.664,4452275.000,-151.7 
720678.664,4452175.000,-152.15 
720678.664,4452075.000,-153.8 
720678.664,4451975.000,-155.45 
720678.664,4451875.000,-157.5 
720678.664,4451775.000,-159.6 
720678.664,4451675.000,-162.74 
720678.664,4451575.000,-165.85 
720678.664,4451475.000,-168.97 
720678.664,4451375.000,-170.75 
720678.664,4451275.000,-175.05 
720678.664,4451175.000,-179.15 
720678.664,4451075.000,-182.79 
720678.664,4450975.000,-186.2 
720678.664,4450875.000,-186.14 
720678.664,4450775.000,-187.04 
720678.664,4450675.000,-189.24 
720678.664,4450575.000,-191.4 
720678.664,4450475.000,-193.32 
720678.664,4450375.000,-196.61 
720678.664,4450275.000,-199.31 
720678.664,4450175.000,-202.22 
720678.664,4450075.000,-203.69 
720678.664,4449975.000,-205.32 
720678.664,4449875.000,-208.45 
720678.664,4449775.000,-211.33 
720678.664,4449675.000,-216.47 
720678.664,4449575.000,-221.24 
720678.664,4449475.000,-224.95 
720678.664,4449375.000,-228.2 
720678.664,4449275.000,-230.7 
720678.664,4449175.000,-233.14 
720678.664,4449075.000,-236.24 
720678.664,4448975.000,-238.93 
720678.664,4448875.000,-240.72 
720678.664,4448775.000,-243.33 
720678.664,4448675.000,-246.13 
720678.664,4448575.000,-248.06 
720678.664,4448475.000,-249.65 
