709528.664,4426225.000,-1343.3 
709528.664,4426025.000,-1337.4 
709528.664,4425825.000,-1340.3 
709528.664,4425625.000,-1339.1 
709528.664,4425425.000,-1342.7 
709528.664,4425225.000,-1341.4 
709528.664,4425025.000,-1341.2 
709528.664,4424825.000,-1344.2 
709528.664,4424625.000,-1342.7 
709528.664,4424425.000,-1341.4 
709528.664,4424225.000,-1341 
709528.664,4424025.000,-1340.7 
709528.664,4423825.000,-1339.5 
709528.664,4423625.000,-1339 
709528.664,4423425.000,-1337 
709528.664,4423225.000,-1330.8 
709528.664,4423025.000,-1326.1 
709528.664,4422825.000,-1338.6 
709528.664,4422625.000,-1349.8 
709528.664,4422425.000,-1361.2 
709528.664,4422225.000,-1371.2 
709528.664,4422025.000,-1378.2 
709528.664,4421825.000,-1385.4 
709528.664,4421625.000,-1391.7 
709528.664,4421425.000,-1399 
709528.664,4421225.000,-1407.8 
709528.664,4421025.000,-1427.9 
709528.664,4420825.000,-1448.7 
709528.664,4420625.000,-1469.5 
709528.664,4420425.000,-1492.4 
709528.664,4420225.000,-1508 
709528.664,4420025.000,-1520.2 
709528.664,4419825.000,-1530.3 
709528.664,4419625.000,-1536.2 
709528.664,4419425.000,-1544.6 
709528.664,4419225.000,-1549.7 
709528.664,4419025.000,-1553.3 
709528.664,4418825.000,-1558 
709528.664,4418625.000,-1562.3 
709528.664,4418425.000,-1572 
709528.664,4418225.000,-1582.7 
709528.664,4418025.000,-1585.8 
709528.664,4417825.000,-1596.8 
709528.664,4417625.000,-1602.3 
709528.664,4417425.000,-1615.7 
709528.664,4417225.000,-1619.1 
709528.664,4417025.000,-1620.5 
709528.664,4416825.000,-1625.8 
709528.664,4416625.000,-1632.4 
709528.664,4416425.000,-1637.8 
709528.664,4416225.000,-1642.2 
709528.664,4416025.000,-1647 
709528.664,4415825.000,-1652.1 
709528.664,4415625.000,-1656.7 
709528.664,4415425.000,-1660.6 
709528.664,4415225.000,-1667.5 
709528.664,4415025.000,-1673.8 
709528.664,4414825.000,-1682.9 
709528.664,4414625.000,-1692.1 
709528.664,4414425.000,-1703.2 
709528.664,4414225.000,-1713.8 
709528.664,4414025.000,-1719.4 
709528.664,4413825.000,-1726.7 
709528.664,4413625.000,-1731.5 
709528.664,4413425.000,-1746.3 
709528.664,4413225.000,-1760.8 
709528.664,4413025.000,-1779.9 
709528.664,4412825.000,-1801 
709528.664,4412625.000,-1808.3 
709528.664,4412425.000,-1815.5 
709528.664,4412225.000,-1820.8 
709728.664,4449625.000,-584.4 
709728.664,4449425.000,-599.6 
709728.664,4449225.000,-613.3 
709728.664,4449025.000,-631 
709728.664,4448825.000,-641.5 
709728.664,4448625.000,-647.3 
709728.664,4448425.000,-656.4 
709728.664,4448225.000,-672.4 
709728.664,4448025.000,-689.5 
709728.664,4447825.000,-707.7 
709728.664,4447625.000,-720 
709728.664,4447425.000,-734.4 
709728.664,4447225.000,-738.5 
709728.664,4447025.000,-742.1 
709728.664,4446825.000,-752.1 
709728.664,4446625.000,-766.7 
709728.664,4446425.000,-779.9 
709728.664,4446225.000,-791.6 
709728.664,4446025.000,-796.9 
709728.664,4445825.000,-804.4 
709728.664,4445625.000,-811.5 
709728.664,4445425.000,-824.6 
709728.664,4445225.000,-835.8 
709728.664,4445025.000,-844.7 
709728.664,4444825.000,-853.5 
709728.664,4444625.000,-869.5 
709728.664,4444425.000,-889.4 
709728.664,4444225.000,-898.8 
709728.664,4444025.000,-917.8 
709728.664,4443825.000,-933.8 
709728.664,4443625.000,-946.3 
709728.664,4443425.000,-966.5 
709728.664,4443225.000,-999.6 
709728.664,4443025.000,-1006.7 
709728.664,4442825.000,-1015.9 
709728.664,4442625.000,-1021 
709728.664,4442425.000,-1027.1 
709728.664,4442225.000,-1028.1 
709728.664,4442025.000,-1035.7 
709728.664,4441825.000,-1037.7 
709728.664,4441625.000,-1045.8 
709728.664,4441425.000,-1050.4 
709728.664,4441225.000,-1057.3 
709728.664,4441025.000,-1066.6 
709728.664,4440825.000,-1073.7 
709728.664,4440625.000,-1080.3 
709728.664,4440425.000,-1085.9 
709728.664,4440225.000,-1091.4 
709728.664,4440025.000,-1099.2 
709728.664,4439825.000,-1106.8 
709728.664,4439625.000,-1116.2 
709728.664,4439425.000,-1120.6 
709728.664,4439225.000,-1126.8 
709728.664,4439025.000,-1132.9 
709728.664,4438825.000,-1137.9 
709728.664,4438625.000,-1143.4 
709728.664,4438425.000,-1148.5 
709728.664,4438225.000,-1154.3 
709728.664,4438025.000,-1157.8 
709728.664,4437825.000,-1165.7 
709728.664,4437625.000,-1170.2 
709728.664,4437425.000,-1174.1 
709728.664,4437225.000,-1179.4 
709728.664,4437025.000,-1181.5 
709728.664,4436825.000,-1186.7 
709728.664,4436625.000,-1192.1 
709728.664,4436425.000,-1198.2 
709728.664,4436225.000,-1200.3 
709728.664,4436025.000,-1203.7 
709728.664,4435825.000,-1202.2 
709728.664,4435625.000,-1206.2 
709728.664,4435425.000,-1208 
709728.664,4435225.000,-1209.1 
709728.664,4435025.000,-1208 
709728.664,4434825.000,-1203.5 
709728.664,4434625.000,-1205.9 
709728.664,4434425.000,-1204.9 
709728.664,4434225.000,-1215.2 
709728.664,4434025.000,-1217.3 
709728.664,4433825.000,-1213.8 
709728.664,4433625.000,-1221.3 
709728.664,4433425.000,-1224.8 
709728.664,4433225.000,-1228.8 
709728.664,4433025.000,-1230.2 
709728.664,4432825.000,-1227.2 
709728.664,4432625.000,-1230.5 
709728.664,4432425.000,-1240 
709728.664,4432225.000,-1238.4 
709728.664,4432025.000,-1226.4 
709728.664,4431825.000,-1230.1 
709728.664,4431625.000,-1238.5 
709728.664,4431425.000,-1231.6 
709728.664,4431225.000,-1233.1 
709728.664,4431025.000,-1236.1 
709728.664,4430825.000,-1240.1 
709728.664,4430625.000,-1243.2 
709728.664,4430425.000,-1241.7 
709728.664,4430225.000,-1242.1 
709728.664,4430025.000,-1245.9 
709728.664,4429825.000,-1248.1 
709728.664,4429625.000,-1248.3 
709728.664,4429425.000,-1254.4 
709728.664,4429225.000,-1254.1 
709728.664,4429025.000,-1259.6 
709728.664,4428825.000,-1268.7 
709728.664,4428625.000,-1276.5 
709728.664,4428425.000,-1280.4 
709728.664,4428225.000,-1284.3 
709728.664,4428025.000,-1289.9 
709728.664,4427825.000,-1299.4 
709728.664,4427625.000,-1310.8 
709728.664,4427425.000,-1315.8 
709728.664,4427225.000,-1314.5 
709728.664,4427025.000,-1318.6 
709728.664,4426825.000,-1323.1 
709728.664,4426625.000,-1326.2 
709728.664,4426425.000,-1333.2 
709728.664,4426225.000,-1339.5 
709728.664,4426025.000,-1335.3 
709728.664,4425825.000,-1336.9 
709728.664,4425625.000,-1338.1 
709728.664,4425425.000,-1340.6 
709728.664,4425225.000,-1339.7 
709728.664,4425025.000,-1343 
709728.664,4424825.000,-1342.6 
709728.664,4424625.000,-1340.8 
709728.664,4424425.000,-1341.5 
709728.664,4424225.000,-1340 
709728.664,4424025.000,-1339.7 
709728.664,4423825.000,-1339.7 
709728.664,4423625.000,-1336.2 
709728.664,4423425.000,-1334.6 
709728.664,4423225.000,-1330.4 
709728.664,4423025.000,-1325.5 
709728.664,4422825.000,-1335.7 
709728.664,4422625.000,-1348.8 
709728.664,4422425.000,-1359.4 
709728.664,4422225.000,-1370.9 
709728.664,4422025.000,-1377.3 
709728.664,4421825.000,-1388.5 
709728.664,4421625.000,-1396.5 
709728.664,4421425.000,-1406 
709728.664,4421225.000,-1419.5 
709728.664,4421025.000,-1432.5 
709728.664,4420825.000,-1450.3 
709728.664,4420625.000,-1461.3 
709728.664,4420425.000,-1485.2 
709728.664,4420225.000,-1507.8 
709728.664,4420025.000,-1525 
709728.664,4419825.000,-1531.9 
709728.664,4419625.000,-1536.1 
709728.664,4419425.000,-1541.1 
709728.664,4419225.000,-1550 
709728.664,4419025.000,-1554.7 
709728.664,4418825.000,-1563.7 
709728.664,4418625.000,-1570.7 
709728.664,4418425.000,-1577 
709728.664,4418225.000,-1584.5 
709728.664,4418025.000,-1591.9 
709728.664,4417825.000,-1593.2 
709728.664,4417625.000,-1598.8 
709728.664,4417425.000,-1604.5 
709728.664,4417225.000,-1608.7 
709728.664,4417025.000,-1613.9 
709728.664,4416825.000,-1623 
709728.664,4416625.000,-1629.8 
709728.664,4416425.000,-1635.8 
709728.664,4416225.000,-1638.7 
709728.664,4416025.000,-1643.1 
709728.664,4415825.000,-1646.8 
709728.664,4415625.000,-1649.7 
709728.664,4415425.000,-1656.4 
709728.664,4415225.000,-1664.3 
709728.664,4415025.000,-1673.7 
709728.664,4414825.000,-1684.7 
709728.664,4414625.000,-1695.6 
709728.664,4414425.000,-1701.3 
709728.664,4414225.000,-1707.3 
709728.664,4414025.000,-1713.5 
709728.664,4413825.000,-1720.7 
709728.664,4413625.000,-1727.6 
709728.664,4413425.000,-1732.7 
709728.664,4413225.000,-1740.2 
709728.664,4413025.000,-1752.3 
709728.664,4412825.000,-1769.7 
709728.664,4412625.000,-1797.6 
709728.664,4412425.000,-1807.6 
709728.664,4412225.000,-1817.7 
709928.664,4449425.000,-592.7 
709928.664,4449225.000,-603.7 
709928.664,4449025.000,-624.6 
709928.664,4448825.000,-634.4 
709928.664,4448625.000,-645.7 
709928.664,4448425.000,-649.8 
709928.664,4448225.000,-663 
709928.664,4448025.000,-674.2 
709928.664,4447825.000,-694.5 
709928.664,4447625.000,-709.6 
709928.664,4447425.000,-724 
709928.664,4447225.000,-729 
709928.664,4447025.000,-735.9 
709928.664,4446825.000,-744.3 
709928.664,4446625.000,-755.2 
709928.664,4446425.000,-765.9 
709928.664,4446225.000,-781.9 
709928.664,4446025.000,-791.5 
709928.664,4445825.000,-797.4 
709928.664,4445625.000,-803.6 
709928.664,4445425.000,-816.8 
709928.664,4445225.000,-824.3 
709928.664,4445025.000,-833.8 
709928.664,4444825.000,-838.7 
709928.664,4444625.000,-850.6 
709928.664,4444425.000,-865.6 
709928.664,4444225.000,-874.8 
709928.664,4444025.000,-890.5 
709928.664,4443825.000,-911.3 
709928.664,4443625.000,-922.8 
709928.664,4443425.000,-932.7 
709928.664,4443225.000,-952.6 
709928.664,4443025.000,-979 
709928.664,4442825.000,-1001.4 
709928.664,4442625.000,-1011.7 
709928.664,4442425.000,-1016.8 
709928.664,4442225.000,-1022.2 
709928.664,4442025.000,-1024.3 
709928.664,4441825.000,-1029.6 
709928.664,4441625.000,-1038 
709928.664,4441425.000,-1037.5 
709928.664,4441225.000,-1044.3 
709928.664,4441025.000,-1059.9 
709928.664,4440825.000,-1075.7 
709928.664,4440625.000,-1079.5 
709928.664,4440425.000,-1081.5 
709928.664,4440225.000,-1088 
709928.664,4440025.000,-1096.2 
709928.664,4439825.000,-1104.9 
709928.664,4439625.000,-1110.2 
709928.664,4439425.000,-1115 
709928.664,4439225.000,-1122.5 
709928.664,4439025.000,-1127.4 
709928.664,4438825.000,-1129.3 
709928.664,4438625.000,-1137 
709928.664,4438425.000,-1140.6 
709928.664,4438225.000,-1146.2 
709928.664,4438025.000,-1150.1 
709928.664,4437825.000,-1155.5 
709928.664,4437625.000,-1167.5 
709928.664,4437425.000,-1173.2 
709928.664,4437225.000,-1173.2 
709928.664,4437025.000,-1174.2 
709928.664,4436825.000,-1181.6 
709928.664,4436625.000,-1185.3 
709928.664,4436425.000,-1191.2 
709928.664,4436225.000,-1193.7 
709928.664,4436025.000,-1197.2 
709928.664,4435825.000,-1199.3 
709928.664,4435625.000,-1205.7 
709928.664,4435425.000,-1205.3 
709928.664,4435225.000,-1204.4 
709928.664,4435025.000,-1201.8 
709928.664,4434825.000,-1200 
709928.664,4434625.000,-1196.9 
709928.664,4434425.000,-1200.2 
709928.664,4434225.000,-1208 
709928.664,4434025.000,-1209.4 
709928.664,4433825.000,-1206.7 
709928.664,4433625.000,-1212 
709928.664,4433425.000,-1215.4 
709928.664,4433225.000,-1216.5 
709928.664,4433025.000,-1217.4 
709928.664,4432825.000,-1216.2 
709928.664,4432625.000,-1219.9 
709928.664,4432425.000,-1227.5 
709928.664,4432225.000,-1226.8 
709928.664,4432025.000,-1217.4 
709928.664,4431825.000,-1215.7 
709928.664,4431625.000,-1220.7 
709928.664,4431425.000,-1220.5 
709928.664,4431225.000,-1221.8 
709928.664,4431025.000,-1227 
709928.664,4430825.000,-1230.9 
709928.664,4430625.000,-1232 
709928.664,4430425.000,-1230.6 
709928.664,4430225.000,-1235.9 
709928.664,4430025.000,-1238 
709928.664,4429825.000,-1234.6 
709928.664,4429625.000,-1236.2 
709928.664,4429425.000,-1236.5 
709928.664,4429225.000,-1241.4 
709928.664,4429025.000,-1248.5 
709928.664,4428825.000,-1256.9 
709928.664,4428625.000,-1264.6 
709928.664,4428425.000,-1273.1 
709928.664,4428225.000,-1275.1 
709928.664,4428025.000,-1284.5 
709928.664,4427825.000,-1291.9 
709928.664,4427625.000,-1301.3 
709928.664,4427425.000,-1305.4 
709928.664,4427225.000,-1314.7 
709928.664,4427025.000,-1313.7 
709928.664,4426825.000,-1320 
709928.664,4426625.000,-1324.5 
709928.664,4426425.000,-1329.8 
709928.664,4426225.000,-1334.3 
709928.664,4426025.000,-1333.1 
709928.664,4425825.000,-1334.9 
709928.664,4425625.000,-1337.7 
709928.664,4425425.000,-1337.1 
709928.664,4425225.000,-1338.4 
709928.664,4425025.000,-1341.8 
709928.664,4424825.000,-1341.5 
709928.664,4424625.000,-1340 
709928.664,4424425.000,-1340.1 
709928.664,4424225.000,-1339.9 
709928.664,4424025.000,-1338.6 
709928.664,4423825.000,-1338.1 
709928.664,4423625.000,-1335.2 
709928.664,4423425.000,-1329.3 
709928.664,4423225.000,-1326.1 
709928.664,4423025.000,-1327.8 
709928.664,4422825.000,-1339.7 
709928.664,4422625.000,-1352.6 
709928.664,4422425.000,-1363.9 
709928.664,4422225.000,-1374.7 
709928.664,4422025.000,-1384.1 
709928.664,4421825.000,-1393.3 
709928.664,4421625.000,-1404.6 
709928.664,4421425.000,-1415 
709928.664,4421225.000,-1421.7 
709928.664,4421025.000,-1434.4 
709928.664,4420825.000,-1448.8 
709928.664,4420625.000,-1459.9 
709928.664,4420425.000,-1479.8 
709928.664,4420225.000,-1502.6 
709928.664,4420025.000,-1519.8 
709928.664,4419825.000,-1532.4 
709928.664,4419625.000,-1535.6 
709928.664,4419425.000,-1541.9 
709928.664,4419225.000,-1546.7 
709928.664,4419025.000,-1557.9 
709928.664,4418825.000,-1568.1 
709928.664,4418625.000,-1572.9 
709928.664,4418425.000,-1577.9 
709928.664,4418225.000,-1580 
709928.664,4418025.000,-1587.1 
709928.664,4417825.000,-1587.1 
709928.664,4417625.000,-1595.7 
709928.664,4417425.000,-1602.1 
709928.664,4417225.000,-1607.5 
709928.664,4417025.000,-1615.8 
709928.664,4416825.000,-1621 
709928.664,4416625.000,-1629.3 
709928.664,4416425.000,-1629.4 
709928.664,4416225.000,-1634.1 
709928.664,4416025.000,-1640.7 
709928.664,4415825.000,-1643.2 
709928.664,4415625.000,-1646.6 
709928.664,4415425.000,-1652.8 
709928.664,4415225.000,-1662.1 
709928.664,4415025.000,-1672.8 
709928.664,4414825.000,-1684.5 
709928.664,4414625.000,-1696.3 
709928.664,4414425.000,-1697.9 
709928.664,4414225.000,-1703.8 
709928.664,4414025.000,-1706.9 
709928.664,4413825.000,-1716.5 
709928.664,4413625.000,-1723.9 
709928.664,4413425.000,-1729.8 
709928.664,4413225.000,-1736.8 
709928.664,4413025.000,-1742.9 
709928.664,4412825.000,-1752.1 
709928.664,4412625.000,-1760.1 
709928.664,4412425.000,-1765.1 
709928.664,4412225.000,-1783.6 
710128.664,4449425.000,-581.9 
710128.664,4449225.000,-596.7 
710128.664,4449025.000,-615.9 
710128.664,4448825.000,-628.1 
710128.664,4448625.000,-639.8 
710128.664,4448425.000,-644.9 
710128.664,4448225.000,-654.6 
710128.664,4448025.000,-665.1 
710128.664,4447825.000,-679.2 
710128.664,4447625.000,-696.5 
710128.664,4447425.000,-710.5 
710128.664,4447225.000,-720.1 
710128.664,4447025.000,-727.9 
710128.664,4446825.000,-733.7 
710128.664,4446625.000,-740.9 
710128.664,4446425.000,-752.6 
710128.664,4446225.000,-765.2 
710128.664,4446025.000,-787.6 
710128.664,4445825.000,-793.6 
710128.664,4445625.000,-800.6 
710128.664,4445425.000,-809 
710128.664,4445225.000,-816 
710128.664,4445025.000,-825.3 
710128.664,4444825.000,-831 
710128.664,4444625.000,-839.1 
710128.664,4444425.000,-854.6 
710128.664,4444225.000,-858.5 
710128.664,4444025.000,-862.8 
710128.664,4443825.000,-881.6 
710128.664,4443625.000,-899.5 
710128.664,4443425.000,-919.7 
710128.664,4443225.000,-928.8 
710128.664,4443025.000,-941.4 
710128.664,4442825.000,-957.5 
710128.664,4442625.000,-977.9 
710128.664,4442425.000,-988.8 
710128.664,4442225.000,-1006.4 
710128.664,4442025.000,-1012.3 
710128.664,4441825.000,-1005 
710128.664,4441625.000,-1019.6 
710128.664,4441425.000,-1028.1 
710128.664,4441225.000,-1038.4 
710128.664,4441025.000,-1055 
710128.664,4440825.000,-1064.7 
710128.664,4440625.000,-1075.9 
710128.664,4440425.000,-1083.8 
710128.664,4440225.000,-1089.6 
710128.664,4440025.000,-1095.1 
710128.664,4439825.000,-1098.4 
710128.664,4439625.000,-1104.8 
710128.664,4439425.000,-1111.5 
710128.664,4439225.000,-1116.1 
710128.664,4439025.000,-1116.4 
710128.664,4438825.000,-1123.1 
710128.664,4438625.000,-1129.8 
710128.664,4438425.000,-1136.3 
710128.664,4438225.000,-1142 
710128.664,4438025.000,-1140.1 
710128.664,4437825.000,-1141.3 
710128.664,4437625.000,-1159.1 
710128.664,4437425.000,-1168.1 
710128.664,4437225.000,-1169.4 
710128.664,4437025.000,-1176.1 
710128.664,4436825.000,-1174.9 
710128.664,4436625.000,-1177.6 
710128.664,4436425.000,-1185.7 
710128.664,4436225.000,-1188 
710128.664,4436025.000,-1192 
710128.664,4435825.000,-1195.3 
710128.664,4435625.000,-1198.4 
710128.664,4435425.000,-1200.3 
710128.664,4435225.000,-1198.9 
710128.664,4435025.000,-1197.6 
710128.664,4434825.000,-1191.5 
710128.664,4434625.000,-1193.9 
710128.664,4434425.000,-1198.4 
710128.664,4434225.000,-1200.9 
710128.664,4434025.000,-1199.2 
710128.664,4433825.000,-1199 
710128.664,4433625.000,-1204 
710128.664,4433425.000,-1207.3 
710128.664,4433225.000,-1206.2 
710128.664,4433025.000,-1204.2 
710128.664,4432825.000,-1204.8 
710128.664,4432625.000,-1203.6 
710128.664,4432425.000,-1205.9 
710128.664,4432225.000,-1210.9 
710128.664,4432025.000,-1211.6 
710128.664,4431825.000,-1203.2 
710128.664,4431625.000,-1206.7 
710128.664,4431425.000,-1206 
710128.664,4431225.000,-1209.8 
710128.664,4431025.000,-1215.4 
710128.664,4430825.000,-1221.1 
710128.664,4430625.000,-1221 
710128.664,4430425.000,-1219.9 
710128.664,4430225.000,-1225.9 
710128.664,4430025.000,-1227.6 
710128.664,4429825.000,-1225.1 
710128.664,4429625.000,-1226.5 
710128.664,4429425.000,-1225.6 
710128.664,4429225.000,-1231.1 
710128.664,4429025.000,-1236.7 
710128.664,4428825.000,-1246.8 
710128.664,4428625.000,-1255 
710128.664,4428425.000,-1258.9 
710128.664,4428225.000,-1267 
710128.664,4428025.000,-1276.3 
710128.664,4427825.000,-1288.5 
710128.664,4427625.000,-1297 
710128.664,4427425.000,-1305.4 
710128.664,4427225.000,-1310.6 
710128.664,4427025.000,-1314.5 
710128.664,4426825.000,-1316.4 
710128.664,4426625.000,-1320.8 
710128.664,4426425.000,-1328.3 
710128.664,4426225.000,-1329.6 
710128.664,4426025.000,-1330 
710128.664,4425825.000,-1331.2 
710128.664,4425625.000,-1333.6 
710128.664,4425425.000,-1335.9 
710128.664,4425225.000,-1339.1 
710128.664,4425025.000,-1340.9 
710128.664,4424825.000,-1339.9 
710128.664,4424625.000,-1340.6 
710128.664,4424425.000,-1340.3 
710128.664,4424225.000,-1339.4 
710128.664,4424025.000,-1340.2 
710128.664,4423825.000,-1336.7 
710128.664,4423625.000,-1334.7 
710128.664,4423425.000,-1331.1 
710128.664,4423225.000,-1324.5 
710128.664,4423025.000,-1323.5 
710128.664,4422825.000,-1340.4 
710128.664,4422625.000,-1355.4 
710128.664,4422425.000,-1366.8 
710128.664,4422225.000,-1378.1 
710128.664,4422025.000,-1386.1 
710128.664,4421825.000,-1398.7 
710128.664,4421625.000,-1410.2 
710128.664,4421425.000,-1420.4 
710128.664,4421225.000,-1428.5 
710128.664,4421025.000,-1438.3 
710128.664,4420825.000,-1450.5 
710128.664,4420625.000,-1463.4 
710128.664,4420425.000,-1481.4 
710128.664,4420225.000,-1503.3 
710128.664,4420025.000,-1518.3 
710128.664,4419825.000,-1528.4 
710128.664,4419625.000,-1533 
710128.664,4419425.000,-1542 
710128.664,4419225.000,-1546 
710128.664,4419025.000,-1558.1 
710128.664,4418825.000,-1562.7 
710128.664,4418625.000,-1569.5 
710128.664,4418425.000,-1575.1 
710128.664,4418225.000,-1581 
710128.664,4418025.000,-1584.1 
710128.664,4417825.000,-1587.2 
710128.664,4417625.000,-1598.9 
710128.664,4417425.000,-1602.2 
710128.664,4417225.000,-1609.3 
710128.664,4417025.000,-1610.2 
710128.664,4416825.000,-1616.3 
710128.664,4416625.000,-1624.1 
710128.664,4416425.000,-1626.6 
710128.664,4416225.000,-1632.4 
710128.664,4416025.000,-1636.5 
710128.664,4415825.000,-1637 
710128.664,4415625.000,-1646.1 
710128.664,4415425.000,-1653.1 
710128.664,4415225.000,-1663.2 
710128.664,4415025.000,-1675.7 
710128.664,4414825.000,-1688.8 
710128.664,4414625.000,-1690.5 
710128.664,4414425.000,-1695 
710128.664,4414225.000,-1700.5 
710128.664,4414025.000,-1706.7 
710128.664,4413825.000,-1713.4 
710128.664,4413625.000,-1720.8 
710128.664,4413425.000,-1725.2 
710128.664,4413225.000,-1731.2 
710128.664,4413025.000,-1734.7 
710128.664,4412825.000,-1736.6 
710128.664,4412625.000,-1737.8 
710128.664,4412425.000,-1737.6 
710128.664,4412225.000,-1748.9 
710328.664,4449225.000,-588.3 
710328.664,4449025.000,-607.8 
710328.664,4448825.000,-621.4 
710328.664,4448625.000,-632.7 
710328.664,4448425.000,-637.1 
710328.664,4448225.000,-644.7 
710328.664,4448025.000,-657.4 
710328.664,4447825.000,-666 
710328.664,4447625.000,-681.1 
710328.664,4447425.000,-697.6 
710328.664,4447225.000,-709.4 
710328.664,4447025.000,-715.9 
710328.664,4446825.000,-720.6 
710328.664,4446625.000,-728.5 
710328.664,4446425.000,-739.2 
710328.664,4446225.000,-752.9 
710328.664,4446025.000,-781.9 
710328.664,4445825.000,-788.8 
710328.664,4445625.000,-796 
710328.664,4445425.000,-798.1 
710328.664,4445225.000,-805.1 
710328.664,4445025.000,-817.1 
710328.664,4444825.000,-823.8 
710328.664,4444625.000,-837.1 
710328.664,4444425.000,-844.7 
710328.664,4444225.000,-849.1 
710328.664,4444025.000,-851.6 
710328.664,4443825.000,-863.3 
710328.664,4443625.000,-874.1 
710328.664,4443425.000,-898.3 
710328.664,4443225.000,-910.9 
710328.664,4443025.000,-911 
710328.664,4442825.000,-929 
710328.664,4442625.000,-952.2 
710328.664,4442425.000,-961.7 
710328.664,4442225.000,-976.2 
710328.664,4442025.000,-994.7 
710328.664,4441825.000,-993.2 
710328.664,4441625.000,-996.4 
710328.664,4441425.000,-1014.6 
710328.664,4441225.000,-1041.1 
710328.664,4441025.000,-1053 
710328.664,4440825.000,-1061 
710328.664,4440625.000,-1069.9 
710328.664,4440425.000,-1081.4 
710328.664,4440225.000,-1091.1 
710328.664,4440025.000,-1091.2 
710328.664,4439825.000,-1094.8 
710328.664,4439625.000,-1099.9 
710328.664,4439425.000,-1105.6 
710328.664,4439225.000,-1108.6 
710328.664,4439025.000,-1112.7 
710328.664,4438825.000,-1117.9 
710328.664,4438625.000,-1125.2 
710328.664,4438425.000,-1129.5 
710328.664,4438225.000,-1130.8 
710328.664,4438025.000,-1131.4 
710328.664,4437825.000,-1141.3 
710328.664,4437625.000,-1153.4 
710328.664,4437425.000,-1161.6 
710328.664,4437225.000,-1164.6 
710328.664,4437025.000,-1168.4 
710328.664,4436825.000,-1171.1 
710328.664,4436625.000,-1174.1 
710328.664,4436425.000,-1177.4 
710328.664,4436225.000,-1180.9 
710328.664,4436025.000,-1185 
710328.664,4435825.000,-1192.5 
710328.664,4435625.000,-1191.3 
710328.664,4435425.000,-1192 
710328.664,4435225.000,-1192 
710328.664,4435025.000,-1191.7 
710328.664,4434825.000,-1188.4 
710328.664,4434625.000,-1191.1 
710328.664,4434425.000,-1193.1 
710328.664,4434225.000,-1194.1 
710328.664,4434025.000,-1191.6 
710328.664,4433825.000,-1190.1 
710328.664,4433625.000,-1197.6 
710328.664,4433425.000,-1197.7 
710328.664,4433225.000,-1195.7 
710328.664,4433025.000,-1196.8 
710328.664,4432825.000,-1194.2 
710328.664,4432625.000,-1188 
710328.664,4432425.000,-1185.8 
710328.664,4432225.000,-1193.9 
710328.664,4432025.000,-1196.6 
710328.664,4431825.000,-1190 
710328.664,4431625.000,-1194.5 
710328.664,4431425.000,-1196.2 
710328.664,4431225.000,-1201 
710328.664,4431025.000,-1207.5 
710328.664,4430825.000,-1212 
710328.664,4430625.000,-1210.1 
710328.664,4430425.000,-1213.2 
710328.664,4430225.000,-1216.8 
710328.664,4430025.000,-1218.6 
710328.664,4429825.000,-1214.1 
710328.664,4429625.000,-1213.1 
710328.664,4429425.000,-1213.5 
710328.664,4429225.000,-1223.2 
710328.664,4429025.000,-1232.5 
710328.664,4428825.000,-1237.6 
710328.664,4428625.000,-1244.6 
710328.664,4428425.000,-1248.9 
710328.664,4428225.000,-1253.3 
710328.664,4428025.000,-1267.6 
710328.664,4427825.000,-1278.9 
710328.664,4427625.000,-1296.3 
710328.664,4427425.000,-1304.8 
710328.664,4427225.000,-1305.8 
710328.664,4427025.000,-1312.4 
710328.664,4426825.000,-1316.1 
710328.664,4426625.000,-1322.5 
710328.664,4426425.000,-1323.8 
710328.664,4426225.000,-1327.4 
710328.664,4426025.000,-1324.7 
710328.664,4425825.000,-1327.6 
710328.664,4425625.000,-1329.5 
710328.664,4425425.000,-1335.3 
710328.664,4425225.000,-1338.3 
710328.664,4425025.000,-1337.8 
710328.664,4424825.000,-1341.8 
710328.664,4424625.000,-1337.3 
710328.664,4424425.000,-1339.4 
710328.664,4424225.000,-1337.8 
710328.664,4424025.000,-1337.1 
710328.664,4423825.000,-1335.9 
710328.664,4423625.000,-1333.7 
710328.664,4423425.000,-1332.5 
710328.664,4423225.000,-1323.1 
710328.664,4423025.000,-1321.3 
710328.664,4422825.000,-1332.1 
710328.664,4422625.000,-1348.3 
710328.664,4422425.000,-1362.9 
710328.664,4422225.000,-1373.2 
710328.664,4422025.000,-1386 
710328.664,4421825.000,-1396.1 
710328.664,4421625.000,-1407.3 
710328.664,4421425.000,-1416.6 
710328.664,4421225.000,-1430.3 
710328.664,4421025.000,-1440.6 
710328.664,4420825.000,-1453 
710328.664,4420625.000,-1466.5 
710328.664,4420425.000,-1486.3 
710328.664,4420225.000,-1510.6 
710328.664,4420025.000,-1522.2 
710328.664,4419825.000,-1530.3 
710328.664,4419625.000,-1533.3 
710328.664,4419425.000,-1539 
710328.664,4419225.000,-1544 
710328.664,4419025.000,-1554.2 
710328.664,4418825.000,-1561.6 
710328.664,4418625.000,-1565.8 
710328.664,4418425.000,-1571.7 
710328.664,4418225.000,-1577.2 
710328.664,4418025.000,-1583.7 
710328.664,4417825.000,-1594.5 
710328.664,4417625.000,-1598.8 
710328.664,4417425.000,-1601.8 
710328.664,4417225.000,-1603.7 
710328.664,4417025.000,-1608.2 
710328.664,4416825.000,-1614.4 
710328.664,4416625.000,-1617.2 
710328.664,4416425.000,-1622.6 
710328.664,4416225.000,-1625.5 
710328.664,4416025.000,-1634.5 
710328.664,4415825.000,-1643 
710328.664,4415625.000,-1645.2 
710328.664,4415425.000,-1656 
710328.664,4415225.000,-1665.9 
710328.664,4415025.000,-1674.9 
710328.664,4414825.000,-1681.8 
710328.664,4414625.000,-1686.3 
710328.664,4414425.000,-1692.2 
710328.664,4414225.000,-1697.9 
710328.664,4414025.000,-1704.4 
710328.664,4413825.000,-1712.3 
710328.664,4413625.000,-1718.2 
710328.664,4413425.000,-1720.9 
710328.664,4413225.000,-1724.2 
710328.664,4413025.000,-1722.1 
710328.664,4412825.000,-1722.1 
710328.664,4412625.000,-1724.2 
710328.664,4412425.000,-1726 
710328.664,4412225.000,-1732.2 
710528.664,4449025.000,-597.7 
710528.664,4448825.000,-615.5 
710528.664,4448625.000,-626.5 
710528.664,4448425.000,-630.6 
710528.664,4448225.000,-637.5 
710528.664,4448025.000,-647.3 
710528.664,4447825.000,-658 
710528.664,4447625.000,-668.7 
710528.664,4447425.000,-684.8 
710528.664,4447225.000,-696.6 
710528.664,4447025.000,-703.7 
710528.664,4446825.000,-711.4 
710528.664,4446625.000,-719.4 
710528.664,4446425.000,-730.5 
710528.664,4446225.000,-742.9 
710528.664,4446025.000,-776.3 
710528.664,4445825.000,-785.2 
710528.664,4445625.000,-786.5 
710528.664,4445425.000,-788.5 
710528.664,4445225.000,-792.8 
710528.664,4445025.000,-803.6 
710528.664,4444825.000,-814.7 
710528.664,4444625.000,-828.3 
710528.664,4444425.000,-838.2 
710528.664,4444225.000,-842.8 
710528.664,4444025.000,-847.1 
710528.664,4443825.000,-853.6 
710528.664,4443625.000,-857.6 
710528.664,4443425.000,-876.2 
710528.664,4443225.000,-888.7 
710528.664,4443025.000,-893.8 
710528.664,4442825.000,-908.1 
710528.664,4442625.000,-932.1 
710528.664,4442425.000,-947.2 
710528.664,4442225.000,-967.3 
710528.664,4442025.000,-987.3 
710528.664,4441825.000,-983.3 
710528.664,4441625.000,-980.1 
710528.664,4441425.000,-992.2 
710528.664,4441225.000,-1015.9 
710528.664,4441025.000,-1024.2 
710528.664,4440825.000,-1045.5 
710528.664,4440625.000,-1060 
710528.664,4440425.000,-1073.4 
710528.664,4440225.000,-1083.7 
710528.664,4440025.000,-1089.3 
710528.664,4439825.000,-1094 
710528.664,4439625.000,-1098.7 
710528.664,4439425.000,-1101.5 
710528.664,4439225.000,-1102.2 
710528.664,4439025.000,-1109.3 
710528.664,4438825.000,-1118 
710528.664,4438625.000,-1123.1 
710528.664,4438425.000,-1126.3 
710528.664,4438225.000,-1128 
710528.664,4438025.000,-1132 
710528.664,4437825.000,-1139.9 
710528.664,4437625.000,-1144 
710528.664,4437425.000,-1151.9 
710528.664,4437225.000,-1159.3 
710528.664,4437025.000,-1163.8 
710528.664,4436825.000,-1168.5 
710528.664,4436625.000,-1169.9 
710528.664,4436425.000,-1172.3 
710528.664,4436225.000,-1177.7 
710528.664,4436025.000,-1178.2 
710528.664,4435825.000,-1182.9 
710528.664,4435625.000,-1186.4 
710528.664,4435425.000,-1186.6 
710528.664,4435225.000,-1183.1 
710528.664,4435025.000,-1182.7 
710528.664,4434825.000,-1182.1 
710528.664,4434625.000,-1187.1 
710528.664,4434425.000,-1192.5 
710528.664,4434225.000,-1187.1 
710528.664,4434025.000,-1186 
710528.664,4433825.000,-1189 
710528.664,4433625.000,-1193.3 
710528.664,4433425.000,-1188.9 
710528.664,4433225.000,-1188.4 
710528.664,4433025.000,-1182.8 
710528.664,4432825.000,-1182.3 
710528.664,4432625.000,-1178.1 
710528.664,4432425.000,-1173.9 
710528.664,4432225.000,-1171.4 
710528.664,4432025.000,-1174.8 
710528.664,4431825.000,-1178.4 
710528.664,4431625.000,-1180.4 
710528.664,4431425.000,-1187.4 
710528.664,4431225.000,-1194.4 
710528.664,4431025.000,-1199.4 
710528.664,4430825.000,-1205.4 
710528.664,4430625.000,-1202.4 
710528.664,4430425.000,-1206.7 
710528.664,4430225.000,-1211.4 
710528.664,4430025.000,-1213.3 
710528.664,4429825.000,-1206.1 
710528.664,4429625.000,-1202.4 
710528.664,4429425.000,-1212.1 
710528.664,4429225.000,-1218 
710528.664,4429025.000,-1224.9 
710528.664,4428825.000,-1228.3 
710528.664,4428625.000,-1232.6 
710528.664,4428425.000,-1229.3 
710528.664,4428225.000,-1237.9 
710528.664,4428025.000,-1262.5 
710528.664,4427825.000,-1275.1 
710528.664,4427625.000,-1280.8 
710528.664,4427425.000,-1294.5 
710528.664,4427225.000,-1302 
710528.664,4427025.000,-1310 
710528.664,4426825.000,-1317.3 
710528.664,4426625.000,-1320.6 
710528.664,4426425.000,-1323.3 
710528.664,4426225.000,-1325 
710528.664,4426025.000,-1329.2 
710528.664,4425825.000,-1327.9 
710528.664,4425625.000,-1330.9 
710528.664,4425425.000,-1337.8 
710528.664,4425225.000,-1336.2 
710528.664,4425025.000,-1335.5 
710528.664,4424825.000,-1338.1 
710528.664,4424625.000,-1334.8 
710528.664,4424425.000,-1336 
710528.664,4424225.000,-1335 
710528.664,4424025.000,-1336 
710528.664,4423825.000,-1333.1 
710528.664,4423625.000,-1333 
710528.664,4423425.000,-1332.6 
710528.664,4423225.000,-1325.7 
710528.664,4423025.000,-1320.7 
710528.664,4422825.000,-1328.9 
710528.664,4422625.000,-1342.6 
710528.664,4422425.000,-1358.2 
710528.664,4422225.000,-1369.9 
710528.664,4422025.000,-1381.1 
710528.664,4421825.000,-1397.6 
710528.664,4421625.000,-1410.3 
710528.664,4421425.000,-1421.5 
710528.664,4421225.000,-1429.1 
710528.664,4421025.000,-1439.3 
710528.664,4420825.000,-1451.6 
710528.664,4420625.000,-1480.2 
710528.664,4420425.000,-1498.7 
710528.664,4420225.000,-1517.6 
710528.664,4420025.000,-1525.7 
710528.664,4419825.000,-1531.1 
710528.664,4419625.000,-1534.9 
710528.664,4419425.000,-1539.7 
710528.664,4419225.000,-1544.9 
710528.664,4419025.000,-1553.8 
710528.664,4418825.000,-1556.2 
710528.664,4418625.000,-1561.8 
710528.664,4418425.000,-1570 
710528.664,4418225.000,-1574.4 
710528.664,4418025.000,-1582.6 
710528.664,4417825.000,-1587.7 
710528.664,4417625.000,-1595.2 
710528.664,4417425.000,-1600.9 
710528.664,4417225.000,-1605.6 
710528.664,4417025.000,-1612.4 
710528.664,4416825.000,-1611.3 
710528.664,4416625.000,-1619.5 
710528.664,4416425.000,-1622.7 
710528.664,4416225.000,-1628 
710528.664,4416025.000,-1637 
710528.664,4415825.000,-1646.6 
710528.664,4415625.000,-1653.4 
710528.664,4415425.000,-1661.9 
710528.664,4415225.000,-1668.1 
710528.664,4415025.000,-1676 
710528.664,4414825.000,-1679.7 
710528.664,4414625.000,-1686.5 
710528.664,4414425.000,-1692.4 
710528.664,4414225.000,-1696.6 
710528.664,4414025.000,-1703.9 
710528.664,4413825.000,-1709.7 
710528.664,4413625.000,-1713 
710528.664,4413425.000,-1715.5 
710528.664,4413225.000,-1712.9 
710528.664,4413025.000,-1709.8 
710528.664,4412825.000,-1709 
710528.664,4412625.000,-1713.4 
710528.664,4412425.000,-1719.3 
710528.664,4412225.000,-1726.2 
710728.664,4449025.000,-587.4 
710728.664,4448825.000,-609.1 
710728.664,4448625.000,-620.3 
710728.664,4448425.000,-626.1 
710728.664,4448225.000,-631.9 
710728.664,4448025.000,-638.9 
710728.664,4447825.000,-650.3 
710728.664,4447625.000,-659 
710728.664,4447425.000,-675.3 
710728.664,4447225.000,-687.8 
710728.664,4447025.000,-696.4 
710728.664,4446825.000,-702.3 
710728.664,4446625.000,-711.7 
710728.664,4446425.000,-720.5 
710728.664,4446225.000,-734 
710728.664,4446025.000,-768.1 
710728.664,4445825.000,-779.4 
710728.664,4445625.000,-776.6 
710728.664,4445425.000,-779.8 
710728.664,4445225.000,-787.2 
710728.664,4445025.000,-794.8 
710728.664,4444825.000,-802 
710728.664,4444625.000,-809 
710728.664,4444425.000,-827.7 
710728.664,4444225.000,-836.5 
710728.664,4444025.000,-840.9 
710728.664,4443825.000,-841 
710728.664,4443625.000,-841.3 
710728.664,4443425.000,-850.3 
710728.664,4443225.000,-861.9 
710728.664,4443025.000,-871.9 
710728.664,4442825.000,-883.3 
710728.664,4442625.000,-910.3 
710728.664,4442425.000,-924.8 
710728.664,4442225.000,-941.6 
710728.664,4442025.000,-958.9 
710728.664,4441825.000,-975.4 
710728.664,4441625.000,-981.9 
710728.664,4441425.000,-986.9 
710728.664,4441225.000,-998.7 
710728.664,4441025.000,-1009 
710728.664,4440825.000,-1019 
710728.664,4440625.000,-1036.1 
710728.664,4440425.000,-1053.5 
710728.664,4440225.000,-1066.1 
710728.664,4440025.000,-1082.2 
710728.664,4439825.000,-1094.1 
710728.664,4439625.000,-1095.8 
710728.664,4439425.000,-1096.3 
710728.664,4439225.000,-1102.3 
710728.664,4439025.000,-1110.6 
710728.664,4438825.000,-1114.7 
710728.664,4438625.000,-1119.2 
710728.664,4438425.000,-1124.6 
710728.664,4438225.000,-1130.1 
710728.664,4438025.000,-1134.6 
710728.664,4437825.000,-1139.2 
710728.664,4437625.000,-1143.5 
710728.664,4437425.000,-1151 
710728.664,4437225.000,-1155.5 
710728.664,4437025.000,-1157.9 
710728.664,4436825.000,-1163.8 
710728.664,4436625.000,-1166.3 
710728.664,4436425.000,-1168.7 
710728.664,4436225.000,-1169 
710728.664,4436025.000,-1171.4 
710728.664,4435825.000,-1177.8 
710728.664,4435625.000,-1175.4 
710728.664,4435425.000,-1177.2 
710728.664,4435225.000,-1176.5 
710728.664,4435025.000,-1173.9 
710728.664,4434825.000,-1175.8 
710728.664,4434625.000,-1180.4 
710728.664,4434425.000,-1184.6 
710728.664,4434225.000,-1181 
710728.664,4434025.000,-1181.7 
710728.664,4433825.000,-1184 
710728.664,4433625.000,-1186.1 
710728.664,4433425.000,-1186.3 
710728.664,4433225.000,-1178.3 
710728.664,4433025.000,-1176.8 
710728.664,4432825.000,-1173.5 
710728.664,4432625.000,-1170.1 
710728.664,4432425.000,-1164.6 
710728.664,4432225.000,-1162.2 
710728.664,4432025.000,-1161.6 
710728.664,4431825.000,-1167.1 
710728.664,4431625.000,-1174.3 
710728.664,4431425.000,-1175.8 
710728.664,4431225.000,-1181.6 
710728.664,4431025.000,-1188 
710728.664,4430825.000,-1195.8 
710728.664,4430625.000,-1197.1 
710728.664,4430425.000,-1201.3 
710728.664,4430225.000,-1204.9 
710728.664,4430025.000,-1204.6 
710728.664,4429825.000,-1200.5 
710728.664,4429625.000,-1199 
710728.664,4429425.000,-1205.9 
710728.664,4429225.000,-1208.6 
710728.664,4429025.000,-1218.8 
710728.664,4428825.000,-1221 
710728.664,4428625.000,-1219.5 
710728.664,4428425.000,-1214 
710728.664,4428225.000,-1235.9 
710728.664,4428025.000,-1249.1 
710728.664,4427825.000,-1266 
710728.664,4427625.000,-1274.8 
710728.664,4427425.000,-1286.9 
710728.664,4427225.000,-1291.1 
710728.664,4427025.000,-1305.4 
710728.664,4426825.000,-1314.6 
710728.664,4426625.000,-1325.3 
710728.664,4426425.000,-1321.9 
710728.664,4426225.000,-1323.7 
710728.664,4426025.000,-1325.7 
710728.664,4425825.000,-1330.3 
710728.664,4425625.000,-1331.7 
710728.664,4425425.000,-1336.9 
710728.664,4425225.000,-1334.8 
710728.664,4425025.000,-1331 
710728.664,4424825.000,-1334.4 
710728.664,4424625.000,-1335 
710728.664,4424425.000,-1329.7 
710728.664,4424225.000,-1333.6 
710728.664,4424025.000,-1332.8 
710728.664,4423825.000,-1332 
710728.664,4423625.000,-1331.6 
710728.664,4423425.000,-1330.3 
710728.664,4423225.000,-1326.4 
710728.664,4423025.000,-1315.8 
710728.664,4422825.000,-1325.6 
710728.664,4422625.000,-1338.7 
710728.664,4422425.000,-1356.3 
710728.664,4422225.000,-1372.6 
710728.664,4422025.000,-1388.6 
710728.664,4421825.000,-1401.1 
710728.664,4421625.000,-1411.3 
710728.664,4421425.000,-1418.9 
710728.664,4421225.000,-1424.6 
710728.664,4421025.000,-1440 
710728.664,4420825.000,-1464.4 
710728.664,4420625.000,-1486.2 
710728.664,4420425.000,-1499.3 
710728.664,4420225.000,-1508 
710728.664,4420025.000,-1520.2 
710728.664,4419825.000,-1527.4 
710728.664,4419625.000,-1534.6 
710728.664,4419425.000,-1543.7 
710728.664,4419225.000,-1548.1 
710728.664,4419025.000,-1554.2 
710728.664,4418825.000,-1557.7 
710728.664,4418625.000,-1561.5 
710728.664,4418425.000,-1566.8 
710728.664,4418225.000,-1573.3 
710728.664,4418025.000,-1578.6 
710728.664,4417825.000,-1583.4 
710728.664,4417625.000,-1591.7 
710728.664,4417425.000,-1598.1 
710728.664,4417225.000,-1603.7 
710728.664,4417025.000,-1611.4 
710728.664,4416825.000,-1613.8 
710728.664,4416625.000,-1618.5 
710728.664,4416425.000,-1622 
710728.664,4416225.000,-1632.8 
710728.664,4416025.000,-1638.2 
710728.664,4415825.000,-1648.2 
710728.664,4415625.000,-1658.7 
710728.664,4415425.000,-1664.1 
710728.664,4415225.000,-1669.3 
710728.664,4415025.000,-1675.6 
710728.664,4414825.000,-1681.8 
710728.664,4414625.000,-1685.7 
710728.664,4414425.000,-1692.2 
710728.664,4414225.000,-1699.5 
710728.664,4414025.000,-1701.5 
710728.664,4413825.000,-1703 
710728.664,4413625.000,-1705.9 
710728.664,4413425.000,-1706.3 
710728.664,4413225.000,-1701.9 
710728.664,4413025.000,-1701.9 
710728.664,4412825.000,-1704.9 
710728.664,4412625.000,-1709 
710728.664,4412425.000,-1717.5 
710728.664,4412225.000,-1724.4 
710928.664,4448825.000,-599.5 
710928.664,4448625.000,-614.7 
710928.664,4448425.000,-621.5 
710928.664,4448225.000,-629.1 
710928.664,4448025.000,-635.8 
710928.664,4447825.000,-643.2 
710928.664,4447625.000,-652.7 
710928.664,4447425.000,-665 
710928.664,4447225.000,-681.1 
710928.664,4447025.000,-689.2 
710928.664,4446825.000,-697.8 
710928.664,4446625.000,-705 
710928.664,4446425.000,-713.2 
710928.664,4446225.000,-725.6 
710928.664,4446025.000,-744.3 
710928.664,4445825.000,-770.5 
710928.664,4445625.000,-773.4 
710928.664,4445425.000,-774.2 
710928.664,4445225.000,-781.9 
710928.664,4445025.000,-787.6 
710928.664,4444825.000,-790.1 
710928.664,4444625.000,-799.2 
710928.664,4444425.000,-808.4 
710928.664,4444225.000,-820.1 
710928.664,4444025.000,-829.3 
710928.664,4443825.000,-828.5 
710928.664,4443625.000,-827.1 
710928.664,4443425.000,-826.4 
710928.664,4443225.000,-839.3 
710928.664,4443025.000,-850.7 
710928.664,4442825.000,-860.3 
710928.664,4442625.000,-879.5 
710928.664,4442425.000,-899.5 
710928.664,4442225.000,-913.8 
710928.664,4442025.000,-932.8 
710928.664,4441825.000,-949.6 
710928.664,4441625.000,-972.5 
710928.664,4441425.000,-984.6 
710928.664,4441225.000,-985.3 
710928.664,4441025.000,-987.6 
710928.664,4440825.000,-994.1 
710928.664,4440625.000,-1014.3 
710928.664,4440425.000,-1028.7 
710928.664,4440225.000,-1045.8 
710928.664,4440025.000,-1060.4 
710928.664,4439825.000,-1079.7 
710928.664,4439625.000,-1090.7 
710928.664,4439425.000,-1098 
710928.664,4439225.000,-1104.7 
710928.664,4439025.000,-1109.6 
710928.664,4438825.000,-1112.8 
710928.664,4438625.000,-1120.5 
710928.664,4438425.000,-1123.2 
710928.664,4438225.000,-1128.2 
710928.664,4438025.000,-1134.8 
710928.664,4437825.000,-1139.1 
710928.664,4437625.000,-1141.5 
710928.664,4437425.000,-1148.4 
710928.664,4437225.000,-1150.6 
710928.664,4437025.000,-1155 
710928.664,4436825.000,-1157.3 
710928.664,4436625.000,-1161.2 
710928.664,4436425.000,-1163.1 
710928.664,4436225.000,-1163.9 
710928.664,4436025.000,-1164.4 
710928.664,4435825.000,-1168.5 
710928.664,4435625.000,-1165.6 
710928.664,4435425.000,-1166.8 
710928.664,4435225.000,-1167.5 
710928.664,4435025.000,-1168.1 
710928.664,4434825.000,-1167.6 
710928.664,4434625.000,-1173.1 
710928.664,4434425.000,-1173.8 
710928.664,4434225.000,-1173.7 
710928.664,4434025.000,-1175.5 
710928.664,4433825.000,-1177.5 
710928.664,4433625.000,-1181.8 
710928.664,4433425.000,-1178.9 
710928.664,4433225.000,-1173.4 
710928.664,4433025.000,-1167.6 
710928.664,4432825.000,-1167.3 
710928.664,4432625.000,-1158.4 
710928.664,4432425.000,-1156.4 
710928.664,4432225.000,-1153.2 
710928.664,4432025.000,-1150.5 
710928.664,4431825.000,-1155.3 
710928.664,4431625.000,-1158.1 
710928.664,4431425.000,-1166.6 
710928.664,4431225.000,-1170.3 
710928.664,4431025.000,-1173.7 
710928.664,4430825.000,-1182.6 
710928.664,4430625.000,-1189.5 
710928.664,4430425.000,-1191.6 
710928.664,4430225.000,-1195.1 
710928.664,4430025.000,-1193.8 
710928.664,4429825.000,-1192.7 
710928.664,4429625.000,-1192.6 
710928.664,4429425.000,-1199.2 
710928.664,4429225.000,-1204.8 
710928.664,4429025.000,-1212.3 
710928.664,4428825.000,-1213 
710928.664,4428625.000,-1213.2 
710928.664,4428425.000,-1207.4 
710928.664,4428225.000,-1217.7 
710928.664,4428025.000,-1233.8 
710928.664,4427825.000,-1250.2 
710928.664,4427625.000,-1264.3 
710928.664,4427425.000,-1274.9 
710928.664,4427225.000,-1290.7 
710928.664,4427025.000,-1304.4 
710928.664,4426825.000,-1318.2 
710928.664,4426625.000,-1319 
710928.664,4426425.000,-1321.9 
710928.664,4426225.000,-1326.3 
710928.664,4426025.000,-1329.2 
710928.664,4425825.000,-1329.4 
710928.664,4425625.000,-1333.1 
710928.664,4425425.000,-1333.4 
710928.664,4425225.000,-1333.6 
710928.664,4425025.000,-1328.7 
710928.664,4424825.000,-1336.6 
710928.664,4424625.000,-1330.2 
710928.664,4424425.000,-1328.4 
710928.664,4424225.000,-1332.2 
710928.664,4424025.000,-1328.5 
710928.664,4423825.000,-1332.6 
710928.664,4423625.000,-1331.4 
710928.664,4423425.000,-1328.7 
710928.664,4423225.000,-1325.5 
710928.664,4423025.000,-1317.8 
710928.664,4422825.000,-1316.5 
710928.664,4422625.000,-1331.5 
710928.664,4422425.000,-1350.3 
710928.664,4422225.000,-1367.7 
710928.664,4422025.000,-1380.5 
710928.664,4421825.000,-1392.4 
710928.664,4421625.000,-1402.8 
710928.664,4421425.000,-1413 
710928.664,4421225.000,-1422.1 
710928.664,4421025.000,-1439.1 
710928.664,4420825.000,-1455.3 
710928.664,4420625.000,-1470.5 
710928.664,4420425.000,-1478.9 
710928.664,4420225.000,-1491.7 
710928.664,4420025.000,-1509.2 
710928.664,4419825.000,-1514 
710928.664,4419625.000,-1533.3 
710928.664,4419425.000,-1542.6 
710928.664,4419225.000,-1544.8 
710928.664,4419025.000,-1548.9 
710928.664,4418825.000,-1555.8 
710928.664,4418625.000,-1558.8 
710928.664,4418425.000,-1565.4 
710928.664,4418225.000,-1569.6 
710928.664,4418025.000,-1580.2 
710928.664,4417825.000,-1584.6 
710928.664,4417625.000,-1590.2 
710928.664,4417425.000,-1597 
710928.664,4417225.000,-1604.5 
710928.664,4417025.000,-1609.5 
710928.664,4416825.000,-1617 
710928.664,4416625.000,-1622.8 
710928.664,4416425.000,-1629.4 
710928.664,4416225.000,-1637.5 
710928.664,4416025.000,-1641.5 
710928.664,4415825.000,-1649 
710928.664,4415625.000,-1657.6 
710928.664,4415425.000,-1663.6 
710928.664,4415225.000,-1669.8 
710928.664,4415025.000,-1677.2 
710928.664,4414825.000,-1683.2 
710928.664,4414625.000,-1684.9 
710928.664,4414425.000,-1691.9 
710928.664,4414225.000,-1693.9 
710928.664,4414025.000,-1697.2 
710928.664,4413825.000,-1698.3 
710928.664,4413625.000,-1698.5 
710928.664,4413425.000,-1695.4 
710928.664,4413225.000,-1695.3 
710928.664,4413025.000,-1697 
710928.664,4412825.000,-1701.4 
710928.664,4412625.000,-1712.4 
710928.664,4412425.000,-1719 
710928.664,4412225.000,-1725.4 
711128.664,4448825.000,-590.9 
711128.664,4448625.000,-608.2 
711128.664,4448425.000,-616.9 
711128.664,4448225.000,-625.9 
711128.664,4448025.000,-631.4 
711128.664,4447825.000,-638.5 
711128.664,4447625.000,-645.5 
711128.664,4447425.000,-658.3 
711128.664,4447225.000,-674.6 
711128.664,4447025.000,-681 
711128.664,4446825.000,-691.1 
711128.664,4446625.000,-695.8 
711128.664,4446425.000,-705.3 
711128.664,4446225.000,-716.3 
711128.664,4446025.000,-729.7 
711128.664,4445825.000,-757.8 
711128.664,4445625.000,-756 
711128.664,4445425.000,-758.1 
711128.664,4445225.000,-771.4 
711128.664,4445025.000,-776.5 
711128.664,4444825.000,-785.3 
711128.664,4444625.000,-797.4 
711128.664,4444425.000,-799.2 
711128.664,4444225.000,-800.1 
711128.664,4444025.000,-810.2 
711128.664,4443825.000,-807 
711128.664,4443625.000,-808.9 
711128.664,4443425.000,-814.8 
711128.664,4443225.000,-821.2 
711128.664,4443025.000,-832 
711128.664,4442825.000,-840.1 
711128.664,4442625.000,-863.1 
711128.664,4442425.000,-870.4 
711128.664,4442225.000,-889.4 
711128.664,4442025.000,-901.6 
711128.664,4441825.000,-922.4 
711128.664,4441625.000,-943.8 
711128.664,4441425.000,-961.8 
711128.664,4441225.000,-977.2 
711128.664,4441025.000,-983.1 
711128.664,4440825.000,-989.9 
711128.664,4440625.000,-1003.3 
711128.664,4440425.000,-1010.8 
711128.664,4440225.000,-1026.1 
711128.664,4440025.000,-1039.4 
711128.664,4439825.000,-1053.2 
711128.664,4439625.000,-1065.7 
711128.664,4439425.000,-1076.3 
711128.664,4439225.000,-1088.6 
711128.664,4439025.000,-1102.5 
711128.664,4438825.000,-1114.3 
711128.664,4438625.000,-1117.8 
711128.664,4438425.000,-1121.3 
711128.664,4438225.000,-1122.3 
711128.664,4438025.000,-1127.6 
711128.664,4437825.000,-1136.5 
711128.664,4437625.000,-1140.3 
711128.664,4437425.000,-1142.6 
711128.664,4437225.000,-1147.8 
711128.664,4437025.000,-1151.6 
711128.664,4436825.000,-1155.1 
711128.664,4436625.000,-1155.9 
711128.664,4436425.000,-1157.8 
711128.664,4436225.000,-1159 
711128.664,4436025.000,-1159.7 
711128.664,4435825.000,-1160.3 
711128.664,4435625.000,-1160.8 
711128.664,4435425.000,-1159.9 
711128.664,4435225.000,-1159.7 
711128.664,4435025.000,-1156.3 
711128.664,4434825.000,-1157.3 
711128.664,4434625.000,-1163.4 
711128.664,4434425.000,-1166.7 
711128.664,4434225.000,-1166 
711128.664,4434025.000,-1167.3 
711128.664,4433825.000,-1170 
711128.664,4433625.000,-1172.9 
711128.664,4433425.000,-1172.1 
711128.664,4433225.000,-1165 
711128.664,4433025.000,-1160.5 
711128.664,4432825.000,-1157.5 
711128.664,4432625.000,-1155.3 
711128.664,4432425.000,-1144.3 
711128.664,4432225.000,-1145.7 
711128.664,4432025.000,-1143.7 
711128.664,4431825.000,-1146.4 
711128.664,4431625.000,-1150.1 
711128.664,4431425.000,-1153.9 
711128.664,4431225.000,-1155.3 
711128.664,4431025.000,-1158.4 
711128.664,4430825.000,-1169.3 
711128.664,4430625.000,-1175.6 
711128.664,4430425.000,-1176.6 
711128.664,4430225.000,-1181.8 
711128.664,4430025.000,-1183.7 
711128.664,4429825.000,-1187.6 
711128.664,4429625.000,-1187.2 
711128.664,4429425.000,-1192.2 
711128.664,4429225.000,-1196.5 
