734853.664,4440850.000,-169.23 
734853.664,4440800.000,-169.5 
734853.664,4440750.000,-169.88 
734903.664,4456350.000,-33.6 
734903.664,4456300.000,-36.41 
734903.664,4456250.000,-37.94 
734903.664,4456200.000,-40 
734903.664,4456150.000,-46.3 
734903.664,4456100.000,-47.93 
734903.664,4455950.000,-47.82 
734903.664,4455900.000,-48.55 
734903.664,4455850.000,-48.92 
734903.664,4455800.000,-49.15 
734903.664,4455750.000,-49.09 
734903.664,4455700.000,-49.02 
734903.664,4455650.000,-48.06 
734903.664,4455600.000,-48.01 
734903.664,4455550.000,-48 
734903.664,4455500.000,-48.15 
734903.664,4455450.000,-48.12 
734903.664,4455400.000,-47.93 
734903.664,4455050.000,-46.64 
734903.664,4455000.000,-46.61 
734903.664,4454950.000,-46.95 
734903.664,4454900.000,-46.7 
734903.664,4454850.000,-46.44 
734903.664,4454800.000,-46.2 
734903.664,4454750.000,-46.11 
734903.664,4454700.000,-46.3 
734903.664,4454650.000,-46.44 
734903.664,4454600.000,-46.4 
734903.664,4454550.000,-46.2 
734903.664,4454500.000,-46.12 
734903.664,4454450.000,-46.38 
734903.664,4454400.000,-46.4 
734903.664,4454350.000,-46.41 
734903.664,4454300.000,-46.64 
734903.664,4454250.000,-46.78 
734903.664,4454200.000,-46.9 
734903.664,4454150.000,-47 
734903.664,4454100.000,-46.7 
734903.664,4454050.000,-46.7 
734903.664,4454000.000,-46.6 
734903.664,4453950.000,-46.7 
734903.664,4453900.000,-46.5 
734903.664,4453850.000,-46.3 
734903.664,4453800.000,-46.5 
734903.664,4453750.000,-46.6 
734903.664,4453700.000,-46.7 
734903.664,4453650.000,-47.01 
734903.664,4453600.000,-47.11 
734903.664,4453550.000,-46.9 
734903.664,4453050.000,-47.4 
734903.664,4453000.000,-47.32 
734903.664,4452950.000,-47.54 
734903.664,4452900.000,-47.2 
734903.664,4452850.000,-46.78 
734903.664,4452800.000,-46.84 
734903.664,4452750.000,-47.35 
734903.664,4452700.000,-47.66 
734903.664,4452650.000,-48 
734903.664,4452600.000,-48 
734903.664,4452550.000,-48.3 
734903.664,4452500.000,-48.4 
734903.664,4452050.000,-48.48 
734903.664,4452000.000,-48.02 
734903.664,4451950.000,-48 
734903.664,4451900.000,-47.8 
734903.664,4451850.000,-47.6 
734903.664,4451800.000,-47.32 
734903.664,4451750.000,-47.22 
734903.664,4451700.000,-47.3 
734903.664,4451650.000,-47.3 
734903.664,4451600.000,-47.2 
734903.664,4451550.000,-46.96 
734903.664,4451100.000,-46.78 
734903.664,4451050.000,-46.2 
734903.664,4451000.000,-46.49 
734903.664,4450950.000,-47.14 
734903.664,4450900.000,-48.05 
734903.664,4450850.000,-49.03 
734903.664,4450800.000,-49.65 
734903.664,4450750.000,-50.45 
734903.664,4450700.000,-50.89 
734903.664,4450650.000,-51.29 
734903.664,4450600.000,-51.6 
734903.664,4450550.000,-53.42 
734903.664,4450500.000,-57.27 
734903.664,4450450.000,-61.56 
734903.664,4450400.000,-62.61 
734903.664,4450350.000,-66.35 
734903.664,4450300.000,-67.31 
734903.664,4450250.000,-66.09 
734903.664,4450200.000,-63.67 
734903.664,4450150.000,-64.69 
734903.664,4450100.000,-63.49 
734903.664,4450050.000,-65.5 
734903.664,4450000.000,-67.8 
734903.664,4449950.000,-71.23 
734903.664,4449900.000,-73.5 
734903.664,4449850.000,-74.5 
734903.664,4449800.000,-77.35 
734903.664,4449750.000,-76.71 
734903.664,4449700.000,-77.04 
734903.664,4449650.000,-78.35 
734903.664,4449600.000,-79.41 
734903.664,4449550.000,-81.12 
734903.664,4449500.000,-81.62 
734903.664,4449450.000,-82.09 
734903.664,4449400.000,-82.57 
734903.664,4449350.000,-84 
734903.664,4449300.000,-83.72 
734903.664,4449250.000,-80.86 
734903.664,4449200.000,-80.41 
734903.664,4449150.000,-80.82 
734903.664,4449100.000,-80.84 
734903.664,4449050.000,-80.64 
734903.664,4449000.000,-80.35 
734903.664,4448950.000,-81.31 
734903.664,4448900.000,-80.76 
734903.664,4448850.000,-80.44 
734903.664,4448800.000,-79.45 
734903.664,4448750.000,-78.92 
734903.664,4448700.000,-78.52 
734903.664,4448650.000,-78.42 
734903.664,4448600.000,-78.72 
734903.664,4448550.000,-78.54 
734903.664,4448500.000,-78.41 
734903.664,4448450.000,-80.37 
734903.664,4448400.000,-82.12 
734903.664,4448350.000,-84.49 
734903.664,4448300.000,-85.32 
734903.664,4448250.000,-85.47 
734903.664,4448200.000,-85.89 
734903.664,4448150.000,-86.77 
734903.664,4448100.000,-87.9 
734903.664,4448050.000,-88.89 
734903.664,4448000.000,-89.5 
734903.664,4447950.000,-90.59 
734903.664,4447900.000,-92.47 
734903.664,4447850.000,-93.12 
734903.664,4447800.000,-94.07 
734903.664,4447750.000,-94.77 
734903.664,4447700.000,-96.05 
734903.664,4447650.000,-96.84 
734903.664,4447600.000,-98.19 
734903.664,4447550.000,-99.18 
734903.664,4447500.000,-100.11 
734903.664,4447450.000,-102.45 
734903.664,4447400.000,-104.35 
734903.664,4447350.000,-105.27 
734903.664,4447300.000,-106.06 
734903.664,4447250.000,-106.9 
734903.664,4447200.000,-107.25 
734903.664,4447150.000,-107.76 
734903.664,4447100.000,-108.47 
734903.664,4447050.000,-109.17 
734903.664,4447000.000,-109.76 
734903.664,4446950.000,-110.31 
734903.664,4446900.000,-110.56 
734903.664,4446850.000,-110.7 
734903.664,4446800.000,-110.66 
734903.664,4446750.000,-110.96 
734903.664,4446700.000,-111.49 
734903.664,4446650.000,-111.5 
734903.664,4446600.000,-111.78 
734903.664,4446550.000,-111.31 
734903.664,4446500.000,-110.46 
734903.664,4446450.000,-110.73 
734903.664,4446400.000,-110.84 
734903.664,4446350.000,-110.98 
734903.664,4446300.000,-111.09 
734903.664,4446250.000,-111 
734903.664,4446200.000,-110.94 
734903.664,4446150.000,-111 
734903.664,4446100.000,-111.11 
734903.664,4446050.000,-111.4 
734903.664,4446000.000,-111.77 
734903.664,4445950.000,-112.95 
734903.664,4445900.000,-113.59 
734903.664,4445850.000,-113.84 
734903.664,4445800.000,-114.11 
734903.664,4445750.000,-114.18 
734903.664,4445700.000,-114.4 
734903.664,4445650.000,-114.56 
734903.664,4445600.000,-114.86 
734903.664,4445550.000,-115.06 
734903.664,4445500.000,-115.5 
734903.664,4445450.000,-115.92 
734903.664,4445400.000,-116.4 
734903.664,4445350.000,-116.61 
734903.664,4445300.000,-117.32 
734903.664,4445250.000,-117.87 
734903.664,4445200.000,-118.37 
734903.664,4445150.000,-118.87 
734903.664,4445100.000,-119.42 
734903.664,4445050.000,-120.11 
734903.664,4445000.000,-120.67 
734903.664,4444950.000,-121.46 
734903.664,4444900.000,-122.27 
734903.664,4444850.000,-122.97 
734903.664,4444800.000,-123.67 
734903.664,4444750.000,-124.17 
734903.664,4444700.000,-125.01 
734903.664,4444650.000,-125.74 
734903.664,4444600.000,-126.56 
734903.664,4444550.000,-127.21 
734903.664,4444500.000,-127.86 
734903.664,4444450.000,-128.35 
734903.664,4444400.000,-128.9 
734903.664,4444350.000,-129.2 
734903.664,4444300.000,-130 
734903.664,4444250.000,-130.41 
734903.664,4444200.000,-131.21 
734903.664,4444150.000,-131.95 
734903.664,4444100.000,-132.56 
734903.664,4444050.000,-133.31 
734903.664,4444000.000,-133.89 
734903.664,4443950.000,-134.21 
734903.664,4443900.000,-135.16 
734903.664,4443850.000,-136.2 
734903.664,4443800.000,-136.99 
734903.664,4443750.000,-137.66 
734903.664,4443700.000,-138.67 
734903.664,4443650.000,-139.47 
734903.664,4443600.000,-140.64 
734903.664,4443550.000,-141.47 
734903.664,4443500.000,-142.45 
734903.664,4443450.000,-143.32 
734903.664,4443400.000,-143.91 
734903.664,4443350.000,-144.4 
734903.664,4443300.000,-144.9 
734903.664,4443250.000,-145.5 
734903.664,4443200.000,-146.1 
734903.664,4443150.000,-146.77 
734903.664,4443100.000,-147.15 
734903.664,4443050.000,-147.55 
734903.664,4443000.000,-148.02 
734903.664,4442950.000,-148.46 
734903.664,4442900.000,-148.95 
734903.664,4442850.000,-149.41 
734903.664,4442800.000,-149.75 
734903.664,4442750.000,-150.13 
734903.664,4442700.000,-150.5 
734903.664,4442650.000,-151.25 
734903.664,4442600.000,-153.35 
734903.664,4442550.000,-154.36 
734903.664,4442500.000,-155.34 
734903.664,4442450.000,-156.74 
734903.664,4442400.000,-157.5 
734903.664,4442350.000,-158.2 
734903.664,4442300.000,-159.07 
734903.664,4442250.000,-159.67 
734903.664,4442200.000,-160.42 
734903.664,4442150.000,-161.09 
734903.664,4442100.000,-161.49 
734903.664,4442050.000,-162.01 
734903.664,4442000.000,-162.76 
734903.664,4441950.000,-163.3 
734903.664,4441900.000,-163.7 
734903.664,4441850.000,-164.76 
734903.664,4441800.000,-165.45 
734903.664,4441750.000,-166.29 
734903.664,4441700.000,-166.91 
734903.664,4441650.000,-167.6 
734903.664,4441600.000,-168.42 
734903.664,4441550.000,-168.68 
734903.664,4441500.000,-168.97 
734903.664,4441450.000,-168.83 
734903.664,4441400.000,-169.47 
734903.664,4441350.000,-168.92 
734903.664,4441300.000,-167.2 
734903.664,4441250.000,-165.42 
734903.664,4441200.000,-165.69 
734903.664,4441150.000,-166.29 
734903.664,4441100.000,-166.72 
734903.664,4441050.000,-167.07 
734903.664,4441000.000,-167.57 
734903.664,4440950.000,-168.18 
734903.664,4440900.000,-168.67 
734903.664,4440850.000,-169.23 
734903.664,4440800.000,-169.58 
734903.664,4440750.000,-169.89 
734953.664,4456350.000,-33.96 
734953.664,4456300.000,-35.37 
734953.664,4456250.000,-37.29 
734953.664,4456200.000,-39.69 
734953.664,4455850.000,-48.84 
734953.664,4455800.000,-48.42 
734953.664,4455750.000,-48.1 
734953.664,4455700.000,-48 
734953.664,4455650.000,-47.21 
734953.664,4455600.000,-47.18 
734953.664,4455550.000,-47.62 
734953.664,4455500.000,-46.95 
734953.664,4455450.000,-47.52 
734953.664,4455400.000,-47.7 
734953.664,4455350.000,-47.46 
734953.664,4455300.000,-46.71 
734953.664,4454950.000,-46.71 
734953.664,4454900.000,-46.9 
734953.664,4454850.000,-46.65 
734953.664,4454800.000,-46.45 
734953.664,4454750.000,-46.3 
734953.664,4454700.000,-46.32 
734953.664,4454650.000,-46.36 
734953.664,4454600.000,-46.11 
734953.664,4454550.000,-46.2 
734953.664,4454500.000,-46.3 
734953.664,4454450.000,-46.38 
734953.664,4454400.000,-46.6 
734953.664,4454350.000,-46.6 
734953.664,4454300.000,-46.7 
734953.664,4454250.000,-46.6 
734953.664,4454200.000,-46.76 
734953.664,4454150.000,-46.8 
734953.664,4454100.000,-46.71 
734953.664,4454050.000,-46.79 
734953.664,4454000.000,-46.74 
734953.664,4453950.000,-46.66 
734953.664,4453900.000,-46.78 
734953.664,4453850.000,-46.6 
734953.664,4453800.000,-46.5 
734953.664,4453750.000,-46.4 
734953.664,4453700.000,-46.7 
734953.664,4453650.000,-46.9 
734953.664,4453600.000,-47 
734953.664,4453550.000,-47.1 
734953.664,4453500.000,-46.9 
734953.664,4453000.000,-47.34 
734953.664,4452950.000,-47.32 
734953.664,4452900.000,-47.4 
734953.664,4452850.000,-47.34 
734953.664,4452800.000,-47.48 
734953.664,4452750.000,-47.54 
734953.664,4452700.000,-47.8 
734953.664,4452650.000,-47.99 
734953.664,4452600.000,-48.04 
734953.664,4452550.000,-48.1 
734953.664,4452500.000,-48.2 
734953.664,4452450.000,-48.3 
734953.664,4451950.000,-47.52 
734953.664,4451900.000,-47.6 
734953.664,4451850.000,-47.31 
734953.664,4451800.000,-47.11 
734953.664,4451750.000,-46.81 
734953.664,4451700.000,-46.71 
734953.664,4451650.000,-47.01 
734953.664,4451600.000,-47.2 
734953.664,4451550.000,-47.1 
734953.664,4451500.000,-47.08 
734953.664,4451050.000,-46.74 
734953.664,4451000.000,-46.99 
734953.664,4450950.000,-47.53 
734953.664,4450900.000,-48.19 
734953.664,4450850.000,-49.05 
734953.664,4450800.000,-49.45 
734953.664,4450750.000,-50.16 
734953.664,4450700.000,-51.19 
734953.664,4450650.000,-51.45 
734953.664,4450600.000,-51.69 
734953.664,4450550.000,-51.9 
734953.664,4450500.000,-53.82 
734953.664,4450450.000,-57.66 
734953.664,4450400.000,-63.67 
734953.664,4450350.000,-65.83 
734953.664,4450300.000,-67.51 
734953.664,4450250.000,-65.89 
734953.664,4450200.000,-64.7 
734953.664,4450150.000,-64.21 
734953.664,4450100.000,-65.33 
734953.664,4450050.000,-67.95 
734953.664,4450000.000,-69.44 
734953.664,4449950.000,-71.81 
734953.664,4449900.000,-74.53 
734953.664,4449850.000,-74.05 
734953.664,4449800.000,-74.56 
734953.664,4449750.000,-76.5 
734953.664,4449700.000,-76.69 
734953.664,4449650.000,-76.72 
734953.664,4449600.000,-79 
734953.664,4449550.000,-80.26 
734953.664,4449500.000,-79.9 
734953.664,4449450.000,-79.4 
734953.664,4449400.000,-79.83 
734953.664,4449350.000,-80.12 
734953.664,4449300.000,-80.08 
734953.664,4449250.000,-79.37 
734953.664,4449200.000,-79.52 
734953.664,4449150.000,-79.27 
734953.664,4449100.000,-79.76 
734953.664,4449050.000,-79.81 
734953.664,4449000.000,-79.95 
734953.664,4448950.000,-80.09 
734953.664,4448900.000,-80.7 
734953.664,4448850.000,-79.71 
734953.664,4448800.000,-79.36 
734953.664,4448750.000,-78.84 
734953.664,4448700.000,-78.28 
734953.664,4448650.000,-77.9 
734953.664,4448600.000,-77.9 
734953.664,4448550.000,-78.1 
734953.664,4448500.000,-77.92 
734953.664,4448450.000,-78.72 
734953.664,4448400.000,-80.94 
734953.664,4448350.000,-83.19 
734953.664,4448300.000,-84.95 
734953.664,4448250.000,-85.64 
734953.664,4448200.000,-85.81 
734953.664,4448150.000,-86.84 
734953.664,4448100.000,-87.99 
734953.664,4448050.000,-89.4 
734953.664,4448000.000,-88.92 
734953.664,4447950.000,-89.3 
734953.664,4447900.000,-90.15 
734953.664,4447850.000,-91.49 
734953.664,4447800.000,-92.57 
734953.664,4447750.000,-93.64 
734953.664,4447700.000,-95.02 
734953.664,4447650.000,-96.45 
734953.664,4447600.000,-97.62 
734953.664,4447550.000,-98.64 
734953.664,4447500.000,-99.57 
734953.664,4447450.000,-101.74 
734953.664,4447400.000,-103.4 
734953.664,4447350.000,-104.87 
734953.664,4447300.000,-105.56 
734953.664,4447250.000,-106.46 
734953.664,4447200.000,-106.96 
734953.664,4447150.000,-107.75 
734953.664,4447100.000,-108.24 
734953.664,4447050.000,-108.91 
734953.664,4447000.000,-109.51 
734953.664,4446950.000,-109.91 
734953.664,4446900.000,-110.3 
734953.664,4446850.000,-110.46 
734953.664,4446800.000,-110.7 
734953.664,4446750.000,-110.76 
734953.664,4446700.000,-111.25 
734953.664,4446650.000,-111.2 
734953.664,4446600.000,-111.09 
734953.664,4446550.000,-110.71 
734953.664,4446500.000,-110.84 
734953.664,4446450.000,-111.43 
734953.664,4446400.000,-111.85 
734953.664,4446350.000,-111.98 
734953.664,4446300.000,-111.88 
734953.664,4446250.000,-111.63 
734953.664,4446200.000,-111.39 
734953.664,4446150.000,-111.3 
734953.664,4446100.000,-111.29 
734953.664,4446050.000,-111.2 
734953.664,4446000.000,-111.28 
734953.664,4445950.000,-111.75 
734953.664,4445900.000,-112.97 
734953.664,4445850.000,-113.49 
734953.664,4445800.000,-113.72 
734953.664,4445750.000,-114.06 
734953.664,4445700.000,-114.25 
734953.664,4445650.000,-114 
734953.664,4445600.000,-114.52 
734953.664,4445550.000,-114.82 
734953.664,4445500.000,-115.11 
734953.664,4445450.000,-115.65 
734953.664,4445400.000,-116.06 
734953.664,4445350.000,-116.4 
734953.664,4445300.000,-116.67 
734953.664,4445250.000,-116.99 
734953.664,4445200.000,-117.42 
734953.664,4445150.000,-117.86 
734953.664,4445100.000,-118.57 
734953.664,4445050.000,-119.26 
734953.664,4445000.000,-119.91 
734953.664,4444950.000,-120.75 
734953.664,4444900.000,-121.51 
734953.664,4444850.000,-122.12 
734953.664,4444800.000,-122.94 
734953.664,4444750.000,-123.77 
734953.664,4444700.000,-124.42 
734953.664,4444650.000,-125.27 
734953.664,4444600.000,-126.07 
734953.664,4444550.000,-126.67 
734953.664,4444500.000,-127.5 
734953.664,4444450.000,-128.15 
734953.664,4444400.000,-128.65 
734953.664,4444350.000,-129.25 
734953.664,4444300.000,-129.55 
734953.664,4444250.000,-130.2 
734953.664,4444200.000,-130.8 
734953.664,4444150.000,-131.46 
734953.664,4444100.000,-132.17 
734953.664,4444050.000,-132.9 
734953.664,4444000.000,-133.51 
734953.664,4443950.000,-134.2 
734953.664,4443900.000,-134.25 
734953.664,4443850.000,-135.5 
734953.664,4443800.000,-136.3 
734953.664,4443750.000,-137.05 
734953.664,4443700.000,-137.67 
734953.664,4443650.000,-138.56 
734953.664,4443600.000,-139.37 
734953.664,4443550.000,-140.89 
734953.664,4443500.000,-141.8 
734953.664,4443450.000,-142.52 
734953.664,4443400.000,-143.27 
734953.664,4443350.000,-144.07 
734953.664,4443300.000,-144.59 
734953.664,4443250.000,-145.11 
734953.664,4443200.000,-145.77 
734953.664,4443150.000,-146.26 
734953.664,4443100.000,-146.67 
734953.664,4443050.000,-147.25 
734953.664,4443000.000,-147.55 
734953.664,4442950.000,-148.05 
734953.664,4442900.000,-148.55 
734953.664,4442850.000,-148.9 
734953.664,4442800.000,-149.35 
734953.664,4442750.000,-150.1 
734953.664,4442700.000,-150.25 
734953.664,4442650.000,-150.7 
734953.664,4442600.000,-151.04 
734953.664,4442550.000,-152.97 
734953.664,4442500.000,-154.75 
734953.664,4442450.000,-155.8 
734953.664,4442400.000,-156.47 
734953.664,4442350.000,-157.41 
734953.664,4442300.000,-158.41 
734953.664,4442250.000,-158.4 
734953.664,4442200.000,-159.72 
734953.664,4442150.000,-159.9 
734953.664,4442100.000,-160.73 
734953.664,4442050.000,-161.4 
734953.664,4442000.000,-161.94 
734953.664,4441950.000,-162.71 
734953.664,4441900.000,-163.47 
734953.664,4441850.000,-163.57 
734953.664,4441800.000,-164.52 
734953.664,4441750.000,-165.51 
734953.664,4441700.000,-166.08 
734953.664,4441650.000,-166.7 
734953.664,4441600.000,-167.32 
734953.664,4441550.000,-167.98 
734953.664,4441500.000,-168.55 
734953.664,4441450.000,-168.74 
734953.664,4441400.000,-167.64 
734953.664,4441350.000,-165.66 
734953.664,4441300.000,-164.92 
734953.664,4441250.000,-164.83 
734953.664,4441200.000,-164.85 
734953.664,4441150.000,-165.63 
734953.664,4441100.000,-166.29 
734953.664,4441050.000,-166.79 
734953.664,4441000.000,-167.24 
734953.664,4440950.000,-167.91 
734953.664,4440900.000,-168.46 
734953.664,4440850.000,-168.91 
734953.664,4440800.000,-169.56 
734953.664,4440750.000,-169.89 
735003.664,4456300.000,-35.3 
735003.664,4455800.000,-47.92 
735003.664,4455750.000,-47.8 
735003.664,4455700.000,-47.12 
735003.664,4455650.000,-47.12 
735003.664,4455600.000,-46.57 
735003.664,4455550.000,-46.29 
735003.664,4455500.000,-46.51 
735003.664,4455450.000,-47.11 
735003.664,4455400.000,-47.32 
735003.664,4455350.000,-47.15 
735003.664,4455300.000,-46.91 
735003.664,4455250.000,-46.41 
735003.664,4454900.000,-46.61 
735003.664,4454850.000,-46.75 
735003.664,4454800.000,-46.5 
735003.664,4454750.000,-46.2 
735003.664,4454700.000,-45.96 
735003.664,4454650.000,-46 
735003.664,4454600.000,-46.1 
735003.664,4454550.000,-46.2 
735003.664,4454500.000,-46.5 
735003.664,4454450.000,-46.79 
735003.664,4454400.000,-46.49 
735003.664,4454350.000,-46.7 
735003.664,4454300.000,-46.6 
735003.664,4454250.000,-46.58 
735003.664,4454200.000,-46.46 
735003.664,4454150.000,-46.5 
735003.664,4454100.000,-46.7 
735003.664,4454050.000,-46.7 
735003.664,4454000.000,-46.37 
735003.664,4453950.000,-46.16 
735003.664,4453900.000,-46.8 
735003.664,4453850.000,-46.88 
735003.664,4453800.000,-46.68 
735003.664,4453750.000,-46.6 
735003.664,4453700.000,-46.7 
735003.664,4453650.000,-46.6 
735003.664,4453600.000,-46.8 
735003.664,4453550.000,-47.09 
735003.664,4453500.000,-47.2 
735003.664,4453450.000,-47.1 
735003.664,4453400.000,-46.9 
735003.664,4452900.000,-47.5 
735003.664,4452850.000,-47.78 
735003.664,4452800.000,-48.24 
735003.664,4452750.000,-48.28 
735003.664,4452700.000,-48.38 
735003.664,4452650.000,-48.09 
735003.664,4452600.000,-48.1 
735003.664,4452550.000,-48.25 
735003.664,4452500.000,-48.2 
735003.664,4452450.000,-48.2 
735003.664,4452400.000,-48.3 
735003.664,4451900.000,-47.3 
735003.664,4451850.000,-47.02 
735003.664,4451800.000,-46.76 
735003.664,4451750.000,-46.6 
735003.664,4451700.000,-46.6 
735003.664,4451650.000,-46.8 
735003.664,4451600.000,-47.15 
735003.664,4451550.000,-47.54 
735003.664,4451500.000,-47.94 
735003.664,4451450.000,-48.51 
735003.664,4451400.000,-48.9 
735003.664,4451050.000,-47.29 
735003.664,4451000.000,-47.73 
735003.664,4450950.000,-48.34 
735003.664,4450900.000,-48.8 
735003.664,4450850.000,-49.53 
735003.664,4450800.000,-50.33 
735003.664,4450750.000,-51.21 
735003.664,4450700.000,-51.68 
735003.664,4450650.000,-51.68 
735003.664,4450600.000,-52.03 
735003.664,4450550.000,-52.34 
735003.664,4450500.000,-52.79 
735003.664,4450450.000,-55.07 
735003.664,4450400.000,-58.6 
735003.664,4450350.000,-67.8 
735003.664,4450300.000,-70.28 
735003.664,4450250.000,-70.34 
735003.664,4450200.000,-70.02 
735003.664,4450150.000,-68.38 
735003.664,4450100.000,-66.46 
735003.664,4450050.000,-68.19 
735003.664,4450000.000,-69.46 
735003.664,4449950.000,-71.59 
735003.664,4449900.000,-73.46 
735003.664,4449850.000,-74.73 
735003.664,4449800.000,-74.08 
735003.664,4449750.000,-74.45 
735003.664,4449700.000,-76.37 
735003.664,4449650.000,-76.93 
735003.664,4449600.000,-77.75 
735003.664,4449550.000,-77.7 
735003.664,4449500.000,-77.37 
735003.664,4449450.000,-78.06 
735003.664,4449400.000,-78.46 
735003.664,4449350.000,-78.34 
735003.664,4449300.000,-77.52 
735003.664,4449250.000,-76.78 
735003.664,4449200.000,-77.63 
735003.664,4449150.000,-77.28 
735003.664,4449100.000,-77.85 
735003.664,4449050.000,-78.75 
735003.664,4449000.000,-79.24 
735003.664,4448950.000,-79.15 
735003.664,4448900.000,-79.89 
735003.664,4448850.000,-79.5 
735003.664,4448800.000,-79.26 
735003.664,4448750.000,-78.76 
735003.664,4448700.000,-78.54 
735003.664,4448650.000,-78.24 
735003.664,4448600.000,-78.14 
735003.664,4448550.000,-78.19 
735003.664,4448500.000,-78.29 
735003.664,4448450.000,-78.39 
735003.664,4448400.000,-79.5 
735003.664,4448350.000,-81.74 
735003.664,4448300.000,-84.34 
735003.664,4448250.000,-85.55 
735003.664,4448200.000,-86.04 
735003.664,4448150.000,-87.15 
735003.664,4448100.000,-88.05 
735003.664,4448050.000,-89.04 
735003.664,4448000.000,-88.4 
735003.664,4447950.000,-88.6 
735003.664,4447900.000,-89.27 
735003.664,4447850.000,-90.37 
735003.664,4447800.000,-91.65 
735003.664,4447750.000,-93.16 
735003.664,4447700.000,-94.54 
735003.664,4447650.000,-95.56 
735003.664,4447600.000,-96.66 
735003.664,4447550.000,-97.9 
735003.664,4447500.000,-100.18 
735003.664,4447450.000,-102.03 
735003.664,4447400.000,-103.08 
735003.664,4447350.000,-103.77 
735003.664,4447300.000,-105.05 
735003.664,4447250.000,-106.05 
735003.664,4447200.000,-107.05 
735003.664,4447150.000,-107.6 
735003.664,4447100.000,-108.2 
735003.664,4447050.000,-108.7 
735003.664,4447000.000,-109.45 
735003.664,4446950.000,-109.8 
735003.664,4446900.000,-110.2 
735003.664,4446850.000,-110.32 
735003.664,4446800.000,-110.95 
735003.664,4446750.000,-111.33 
735003.664,4446700.000,-111.78 
735003.664,4446650.000,-112.03 
735003.664,4446600.000,-111.55 
735003.664,4446550.000,-111.48 
735003.664,4446500.000,-111.76 
735003.664,4446450.000,-112.53 
735003.664,4446400.000,-113.06 
735003.664,4446350.000,-113.28 
735003.664,4446300.000,-113.28 
735003.664,4446250.000,-112.63 
735003.664,4446200.000,-112.11 
735003.664,4446150.000,-111.69 
735003.664,4446100.000,-111.39 
735003.664,4446050.000,-111.4 
735003.664,4446000.000,-111.39 
735003.664,4445950.000,-111.46 
735003.664,4445900.000,-111.71 
735003.664,4445850.000,-112.65 
735003.664,4445800.000,-113.2 
735003.664,4445750.000,-113.62 
735003.664,4445700.000,-113.55 
735003.664,4445650.000,-113.75 
735003.664,4445600.000,-114.1 
735003.664,4445550.000,-114.36 
735003.664,4445500.000,-114.8 
735003.664,4445450.000,-115.24 
735003.664,4445400.000,-115.61 
735003.664,4445350.000,-115.96 
735003.664,4445300.000,-116.21 
735003.664,4445250.000,-116.57 
735003.664,4445200.000,-116.9 
735003.664,4445150.000,-117.56 
735003.664,4445100.000,-118.06 
735003.664,4445050.000,-118.47 
735003.664,4445000.000,-119.36 
735003.664,4444950.000,-120.01 
735003.664,4444900.000,-120.57 
735003.664,4444850.000,-121.46 
735003.664,4444800.000,-122.01 
735003.664,4444750.000,-123.01 
735003.664,4444700.000,-123.67 
735003.664,4444650.000,-124.56 
735003.664,4444600.000,-125.32 
735003.664,4444550.000,-126.06 
735003.664,4444500.000,-126.97 
735003.664,4444450.000,-127.67 
735003.664,4444400.000,-128.31 
735003.664,4444350.000,-128.8 
735003.664,4444300.000,-129.35 
735003.664,4444250.000,-129.84 
735003.664,4444200.000,-130.45 
735003.664,4444150.000,-130.95 
735003.664,4444100.000,-131.66 
735003.664,4444050.000,-132.37 
735003.664,4444000.000,-133.07 
735003.664,4443950.000,-133.56 
735003.664,4443900.000,-134.37 
735003.664,4443850.000,-134.68 
735003.664,4443800.000,-135.81 
735003.664,4443750.000,-136.02 
735003.664,4443700.000,-137.02 
735003.664,4443650.000,-138.11 
735003.664,4443600.000,-139.05 
735003.664,4443550.000,-139.71 
735003.664,4443500.000,-140.87 
735003.664,4443450.000,-141.96 
735003.664,4443400.000,-142.71 
735003.664,4443350.000,-143.42 
735003.664,4443300.000,-144.11 
735003.664,4443250.000,-144.77 
735003.664,4443200.000,-145.27 
735003.664,4443150.000,-145.96 
735003.664,4443100.000,-146.45 
735003.664,4443050.000,-146.62 
735003.664,4443000.000,-147.45 
735003.664,4442950.000,-147.72 
735003.664,4442900.000,-148.25 
735003.664,4442850.000,-148.65 
735003.664,4442800.000,-149.1 
735003.664,4442750.000,-149.7 
735003.664,4442700.000,-150.06 
735003.664,4442650.000,-150.4 
735003.664,4442600.000,-150.7 
735003.664,4442550.000,-151.11 
735003.664,4442500.000,-151.91 
735003.664,4442450.000,-153.49 
735003.664,4442400.000,-154.98 
735003.664,4442350.000,-156.28 
735003.664,4442300.000,-157.26 
735003.664,4442250.000,-157.89 
735003.664,4442200.000,-158.67 
735003.664,4442150.000,-159.46 
735003.664,4442100.000,-159.85 
735003.664,4442050.000,-160.44 
735003.664,4442000.000,-161.19 
735003.664,4441950.000,-161.55 
735003.664,4441900.000,-162.69 
735003.664,4441850.000,-163.21 
735003.664,4441800.000,-163.5 
735003.664,4441750.000,-164.62 
735003.664,4441700.000,-165.06 
735003.664,4441650.000,-165.39 
735003.664,4441600.000,-165.06 
735003.664,4441550.000,-166.14 
735003.664,4441500.000,-166.49 
735003.664,4441450.000,-165.76 
735003.664,4441400.000,-163.45 
735003.664,4441350.000,-163.43 
735003.664,4441300.000,-163.58 
735003.664,4441250.000,-164.02 
735003.664,4441200.000,-164.56 
735003.664,4441150.000,-165.35 
735003.664,4441100.000,-166.21 
735003.664,4441050.000,-166.71 
735003.664,4441000.000,-167.26 
735003.664,4440950.000,-167.76 
735003.664,4440900.000,-168.27 
735003.664,4440850.000,-168.95 
735003.664,4440800.000,-169.37 
735003.664,4440750.000,-169.83 
735053.664,4455700.000,-46.67 
735053.664,4455650.000,-46.48 
735053.664,4455600.000,-46.6 
735053.664,4455550.000,-46.4 
735053.664,4455500.000,-46.46 
735053.664,4455450.000,-46.52 
735053.664,4455400.000,-46.67 
735053.664,4455350.000,-46.7 
735053.664,4455300.000,-46.6 
735053.664,4455250.000,-46.4 
735053.664,4455200.000,-46.3 
735053.664,4454800.000,-46.41 
735053.664,4454750.000,-45.8 
735053.664,4454700.000,-45.8 
735053.664,4454650.000,-46.1 
735053.664,4454600.000,-46.38 
735053.664,4454550.000,-46.49 
735053.664,4454500.000,-46.72 
735053.664,4454450.000,-46.9 
735053.664,4454400.000,-47 
735053.664,4454350.000,-46.69 
735053.664,4454300.000,-46.8 
735053.664,4454250.000,-46.7 
735053.664,4454200.000,-46.5 
735053.664,4454150.000,-46.44 
735053.664,4454100.000,-46.59 
735053.664,4454050.000,-46.4 
735053.664,4454000.000,-46.3 
735053.664,4453950.000,-46.1 
735053.664,4453900.000,-46.24 
735053.664,4453850.000,-46.8 
735053.664,4453800.000,-47 
735053.664,4453750.000,-46.8 
735053.664,4453700.000,-46.65 
735053.664,4453650.000,-46.7 
735053.664,4453600.000,-46.7 
735053.664,4453550.000,-46.72 
735053.664,4453500.000,-47 
735053.664,4453450.000,-47.24 
735053.664,4453400.000,-47.3 
735053.664,4453350.000,-47.38 
735053.664,4452850.000,-48 
735053.664,4452800.000,-48.17 
735053.664,4452750.000,-48.8 
735053.664,4452700.000,-48.75 
735053.664,4452650.000,-48.4 
735053.664,4452600.000,-48.18 
735053.664,4452550.000,-48.16 
735053.664,4452500.000,-48.3 
735053.664,4452450.000,-48.2 
735053.664,4452400.000,-48 
735053.664,4452350.000,-47.96 
735053.664,4452300.000,-47.86 
735053.664,4451850.000,-46.7 
735053.664,4451800.000,-46.4 
735053.664,4451750.000,-46.48 
735053.664,4451700.000,-46.51 
735053.664,4451650.000,-46.8 
735053.664,4451600.000,-47.26 
735053.664,4451550.000,-48.43 
735053.664,4451500.000,-49.08 
735053.664,4451450.000,-49.73 
735053.664,4451400.000,-50.18 
735053.664,4451350.000,-50.39 
735053.664,4451000.000,-48.41 
735053.664,4450950.000,-49.09 
735053.664,4450900.000,-49.83 
735053.664,4450850.000,-50.44 
735053.664,4450800.000,-51.04 
735053.664,4450750.000,-51.65 
735053.664,4450700.000,-51.89 
735053.664,4450650.000,-51.89 
735053.664,4450600.000,-51.8 
735053.664,4450550.000,-52.07 
735053.664,4450500.000,-52.5 
735053.664,4450450.000,-52.97 
735053.664,4450400.000,-54.32 
735053.664,4450350.000,-57.23 
735053.664,4450300.000,-69.55 
735053.664,4450250.000,-72.08 
735053.664,4450200.000,-71.88 
735053.664,4450150.000,-70.93 
735053.664,4450100.000,-69.23 
735053.664,4450050.000,-67.93 
735053.664,4450000.000,-69.25 
735053.664,4449950.000,-71 
735053.664,4449900.000,-72.3 
735053.664,4449850.000,-72.96 
735053.664,4449800.000,-74.53 
735053.664,4449750.000,-73.98 
735053.664,4449700.000,-74.62 
735053.664,4449650.000,-75.84 
735053.664,4449600.000,-77.64 
735053.664,4449550.000,-77.1 
735053.664,4449500.000,-77.4 
735053.664,4449450.000,-78.13 
735053.664,4449400.000,-78.54 
735053.664,4449350.000,-76.91 
735053.664,4449300.000,-73.9 
735053.664,4449250.000,-72.81 
735053.664,4449200.000,-72.03 
735053.664,4449150.000,-73.22 
735053.664,4449100.000,-73.91 
735053.664,4449050.000,-74.02 
735053.664,4449000.000,-75.64 
735053.664,4448950.000,-76.22 
735053.664,4448900.000,-77.59 
735053.664,4448850.000,-77.81 
735053.664,4448800.000,-77.84 
735053.664,4448750.000,-78.12 
735053.664,4448700.000,-78.1 
735053.664,4448650.000,-78.22 
735053.664,4448600.000,-78.3 
735053.664,4448550.000,-78.19 
735053.664,4448500.000,-78.54 
735053.664,4448450.000,-78.79 
735053.664,4448400.000,-78.87 
735053.664,4448350.000,-80.12 
735053.664,4448300.000,-82.05 
735053.664,4448250.000,-84.1 
735053.664,4448200.000,-85.9 
735053.664,4448150.000,-86.85 
735053.664,4448100.000,-87.49 
735053.664,4448050.000,-88.44 
735053.664,4448000.000,-88.16 
735053.664,4447950.000,-88.65 
735053.664,4447900.000,-89.34 
735053.664,4447850.000,-90.76 
735053.664,4447800.000,-91.59 
735053.664,4447750.000,-93.29 
735053.664,4447700.000,-94.78 
735053.664,4447650.000,-96.3 
735053.664,4447600.000,-97.5 
735053.664,4447550.000,-99.11 
735053.664,4447500.000,-100.95 
735053.664,4447450.000,-101.42 
735053.664,4447400.000,-102.46 
735053.664,4447350.000,-103.99 
735053.664,4447300.000,-105.13 
735053.664,4447250.000,-105.95 
735053.664,4447200.000,-106.69 
735053.664,4447150.000,-107.55 
735053.664,4447100.000,-108.04 
735053.664,4447050.000,-108.56 
735053.664,4447000.000,-109.06 
735053.664,4446950.000,-109.66 
735053.664,4446900.000,-110.1 
735053.664,4446850.000,-110.46 
735053.664,4446800.000,-111.25 
735053.664,4446750.000,-112.2 
735053.664,4446700.000,-112.2 
735053.664,4446650.000,-111.47 
735053.664,4446600.000,-110.47 
735053.664,4446550.000,-111.22 
735053.664,4446500.000,-112.45 
735053.664,4446450.000,-113.49 
735053.664,4446400.000,-113.94 
735053.664,4446350.000,-114.18 
735053.664,4446300.000,-114.09 
735053.664,4446250.000,-113.64 
735053.664,4446200.000,-112.99 
735053.664,4446150.000,-112.31 
735053.664,4446100.000,-111.88 
735053.664,4446050.000,-111.58 
735053.664,4446000.000,-111.5 
735053.664,4445950.000,-111.51 
735053.664,4445900.000,-111.9 
735053.664,4445850.000,-112.11 
735053.664,4445800.000,-112.21 
735053.664,4445750.000,-112.55 
735053.664,4445700.000,-112.67 
735053.664,4445650.000,-113.5 
735053.664,4445600.000,-113.95 
735053.664,4445550.000,-114.29 
735053.664,4445500.000,-114.59 
735053.664,4445450.000,-114.76 
735053.664,4445400.000,-115.06 
735053.664,4445350.000,-115.26 
735053.664,4445300.000,-115.62 
735053.664,4445250.000,-116.02 
735053.664,4445200.000,-116.42 
735053.664,4445150.000,-116.92 
735053.664,4445100.000,-117.37 
735053.664,4445050.000,-117.96 
735053.664,4445000.000,-118.47 
735053.664,4444950.000,-119.36 
735053.664,4444900.000,-119.96 
735053.664,4444850.000,-120.57 
735053.664,4444800.000,-121.45 
735053.664,4444750.000,-122.19 
735053.664,4444700.000,-122.87 
735053.664,4444650.000,-123.67 
735053.664,4444600.000,-124.27 
735053.664,4444550.000,-125.37 
735053.664,4444500.000,-126.27 
735053.664,4444450.000,-127.06 
735053.664,4444400.000,-127.76 
735053.664,4444350.000,-128.51 
735053.664,4444300.000,-129 
735053.664,4444250.000,-129.47 
735053.664,4444200.000,-130.08 
735053.664,4444150.000,-130.47 
735053.664,4444100.000,-131.05 
735053.664,4444050.000,-131.81 
735053.664,4444000.000,-132.45 
735053.664,4443950.000,-133.21 
735053.664,4443900.000,-133.61 
735053.664,4443850.000,-134.65 
735053.664,4443800.000,-135.3 
735053.664,4443750.000,-135.88 
735053.664,4443700.000,-136.82 
735053.664,4443650.000,-137.58 
735053.664,4443600.000,-138.2 
735053.664,4443550.000,-139.05 
735053.664,4443500.000,-140.11 
735053.664,4443450.000,-141.15 
735053.664,4443400.000,-142.17 
735053.664,4443350.000,-142.86 
735053.664,4443300.000,-143.67 
735053.664,4443250.000,-144.21 
735053.664,4443200.000,-144.72 
735053.664,4443150.000,-145.36 
735053.664,4443100.000,-145.99 
735053.664,4443050.000,-146.58 
735053.664,4443000.000,-146.9 
735053.664,4442950.000,-147.5 
735053.664,4442900.000,-147.76 
735053.664,4442850.000,-148.22 
735053.664,4442800.000,-148.75 
735053.664,4442750.000,-149.25 
735053.664,4442700.000,-149.62 
735053.664,4442650.000,-149.96 
735053.664,4442600.000,-150.4 
735053.664,4442550.000,-150.65 
735053.664,4442500.000,-150.95 
735053.664,4442450.000,-151.44 
735053.664,4442400.000,-151.77 
735053.664,4442350.000,-153.83 
735053.664,4442300.000,-155.52 
735053.664,4442250.000,-156.78 
735053.664,4442200.000,-157.39 
735053.664,4442150.000,-158.15 
735053.664,4442100.000,-159.19 
735053.664,4442050.000,-159.67 
735053.664,4442000.000,-160.21 
735053.664,4441950.000,-160.94 
735053.664,4441900.000,-161.32 
735053.664,4441850.000,-161.23 
735053.664,4441800.000,-159.64 
735053.664,4441750.000,-159.26 
735053.664,4441700.000,-161.99 
735053.664,4441650.000,-161.55 
735053.664,4441600.000,-161.41 
735053.664,4441550.000,-161.58 
735053.664,4441500.000,-161.3 
735053.664,4441450.000,-161.69 
735053.664,4441400.000,-162.3 
735053.664,4441350.000,-163.06 
735053.664,4441300.000,-163.21 
735053.664,4441250.000,-163.62 
735053.664,4441200.000,-164.44 
735053.664,4441150.000,-165.16 
735053.664,4441100.000,-165.91 
735053.664,4441050.000,-166.59 
735053.664,4441000.000,-167.07 
735053.664,4440950.000,-167.49 
735053.664,4440900.000,-168.09 
735053.664,4440850.000,-168.69 
735053.664,4440800.000,-169.17 
735053.664,4440750.000,-169.59 
735103.664,4455650.000,-46.37 
735103.664,4455600.000,-46.4 
735103.664,4455550.000,-46.54 
735103.664,4455500.000,-46.68 
735103.664,4455450.000,-46.5 
735103.664,4455400.000,-46.01 
735103.664,4455350.000,-45.81 
735103.664,4455300.000,-46.22 
735103.664,4455250.000,-46.42 
735103.664,4455200.000,-46.17 
735103.664,4455150.000,-46.21 
735103.664,4455100.000,-46.7 
735103.664,4454750.000,-45.57 
735103.664,4454700.000,-46.16 
735103.664,4454650.000,-46.68 
735103.664,4454600.000,-46.6 
735103.664,4454550.000,-46.5 
735103.664,4454500.000,-46.56 
735103.664,4454450.000,-46.66 
735103.664,4454400.000,-46.9 
735103.664,4454350.000,-46.92 
735103.664,4454300.000,-46.77 
735103.664,4454250.000,-46.8 
735103.664,4454200.000,-46.7 
735103.664,4454150.000,-46.5 
735103.664,4454100.000,-46.26 
735103.664,4454050.000,-46.2 
735103.664,4454000.000,-46.15 
735103.664,4453950.000,-46.2 
735103.664,4453900.000,-46.41 
735103.664,4453850.000,-46.44 
735103.664,4453800.000,-46.66 
735103.664,4453750.000,-46.66 
735103.664,4453700.000,-46.7 
735103.664,4453650.000,-46.7 
735103.664,4453600.000,-46.8 
735103.664,4453550.000,-46.72 
735103.664,4453500.000,-46.8 
735103.664,4453450.000,-47 
735103.664,4453400.000,-47.3 
735103.664,4453350.000,-47.5 
735103.664,4453300.000,-47.49 
735103.664,4453250.000,-47.44 
735103.664,4452800.000,-48.2 
735103.664,4452750.000,-48.32 
735103.664,4452700.000,-48.2 
735103.664,4452650.000,-48.4 
735103.664,4452600.000,-48.4 
735103.664,4452550.000,-48.3 
735103.664,4452500.000,-48.36 
735103.664,4452450.000,-48.3 
735103.664,4452400.000,-48.06 
735103.664,4452350.000,-47.9 
735103.664,4452300.000,-47.7 
735103.664,4452250.000,-47.41 
735103.664,4451800.000,-46.4 
735103.664,4451750.000,-45.92 
735103.664,4451700.000,-46.16 
735103.664,4451650.000,-46.32 
735103.664,4451600.000,-46.67 
735103.664,4451550.000,-48.75 
735103.664,4451500.000,-49.54 
735103.664,4451450.000,-50.24 
735103.664,4451400.000,-50.89 
735103.664,4451350.000,-51.38 
735103.664,4451300.000,-51.68 
735103.664,4451000.000,-49.48 
735103.664,4450950.000,-49.84 
735103.664,4450900.000,-50.14 
735103.664,4450850.000,-50.8 
735103.664,4450800.000,-51.2 
735103.664,4450750.000,-51.55 
735103.664,4450700.000,-51.7 
735103.664,4450650.000,-51.8 
735103.664,4450600.000,-51.7 
735103.664,4450550.000,-51.65 
735103.664,4450500.000,-51.29 
735103.664,4450450.000,-51.77 
735103.664,4450400.000,-52.32 
735103.664,4450350.000,-53.3 
735103.664,4450300.000,-56.38 
735103.664,4450250.000,-70.57 
735103.664,4450200.000,-72.17 
735103.664,4450150.000,-71.12 
735103.664,4450100.000,-71.19 
735103.664,4450050.000,-69.68 
735103.664,4450000.000,-69.73 
735103.664,4449950.000,-70.86 
735103.664,4449900.000,-71.9 
735103.664,4449850.000,-71.97 
735103.664,4449800.000,-73.24 
735103.664,4449750.000,-73.62 
735103.664,4449700.000,-74.07 
735103.664,4449650.000,-76.65 
735103.664,4449600.000,-77.9 
735103.664,4449550.000,-78.45 
735103.664,4449500.000,-77.76 
735103.664,4449450.000,-76.12 
735103.664,4449400.000,-75.78 
735103.664,4449350.000,-74.85 
735103.664,4449300.000,-72.35 
735103.664,4449250.000,-69.94 
735103.664,4449200.000,-68.91 
735103.664,4449150.000,-69.22 
735103.664,4449100.000,-70.05 
735103.664,4449050.000,-71.54 
735103.664,4449000.000,-73.02 
735103.664,4448950.000,-74.67 
735103.664,4448900.000,-76.07 
735103.664,4448850.000,-76.2 
735103.664,4448800.000,-76.27 
735103.664,4448750.000,-76.71 
735103.664,4448700.000,-77.02 
735103.664,4448650.000,-77.02 
735103.664,4448600.000,-77.26 
735103.664,4448550.000,-78.35 
735103.664,4448500.000,-78.6 
735103.664,4448450.000,-78.9 
735103.664,4448400.000,-79.19 
735103.664,4448350.000,-80.1 
735103.664,4448300.000,-81.68 
735103.664,4448250.000,-83.21 
735103.664,4448200.000,-85.65 
735103.664,4448150.000,-86.85 
735103.664,4448100.000,-87.21 
735103.664,4448050.000,-88.04 
735103.664,4448000.000,-88.3 
735103.664,4447950.000,-89.43 
735103.664,4447900.000,-89.98 
735103.664,4447850.000,-91.78 
735103.664,4447800.000,-92.74 
735103.664,4447750.000,-93.82 
735103.664,4447700.000,-95.85 
735103.664,4447650.000,-97.81 
735103.664,4447600.000,-99.13 
735103.664,4447550.000,-100.08 
735103.664,4447500.000,-101.21 
735103.664,4447450.000,-102.82 
735103.664,4447400.000,-103.87 
735103.664,4447350.000,-104.48 
735103.664,4447300.000,-105.03 
735103.664,4447250.000,-106.05 
735103.664,4447200.000,-106.66 
735103.664,4447150.000,-107.21 
735103.664,4447100.000,-107.86 
735103.664,4447050.000,-108.42 
735103.664,4447000.000,-108.71 
735103.664,4446950.000,-109.3 
735103.664,4446900.000,-109.76 
735103.664,4446850.000,-110.37 
735103.664,4446800.000,-110.75 
735103.664,4446750.000,-111.22 
735103.664,4446700.000,-110.81 
735103.664,4446650.000,-110.17 
735103.664,4446600.000,-109.9 
735103.664,4446550.000,-110.35 
735103.664,4446500.000,-111.46 
735103.664,4446450.000,-113.54 
735103.664,4446400.000,-114.56 
735103.664,4446350.000,-114.98 
735103.664,4446300.000,-114.98 
735103.664,4446250.000,-114.83 
735103.664,4446200.000,-114.03 
735103.664,4446150.000,-113.14 
735103.664,4446100.000,-112.58 
735103.664,4446050.000,-112.27 
735103.664,4446000.000,-112.04 
735103.664,4445950.000,-111.69 
735103.664,4445900.000,-111.71 
735103.664,4445850.000,-111.71 
735103.664,4445800.000,-111.5 
735103.664,4445750.000,-111.52 
735103.664,4445700.000,-112.21 
735103.664,4445650.000,-113.15 
735103.664,4445600.000,-113.76 
735103.664,4445550.000,-114.2 
735103.664,4445500.000,-114.5 
735103.664,4445450.000,-114.6 
735103.664,4445400.000,-114.75 
735103.664,4445350.000,-115.06 
735103.664,4445300.000,-115.05 
735103.664,4445250.000,-115.36 
735103.664,4445200.000,-115.82 
735103.664,4445150.000,-116.35 
735103.664,4445100.000,-116.85 
735103.664,4445050.000,-117.62 
735103.664,4445000.000,-118.17 
735103.664,4444950.000,-118.56 
735103.664,4444900.000,-119.17 
735103.664,4444850.000,-119.92 
735103.664,4444800.000,-120.57 
735103.664,4444750.000,-121.17 
735103.664,4444700.000,-122.05 
735103.664,4444650.000,-122.71 
735103.664,4444600.000,-123.57 
735103.664,4444550.000,-124.57 
735103.664,4444500.000,-125.27 
735103.664,4444450.000,-126.27 
735103.664,4444400.000,-127.17 
735103.664,4444350.000,-127.67 
735103.664,4444300.000,-128.47 
735103.664,4444250.000,-129.01 
735103.664,4444200.000,-129.51 
735103.664,4444150.000,-130.06 
735103.664,4444100.000,-130.41 
735103.664,4444050.000,-131.11 
735103.664,4444000.000,-131.87 
735103.664,4443950.000,-132.71 
735103.664,4443900.000,-133.37 
735103.664,4443850.000,-134.07 
735103.664,4443800.000,-134.86 
735103.664,4443750.000,-135.77 
735103.664,4443700.000,-136.28 
735103.664,4443650.000,-137 
735103.664,4443600.000,-138.07 
735103.664,4443550.000,-138.79 
735103.664,4443500.000,-139.71 
735103.664,4443450.000,-140.86 
735103.664,4443400.000,-141.91 
735103.664,4443350.000,-142.76 
735103.664,4443300.000,-143.32 
735103.664,4443250.000,-143.92 
735103.664,4443200.000,-144.3 
735103.664,4443150.000,-145.05 
735103.664,4443100.000,-145.75 
735103.664,4443050.000,-146.21 
735103.664,4443000.000,-146.81 
735103.664,4442950.000,-147.18 
735103.664,4442900.000,-147.46 
735103.664,4442850.000,-147.89 
735103.664,4442800.000,-148.21 
735103.664,4442750.000,-148.81 
735103.664,4442700.000,-149.21 
735103.664,4442650.000,-149.57 
735103.664,4442600.000,-150.21 
735103.664,4442550.000,-150.54 
735103.664,4442500.000,-150.95 
735103.664,4442450.000,-150.91 
735103.664,4442400.000,-150.91 
735103.664,4442350.000,-151.32 
735103.664,4442300.000,-152.76 
735103.664,4442250.000,-153.39 
735103.664,4442200.000,-154.01 
735103.664,4442150.000,-154.47 
735103.664,4442100.000,-155.12 
735103.664,4442050.000,-156.37 
735103.664,4442000.000,-157.46 
735103.664,4441950.000,-158.11 
735103.664,4441900.000,-157.79 
735103.664,4441850.000,-156.71 
735103.664,4441800.000,-156.62 
735103.664,4441750.000,-157.12 
735103.664,4441700.000,-158.31 
735103.664,4441650.000,-158.39 
735103.664,4441600.000,-158.95 
735103.664,4441550.000,-159.75 
735103.664,4441500.000,-160.19 
735103.664,4441450.000,-160.96 
735103.664,4441400.000,-161.99 
735103.664,4441350.000,-162.49 
735103.664,4441300.000,-163.05 
735103.664,4441250.000,-163.45 
735103.664,4441200.000,-164.25 
735103.664,4441150.000,-164.96 
735103.664,4441100.000,-165.68 
735103.664,4441050.000,-166.19 
735103.664,4441000.000,-166.83 
735103.664,4440950.000,-167.33 
735103.664,4440900.000,-167.89 
735103.664,4440850.000,-168.49 
735103.664,4440800.000,-168.87 
735103.664,4440750.000,-169.59 
735153.664,4455600.000,-46.54 
735153.664,4455550.000,-46 
735153.664,4455500.000,-46.06 
735153.664,4455450.000,-45.7 
735153.664,4455400.000,-45.61 
735153.664,4455350.000,-45.52 
735153.664,4455300.000,-45.93 
735153.664,4455250.000,-46.34 
735153.664,4455200.000,-46.6 
735153.664,4455150.000,-46.89 
735153.664,4455100.000,-46.71 
735153.664,4455050.000,-46.6 
735153.664,4454700.000,-47.13 
735153.664,4454650.000,-46.89 
735153.664,4454600.000,-46.8 
735153.664,4454550.000,-46.74 
735153.664,4454500.000,-46.7 
735153.664,4454450.000,-46.6 
735153.664,4454400.000,-46.6 
735153.664,4454350.000,-46.76 
735153.664,4454300.000,-46.66 
735153.664,4454250.000,-46.75 
735153.664,4454200.000,-46.74 
735153.664,4454150.000,-46.62 
735153.664,4454100.000,-46.5 
735153.664,4454050.000,-46.44 
735153.664,4454000.000,-46.3 
735153.664,4453950.000,-46.12 
735153.664,4453900.000,-46.26 
735153.664,4453850.000,-46.3 
735153.664,4453800.000,-46.3 
735153.664,4453750.000,-46.4 
735153.664,4453700.000,-46.65 
735153.664,4453650.000,-46.7 
735153.664,4453600.000,-46.7 
735153.664,4453550.000,-46.9 
735153.664,4453500.000,-46.9 
735153.664,4453450.000,-47 
735153.664,4453400.000,-47.26 
735153.664,4453350.000,-47.5 
735153.664,4453300.000,-47.51 
735153.664,4453250.000,-47.7 
735153.664,4453200.000,-47.59 
735153.664,4452750.000,-48.34 
735153.664,4452700.000,-48.2 
735153.664,4452650.000,-48.4 
735153.664,4452600.000,-48.5 
735153.664,4452550.000,-48.54 
735153.664,4452500.000,-48.38 
735153.664,4452450.000,-48.2 
735153.664,4452400.000,-48 
735153.664,4452350.000,-47.75 
735153.664,4452300.000,-47.5 
735153.664,4452250.000,-47.5 
735153.664,4452200.000,-47.3 
735153.664,4452150.000,-46.66 
735153.664,4451700.000,-45.7 
735153.664,4451650.000,-45.9 
735153.664,4451600.000,-46.27 
735153.664,4451550.000,-48.12 
735153.664,4451500.000,-49.65 
735153.664,4451450.000,-50.4 
735153.664,4451400.000,-50.85 
735153.664,4451350.000,-51.65 
735153.664,4451300.000,-52.11 
735153.664,4451250.000,-51.81 
735153.664,4451200.000,-51.56 
735153.664,4450950.000,-50.29 
735153.664,4450900.000,-50.3 
735153.664,4450850.000,-50.76 
735153.664,4450800.000,-50.96 
735153.664,4450750.000,-51.4 
735153.664,4450700.000,-51.5 
735153.664,4450650.000,-51.5 
735153.664,4450600.000,-51.74 
735153.664,4450550.000,-51.7 
735153.664,4450500.000,-51.6 
735153.664,4450450.000,-51.14 
735153.664,4450400.000,-51.71 
735153.664,4450350.000,-51.9 
735153.664,4450300.000,-52.95 
735153.664,4450250.000,-60.13 
735153.664,4450200.000,-70.95 
735153.664,4450150.000,-70.95 
735153.664,4450100.000,-71.29 
735153.664,4450050.000,-71.29 
735153.664,4450000.000,-70.35 
735153.664,4449950.000,-70.21 
735153.664,4449900.000,-70.55 
735153.664,4449850.000,-68.84 
735153.664,4449800.000,-66.77 
735153.664,4449750.000,-66.17 
735153.664,4449700.000,-66.73 
735153.664,4449650.000,-68.75 
735153.664,4449600.000,-71.88 
735153.664,4449550.000,-70.35 
735153.664,4449500.000,-68.92 
735153.664,4449450.000,-68.76 
735153.664,4449400.000,-69.5 
735153.664,4449350.000,-68.94 
735153.664,4449300.000,-67.43 
735153.664,4449250.000,-66.47 
735153.664,4449200.000,-66.61 
735153.664,4449150.000,-66.92 
735153.664,4449100.000,-68.31 
735153.664,4449050.000,-70.45 
735153.664,4449000.000,-71.34 
735153.664,4448950.000,-72.14 
735153.664,4448900.000,-73.86 
735153.664,4448850.000,-74.61 
735153.664,4448800.000,-74.32 
735153.664,4448750.000,-74.36 
735153.664,4448700.000,-75.36 
735153.664,4448650.000,-76.47 
735153.664,4448600.000,-76.76 
735153.664,4448550.000,-78.07 
735153.664,4448500.000,-79 
