496285.249,4427209.630,-521.620
496285.249,4427009.630,-508.768
496285.249,4426809.630,-506.283
496285.249,4426609.630,-503.799
496285.249,4426409.630,-506.100
496285.249,4426209.630,-514.738
496285.249,4426009.630,-523.691
496285.249,4425809.630,-531.491
496285.249,4425609.630,-537.521
496285.249,4425409.630,-541.275
496285.249,4425209.630,-542.829
496285.249,4425009.630,-547.881
496285.249,4424809.630,-563.379
496285.249,4424609.630,-590.391
496285.249,4424409.630,-613.427
496285.249,4424209.630,-621.638
496285.249,4424009.630,-627.425
496285.249,4423809.630,-634.062
496285.249,4423609.630,-641.521
496285.249,4423409.630,-649.303
496285.249,4423209.630,-656.408
496285.249,4423009.630,-662.318
496285.249,4422809.630,-667.788
496285.249,4422609.630,-673.685
496285.249,4422409.630,-679.222
496285.249,4422209.630,-684.122
496285.249,4422009.630,-689.070
496285.249,4421809.630,-693.888
496285.249,4421609.630,-698.438
496285.249,4421409.630,-702.723
496285.249,4421209.630,-706.103
496285.249,4421009.630,-711.045
496285.249,4420809.630,-719.314
496285.249,4420609.630,-725.557
496285.249,4420409.630,-727.994
496285.249,4420209.630,-729.556
496285.249,4420009.630,-731.314
496285.249,4419809.630,-733.254
496285.249,4419609.630,-735.026
496285.249,4419409.630,-736.616
496285.249,4419209.630,-737.641
496285.249,4419009.630,-738.348
496285.249,4418809.630,-739.251
496285.249,4418609.630,-739.881
496285.249,4418409.630,-740.234
496285.249,4418209.630,-741.627
496285.249,4418009.630,-743.068
496285.249,4417809.630,-742.995
496285.249,4417609.630,-741.704
496285.249,4417409.630,-737.971
496285.249,4417209.630,-732.988
496285.249,4417009.630,-731.598
496285.249,4416809.630,-731.905
496285.249,4416609.630,-730.321
496285.249,4416409.630,-724.576
496285.249,4416209.630,-718.592
496285.249,4416009.630,-722.481
496285.249,4415809.630,-731.600
496285.249,4415609.630,-735.017
496485.249,4428609.630,-503.282
496485.249,4428409.630,-506.750
496485.249,4428209.630,-512.094
496485.249,4428009.630,-518.286
496485.249,4427809.630,-522.429
496485.249,4427609.630,-525.832
496485.249,4427409.630,-528.688
496485.249,4427209.630,-522.464
496485.249,4427009.630,-511.525
496485.249,4426809.630,-507.228
496485.249,4426609.630,-502.930
496485.249,4426409.630,-503.846
496485.249,4426209.630,-511.913
496485.249,4426009.630,-520.990
496485.249,4425809.630,-530.016
496485.249,4425609.630,-537.378
496485.249,4425409.630,-539.641
496485.249,4425209.630,-539.327
496485.249,4425009.630,-548.102
496485.249,4424809.630,-570.807
496485.249,4424609.630,-596.797
496485.249,4424409.630,-611.513
496485.249,4424209.630,-617.647
496485.249,4424009.630,-625.367
496485.249,4423809.630,-632.987
496485.249,4423609.630,-640.666
496485.249,4423409.630,-648.266
496485.249,4423209.630,-655.535
496485.249,4423009.630,-661.448
496485.249,4422809.630,-666.925
496485.249,4422609.630,-673.354
496485.249,4422409.630,-679.352
496485.249,4422209.630,-684.657
496485.249,4422009.630,-689.977
496485.249,4421809.630,-695.409
496485.249,4421609.630,-700.560
496485.249,4421409.630,-705.756
496485.249,4421209.630,-711.141
496485.249,4421009.630,-716.887
496485.249,4420809.630,-722.374
496485.249,4420609.630,-726.007
496485.249,4420409.630,-727.745
496485.249,4420209.630,-728.659
496485.249,4420009.630,-730.147
496485.249,4419809.630,-731.840
496485.249,4419609.630,-733.826
496485.249,4419409.630,-735.591
496485.249,4419209.630,-736.590
496485.249,4419009.630,-737.108
496485.249,4418809.630,-737.604
496485.249,4418609.630,-738.669
496485.249,4418409.630,-739.903
496485.249,4418209.630,-741.248
496485.249,4418009.630,-742.157
496485.249,4417809.630,-742.284
496485.249,4417609.630,-741.015
496485.249,4417409.630,-735.374
496485.249,4417209.630,-730.125
496485.249,4417009.630,-730.954
496485.249,4416809.630,-731.365
496485.249,4416609.630,-726.077
496485.249,4416409.630,-717.644
496485.249,4416209.630,-714.639
496485.249,4416009.630,-722.961
496485.249,4415809.630,-736.120
496485.249,4415609.630,-739.692
496485.249,4415409.630,-737.150
496685.249,4428409.630,-503.772
496685.249,4428209.630,-509.495
496685.249,4428009.630,-515.818
496685.249,4427809.630,-519.648
496685.249,4427609.630,-523.370
496685.249,4427409.630,-526.364
496685.249,4427209.630,-521.228
496685.249,4427009.630,-511.869
496685.249,4426809.630,-509.325
496685.249,4426409.630,-503.562
496685.249,4426209.630,-509.024
496685.249,4426009.630,-520.609
496685.249,4425809.630,-531.678
496685.249,4425609.630,-535.167
496685.249,4425409.630,-531.326
496685.249,4425209.630,-534.339
496685.249,4425009.630,-555.138
496685.249,4424809.630,-580.910
496685.249,4424609.630,-598.468
496685.249,4424409.630,-605.391
496685.249,4424209.630,-611.990
496685.249,4424009.630,-622.026
496685.249,4423809.630,-631.364
496685.249,4423609.630,-640.342
496685.249,4423409.630,-648.888
496685.249,4423209.630,-656.203
496685.249,4423009.630,-661.818
496685.249,4422809.630,-667.191
496685.249,4422609.630,-673.233
496685.249,4422409.630,-679.316
496685.249,4422209.630,-685.032
496685.249,4422009.630,-690.861
496685.249,4421809.630,-696.558
496685.249,4421609.630,-701.884
496685.249,4421409.630,-707.381
496685.249,4421209.630,-713.221
496685.249,4421009.630,-718.779
496685.249,4420809.630,-722.703
496685.249,4420609.630,-724.729
496685.249,4420409.630,-726.211
496685.249,4420209.630,-727.587
496685.249,4420009.630,-729.124
496685.249,4419809.630,-730.526
496685.249,4419609.630,-732.265
496685.249,4419409.630,-733.760
496685.249,4419209.630,-734.691
496685.249,4419009.630,-735.275
496685.249,4418809.630,-735.857
496685.249,4418609.630,-737.277
496685.249,4418409.630,-739.078
496685.249,4418209.630,-740.374
496685.249,4418009.630,-741.019
496685.249,4417809.630,-740.868
496685.249,4417609.630,-736.082
496685.249,4417409.630,-728.171
496685.249,4417209.630,-726.876
496685.249,4417009.630,-730.160
496685.249,4416809.630,-727.743
496685.249,4416609.630,-720.034
496685.249,4416409.630,-714.010
496685.249,4416209.630,-713.042
496685.249,4416009.630,-717.912
496685.249,4415809.630,-723.707
496685.249,4415609.630,-733.402
496685.249,4415409.630,-740.349
496885.249,4428409.630,-502.855
496885.249,4428209.630,-507.987
496885.249,4428009.630,-513.060
496885.249,4427809.630,-516.934
496885.249,4427609.630,-521.043
496885.249,4427409.630,-524.112
496885.249,4427209.630,-520.412
496885.249,4427009.630,-513.206
496885.249,4426809.630,-510.605
496885.249,4426409.630,-503.552
496885.249,4426209.630,-509.806
496885.249,4426009.630,-524.753
496885.249,4425809.630,-526.479
496885.249,4425609.630,-517.448
496885.249,4425409.630,-518.488
496885.249,4425209.630,-539.832
496885.249,4425009.630,-568.131
496885.249,4424809.630,-583.872
496885.249,4424609.630,-592.781
496885.249,4424409.630,-600.134
496885.249,4424209.630,-609.011
496885.249,4424009.630,-620.249
496885.249,4423809.630,-629.936
496885.249,4423609.630,-639.106
496885.249,4423409.630,-647.962
496885.249,4423209.630,-655.608
496885.249,4423009.630,-661.826
496885.249,4422809.630,-667.446
496885.249,4422609.630,-673.336
496885.249,4422409.630,-679.633
496885.249,4422209.630,-685.720
496885.249,4422009.630,-691.880
496885.249,4421809.630,-697.875
496885.249,4421609.630,-703.384
496885.249,4421409.630,-708.857
496885.249,4421209.630,-714.396
496885.249,4421009.630,-719.453
496885.249,4420809.630,-722.503
496885.249,4420609.630,-723.916
496885.249,4420409.630,-725.438
496885.249,4420209.630,-726.829
496885.249,4420009.630,-728.257
496885.249,4419809.630,-729.821
496885.249,4419609.630,-731.579
496885.249,4419409.630,-732.914
496885.249,4419209.630,-733.605
496885.249,4419009.630,-734.008
496885.249,4418809.630,-734.539
496885.249,4418609.630,-735.863
496885.249,4418409.630,-737.655
496885.249,4418209.630,-738.066
496885.249,4418009.630,-738.283
496885.249,4417809.630,-736.093
496885.249,4417609.630,-727.560
496885.249,4417409.630,-722.884
496885.249,4417209.630,-725.898
496885.249,4417009.630,-727.972
496885.249,4416809.630,-724.940
496885.249,4416609.630,-717.931
496885.249,4416409.630,-711.528
496885.249,4416209.630,-706.500
496885.249,4416009.630,-703.994
496885.249,4415809.630,-703.360
496885.249,4415609.630,-724.572
496885.249,4415409.630,-747.629
497085.249,4428409.630,-502.102
497085.249,4428209.630,-505.578
497085.249,4428009.630,-510.130
497085.249,4427809.630,-514.230
497085.249,4427609.630,-518.097
497085.249,4427409.630,-520.898
497085.249,4427209.630,-518.471
497085.249,4427009.630,-513.078
497085.249,4426809.630,-511.530
497085.249,4426409.630,-504.615
497085.249,4426209.630,-513.392
497085.249,4426009.630,-521.390
497085.249,4425809.630,-514.122
497085.249,4425609.630,-510.356
497085.249,4425409.630,-520.723
497085.249,4425209.630,-549.151
497085.249,4425009.630,-570.080
497085.249,4424809.630,-579.386
497085.249,4424609.630,-588.664
497085.249,4424409.630,-598.096
497085.249,4424209.630,-608.342
497085.249,4424009.630,-620.060
497085.249,4423809.630,-630.104
497085.249,4423609.630,-639.157
497085.249,4423409.630,-647.578
497085.249,4423209.630,-655.119
497085.249,4423009.630,-661.205
497085.249,4422809.630,-666.982
497085.249,4422609.630,-673.452
497085.249,4422409.630,-680.095
497085.249,4422209.630,-686.405
497085.249,4422009.630,-692.719
497085.249,4421809.630,-698.717
497085.249,4421609.630,-704.231
497085.249,4421409.630,-709.508
497085.249,4421209.630,-714.347
497085.249,4421009.630,-718.624
497085.249,4420809.630,-721.729
497085.249,4420609.630,-723.683
497085.249,4420409.630,-725.303
497085.249,4420209.630,-726.691
497085.249,4420009.630,-728.216
497085.249,4419809.630,-729.702
497085.249,4419609.630,-730.979
497085.249,4419409.630,-732.028
497085.249,4419209.630,-732.797
497085.249,4419009.630,-733.528
497085.249,4418809.630,-734.224
497085.249,4418609.630,-734.988
497085.249,4418409.630,-735.817
497085.249,4418209.630,-735.366
497085.249,4418009.630,-734.364
497085.249,4417809.630,-730.129
497085.249,4417609.630,-722.727
497085.249,4417409.630,-721.789
497085.249,4417209.630,-724.436
497085.249,4417009.630,-721.244
497085.249,4416809.630,-713.281
497085.249,4416609.630,-705.325
497085.249,4416409.630,-696.814
497085.249,4416209.630,-687.804
497085.249,4416009.630,-680.419
497085.249,4415809.630,-674.532
497085.249,4415609.630,-670.542
497085.249,4415409.630,-706.406
497285.249,4428409.630,-501.470
497285.249,4428209.630,-503.375
497285.249,4428009.630,-507.007
497285.249,4427809.630,-511.388
497285.249,4427609.630,-514.975
497285.249,4427409.630,-517.987
497285.249,4427209.630,-516.585
497285.249,4427009.630,-512.833
497285.249,4426809.630,-511.921
497285.249,4426409.630,-509.591
497285.249,4426209.630,-514.073
497285.249,4426009.630,-518.877
497285.249,4425809.630,-518.184
497285.249,4425609.630,-522.308
497285.249,4425409.630,-535.123
497285.249,4425209.630,-553.934
497285.249,4425009.630,-567.138
497285.249,4424809.630,-576.797
497285.249,4424609.630,-587.739
497285.249,4424409.630,-597.999
497285.249,4424209.630,-608.845
497285.249,4424009.630,-620.422
497285.249,4423809.630,-630.097
497285.249,4423609.630,-639.117
497285.249,4423409.630,-647.762
497285.249,4423209.630,-655.440
497285.249,4423009.630,-661.394
497285.249,4422809.630,-666.859
497285.249,4422609.630,-673.498
497285.249,4422409.630,-680.333
497285.249,4422209.630,-686.613
497285.249,4422009.630,-693.034
497285.249,4421809.630,-699.255
497285.249,4421609.630,-704.842
497285.249,4421409.630,-709.777
497285.249,4421209.630,-714.065
497285.249,4421009.630,-717.858
497285.249,4420809.630,-720.616
497285.249,4420609.630,-722.516
497285.249,4420409.630,-724.270
497285.249,4420209.630,-725.719
497285.249,4420009.630,-727.405
497285.249,4419809.630,-729.238
497285.249,4419609.630,-730.529
497285.249,4419409.630,-731.530
497285.249,4419209.630,-732.403
497285.249,4419009.630,-733.228
497285.249,4418809.630,-734.062
497285.249,4418609.630,-734.516
497285.249,4418409.630,-734.347
497285.249,4418209.630,-732.701
497285.249,4418009.630,-730.024
497285.249,4417809.630,-725.031
497285.249,4417609.630,-719.547
497285.249,4417409.630,-718.357
497285.249,4417209.630,-715.591
497285.249,4417009.630,-705.875
497285.249,4416809.630,-693.353
497285.249,4416609.630,-682.240
497285.249,4416409.630,-671.659
497285.249,4416209.630,-662.107
497285.249,4416009.630,-654.029
497285.249,4415809.630,-645.614
497285.249,4415609.630,-637.659
497285.249,4415409.630,-646.542
497485.249,4428009.630,-505.474
497485.249,4427809.630,-509.534
497485.249,4427609.630,-512.875
497485.249,4427409.630,-515.683
497485.249,4427209.630,-514.738
497485.249,4427009.630,-511.821
497485.249,4426809.630,-511.777
497485.249,4426409.630,-511.462
497485.249,4426209.630,-514.712
497485.249,4426009.630,-516.204
497485.249,4425809.630,-517.349
497485.249,4425609.630,-527.010
497485.249,4425409.630,-542.920
497485.249,4425209.630,-555.327
497485.249,4425009.630,-568.234
497485.249,4424809.630,-579.329
497485.249,4424609.630,-589.270
497485.249,4424409.630,-598.004
497485.249,4424209.630,-607.299
497485.249,4424009.630,-618.292
497485.249,4423809.630,-628.663
497485.249,4423609.630,-637.882
497485.249,4423409.630,-646.387
497485.249,4423209.630,-654.125
497485.249,4423009.630,-660.341
497485.249,4422809.630,-666.035
497485.249,4422609.630,-672.328
497485.249,4422409.630,-679.214
497485.249,4422209.630,-686.023
497485.249,4422009.630,-692.978
497485.249,4421809.630,-699.399
497485.249,4421609.630,-704.800
497485.249,4421409.630,-709.563
497485.249,4421209.630,-714.182
497485.249,4421009.630,-717.448
497485.249,4420809.630,-719.140
497485.249,4420609.630,-720.618
497485.249,4420409.630,-721.567
497485.249,4420209.630,-722.586
497485.249,4420009.630,-724.834
497485.249,4419809.630,-727.507
497485.249,4419609.630,-729.019
497485.249,4419409.630,-730.240
497485.249,4419209.630,-731.417
497485.249,4419009.630,-732.181
497485.249,4418809.630,-733.057
497485.249,4418609.630,-733.244
497485.249,4418409.630,-732.142
497485.249,4418209.630,-728.916
497485.249,4418009.630,-723.414
497485.249,4417809.630,-717.316
497485.249,4417609.630,-712.892
497485.249,4417409.630,-707.996
497485.249,4417209.630,-699.510
497485.249,4417009.630,-688.735
497485.249,4416809.630,-676.161
497485.249,4416609.630,-662.324
497485.249,4416409.630,-648.059
497485.249,4416209.630,-636.248
497485.249,4416009.630,-627.366
497485.249,4415809.630,-619.150
497485.249,4415609.630,-612.530
497485.249,4415409.630,-650.069
497485.249,4415209.630,-704.830
497685.249,4428009.630,-505.518
497685.249,4427809.630,-508.973
497685.249,4427609.630,-511.258
497685.249,4427409.630,-513.178
497685.249,4427209.630,-512.247
497685.249,4427009.630,-510.062
497685.249,4426809.630,-509.486
497685.249,4426609.630,-508.791
497685.249,4426409.630,-510.521
497685.249,4426209.630,-513.561
497685.249,4425809.630,-522.154
497685.249,4425609.630,-534.453
497685.249,4425409.630,-546.082
497685.249,4425209.630,-556.842
497685.249,4425009.630,-568.343
497685.249,4424809.630,-578.514
497685.249,4424609.630,-588.148
497685.249,4424409.630,-597.099
497685.249,4424209.630,-606.296
497685.249,4424009.630,-617.386
497685.249,4423809.630,-627.346
497685.249,4423609.630,-635.451
497685.249,4423409.630,-644.073
497685.249,4423209.630,-652.433
497685.249,4423009.630,-658.711
497685.249,4422809.630,-664.638
497685.249,4422609.630,-671.348
497685.249,4422409.630,-678.533
497685.249,4422209.630,-685.332
497685.249,4422009.630,-691.984
497685.249,4421809.630,-698.219
497685.249,4421609.630,-703.684
497685.249,4421409.630,-708.505
497685.249,4421209.630,-712.791
497685.249,4421009.630,-715.865
497685.249,4420809.630,-717.395
497685.249,4420609.630,-718.365
497685.249,4420409.630,-718.951
497685.249,4420209.630,-720.208
497685.249,4420009.630,-722.827
497685.249,4419809.630,-725.301
497685.249,4419609.630,-726.670
497685.249,4419409.630,-727.774
497685.249,4419209.630,-729.191
497685.249,4419009.630,-730.532
497685.249,4418809.630,-730.641
497685.249,4418609.630,-728.755
497685.249,4418409.630,-723.738
497685.249,4418209.630,-716.453
497685.249,4418009.630,-710.657
497685.249,4417809.630,-706.214
497685.249,4417609.630,-701.094
497685.249,4417409.630,-692.250
497685.249,4417209.630,-681.281
497685.249,4417009.630,-671.112
497685.249,4416809.630,-659.316
497685.249,4416609.630,-646.093
497685.249,4416409.630,-632.675
497685.249,4416209.630,-619.631
497685.249,4416009.630,-609.714
497685.249,4415809.630,-601.146
497685.249,4415609.630,-590.184
497685.249,4415409.630,-583.096
497685.249,4415209.630,-665.224
497685.249,4415009.630,-770.330
497885.249,4428009.630,-504.021
497885.249,4427809.630,-507.259
497885.249,4427609.630,-509.061
497885.249,4427409.630,-509.582
497885.249,4427209.630,-508.279
497885.249,4427009.630,-505.563
497885.249,4426809.630,-502.723
497885.249,4426609.630,-502.418
497885.249,4426409.630,-506.120
497885.249,4426009.630,-516.081
497885.249,4425809.630,-524.795
497885.249,4425609.630,-538.377
497885.249,4425409.630,-545.920
497885.249,4425209.630,-553.805
497885.249,4425009.630,-565.149
497885.249,4424809.630,-575.591
497885.249,4424609.630,-585.577
497885.249,4424409.630,-595.474
497885.249,4424209.630,-605.393
497885.249,4424009.630,-615.640
497885.249,4423809.630,-624.754
497885.249,4423609.630,-633.777
497885.249,4423409.630,-643.007
497885.249,4423209.630,-651.114
497885.249,4423009.630,-657.671
497885.249,4422809.630,-663.886
497885.249,4422609.630,-670.547
497885.249,4422409.630,-677.400
497885.249,4422209.630,-684.002
497885.249,4422009.630,-690.327
497885.249,4421809.630,-696.555
497885.249,4421609.630,-702.212
497885.249,4421409.630,-706.720
497885.249,4421209.630,-709.481
497885.249,4421009.630,-711.556
497885.249,4420809.630,-713.657
497885.249,4420609.630,-715.079
497885.249,4420409.630,-716.188
497885.249,4420209.630,-718.173
497885.249,4420009.630,-720.916
497885.249,4419809.630,-722.660
497885.249,4419609.630,-724.012
497885.249,4419409.630,-725.259
497885.249,4419209.630,-726.194
497885.249,4419009.630,-725.529
497885.249,4418809.630,-720.843
497885.249,4418609.630,-714.476
497885.249,4418409.630,-708.049
497885.249,4418209.630,-702.241
497885.249,4418009.630,-698.682
497885.249,4417809.630,-693.833
497885.249,4417609.630,-684.720
497885.249,4417409.630,-673.055
497885.249,4417209.630,-662.092
497885.249,4417009.630,-652.833
497885.249,4416809.630,-643.875
497885.249,4416609.630,-633.404
497885.249,4416409.630,-618.928
497885.249,4416209.630,-599.786
497885.249,4416009.630,-583.598
497885.249,4415809.630,-572.858
497885.249,4415609.630,-563.635
497885.249,4415409.630,-559.699
497885.249,4415209.630,-645.987
497885.249,4415009.630,-758.561
498085.249,4427809.630,-504.662
498085.249,4427609.630,-506.045
498085.249,4427409.630,-505.867
498085.249,4427209.630,-503.770
498085.249,4427009.630,-501.321
498085.249,4426809.630,-501.261
498085.249,4426609.630,-501.402
498085.249,4426409.630,-501.742
498085.249,4426209.630,-507.576
498085.249,4426009.630,-519.731
498085.249,4425809.630,-530.880
498085.249,4425609.630,-540.357
498085.249,4425409.630,-546.810
498085.249,4425209.630,-553.444
498085.249,4425009.630,-562.848
498085.249,4424809.630,-573.234
498085.249,4424609.630,-583.807
498085.249,4424409.630,-593.982
498085.249,4424209.630,-603.584
498085.249,4424009.630,-613.822
498085.249,4423809.630,-623.983
498085.249,4423609.630,-633.005
498085.249,4423409.630,-641.546
498085.249,4423209.630,-649.508
498085.249,4423009.630,-656.024
498085.249,4422809.630,-661.923
498085.249,4422609.630,-668.704
498085.249,4422409.630,-675.737
498085.249,4422209.630,-682.406
498085.249,4422009.630,-688.854
498085.249,4421809.630,-695.049
498085.249,4421609.630,-700.575
498085.249,4421409.630,-704.508
498085.249,4421209.630,-706.980
498085.249,4421009.630,-709.460
498085.249,4420809.630,-711.471
498085.249,4420609.630,-712.644
498085.249,4420409.630,-714.146
498085.249,4420209.630,-716.286
498085.249,4420009.630,-718.685
498085.249,4419809.630,-720.381
498085.249,4419609.630,-721.551
498085.249,4419409.630,-721.932
498085.249,4419209.630,-719.218
498085.249,4419009.630,-713.733
498085.249,4418809.630,-705.870
498085.249,4418609.630,-698.078
498085.249,4418409.630,-693.603
498085.249,4418209.630,-689.088
498085.249,4418009.630,-683.784
498085.249,4417809.630,-677.463
498085.249,4417609.630,-666.219
498085.249,4417409.630,-653.997
498085.249,4417209.630,-646.007
498085.249,4417009.630,-638.838
498085.249,4416809.630,-627.749
498085.249,4416609.630,-613.620
498085.249,4416409.630,-597.511
498085.249,4416209.630,-577.760
498085.249,4416009.630,-558.037
498085.249,4415809.630,-545.885
498085.249,4415609.630,-541.376
498085.249,4415409.630,-536.324
498085.249,4415209.630,-569.375
498085.249,4415009.630,-674.469
498285.249,4427809.630,-504.450
498285.249,4427609.630,-505.514
498285.249,4427409.630,-504.420
498285.249,4427209.630,-503.053
498285.249,4427009.630,-501.347
498285.249,4426409.630,-502.232
498285.249,4426209.630,-507.486
498285.249,4426009.630,-518.923
498285.249,4425809.630,-529.523
498285.249,4425609.630,-538.423
498285.249,4425409.630,-546.781
498285.249,4425209.630,-555.740
498285.249,4425009.630,-564.658
498285.249,4424809.630,-574.045
498285.249,4424609.630,-585.025
498285.249,4424409.630,-595.504
498285.249,4424209.630,-604.611
498285.249,4424009.630,-614.364
498285.249,4423809.630,-623.912
498285.249,4423609.630,-632.075
498285.249,4423409.630,-640.353
498285.249,4423209.630,-647.844
498285.249,4423009.630,-654.336
498285.249,4422809.630,-661.178
498285.249,4422609.630,-668.166
498285.249,4422409.630,-675.183
498285.249,4422209.630,-681.878
498285.249,4422009.630,-687.652
498285.249,4421809.630,-693.083
498285.249,4421609.630,-698.293
498285.249,4421409.630,-702.749
498285.249,4421209.630,-706.175
498285.249,4421009.630,-708.536
498285.249,4420809.630,-710.116
498285.249,4420609.630,-711.168
498285.249,4420409.630,-712.969
498285.249,4420209.630,-715.139
498285.249,4420009.630,-717.005
498285.249,4419809.630,-717.921
498285.249,4419609.630,-717.111
498285.249,4419409.630,-713.385
498285.249,4419209.630,-707.074
498285.249,4419009.630,-699.876
498285.249,4418809.630,-692.374
498285.249,4418609.630,-684.873
498285.249,4418409.630,-679.267
498285.249,4418209.630,-672.356
498285.249,4418009.630,-662.996
498285.249,4417809.630,-656.093
498285.249,4417609.630,-648.402
498285.249,4417409.630,-640.589
498285.249,4417209.630,-631.328
498285.249,4417009.630,-617.234
498285.249,4416809.630,-602.137
498285.249,4416609.630,-585.874
498285.249,4416409.630,-569.530
498285.249,4416209.630,-551.495
498285.249,4416009.630,-531.985
498285.249,4415809.630,-521.581
498285.249,4415609.630,-518.713
498285.249,4415409.630,-511.534
498285.249,4415209.630,-502.203
498285.249,4415009.630,-623.524
498285.249,4414809.630,-789.470
498485.249,4428009.630,-501.174
498485.249,4427809.630,-502.585
498485.249,4427609.630,-504.961
498485.249,4427409.630,-504.340
498485.249,4427209.630,-502.458
498485.249,4427009.630,-502.095
498485.249,4426209.630,-504.560
498485.249,4426009.630,-511.590
498485.249,4425809.630,-521.733
498485.249,4425609.630,-531.792
498485.249,4425409.630,-541.663
498485.249,4425209.630,-551.378
498485.249,4425009.630,-561.254
498485.249,4424809.630,-571.148
498485.249,4424609.630,-581.742
498485.249,4424409.630,-592.315
498485.249,4424209.630,-602.174
498485.249,4424009.630,-613.000
498485.249,4423809.630,-623.183
498485.249,4423609.630,-631.387
498485.249,4423409.630,-639.672
498485.249,4423209.630,-647.562
498485.249,4423009.630,-654.389
498485.249,4422809.630,-660.491
498485.249,4422609.630,-667.037
498485.249,4422409.630,-673.914
498485.249,4422209.630,-680.236
498485.249,4422009.630,-685.787
498485.249,4421809.630,-690.752
498485.249,4421609.630,-695.826
498485.249,4421409.630,-701.592
498485.249,4421209.630,-705.999
498485.249,4421009.630,-707.958
498485.249,4420809.630,-709.041
498485.249,4420609.630,-710.390
498485.249,4420409.630,-712.095
498485.249,4420209.630,-713.533
498485.249,4420009.630,-713.877
498485.249,4419809.630,-711.864
498485.249,4419609.630,-707.941
498485.249,4419409.630,-702.186
498485.249,4419209.630,-694.871
498485.249,4419009.630,-687.882
498485.249,4418809.630,-680.472
498485.249,4418609.630,-671.791
498485.249,4418409.630,-663.740
498485.249,4418209.630,-655.729
498485.249,4418009.630,-647.060
498485.249,4417809.630,-641.500
498485.249,4417609.630,-636.566
498485.249,4417409.630,-628.867
498485.249,4417209.630,-615.521
498485.249,4417009.630,-594.456
498485.249,4416809.630,-573.262
498485.249,4416609.630,-554.358
498485.249,4416409.630,-537.854
498485.249,4416209.630,-523.650
498485.249,4416009.630,-512.158
498485.249,4415809.630,-503.414
498485.249,4415609.630,-494.134
498485.249,4415409.630,-483.660
498485.249,4415209.630,-472.048
498485.249,4415009.630,-554.821
498485.249,4414809.630,-720.338
498685.249,4427809.630,-501.723
498685.249,4427609.630,-502.939
498685.249,4427409.630,-503.402
498685.249,4427209.630,-502.828
498685.249,4426209.630,-502.993
498685.249,4426009.630,-508.175
498685.249,4425809.630,-519.150
498685.249,4425609.630,-530.057
498685.249,4425409.630,-540.622
498685.249,4425209.630,-550.864
498685.249,4425009.630,-561.156
498685.249,4424809.630,-571.279
498685.249,4424609.630,-581.677
498685.249,4424409.630,-593.253
498685.249,4424209.630,-604.702
498685.249,4424009.630,-615.175
498685.249,4423809.630,-624.403
498685.249,4423609.630,-631.586
498685.249,4423409.630,-639.242
498685.249,4423209.630,-646.779
498685.249,4423009.630,-653.067
498685.249,4422809.630,-658.812
498685.249,4422609.630,-665.046
498685.249,4422409.630,-671.383
498685.249,4422209.630,-677.004
498685.249,4422009.630,-681.938
498685.249,4421809.630,-686.385
498685.249,4421609.630,-692.278
498685.249,4421409.630,-698.159
498685.249,4421209.630,-702.858
498685.249,4421009.630,-706.758
498685.249,4420809.630,-708.406
498685.249,4420609.630,-709.414
498685.249,4420409.630,-709.523
498685.249,4420209.630,-708.763
498685.249,4420009.630,-706.634
498685.249,4419809.630,-703.151
498685.249,4419609.630,-697.569
498685.249,4419409.630,-690.129
498685.249,4419209.630,-682.960
498685.249,4419009.630,-675.626
498685.249,4418809.630,-665.901
498685.249,4418609.630,-656.054
498685.249,4418409.630,-648.155
498685.249,4418209.630,-641.349
498685.249,4418009.630,-633.839
498685.249,4417809.630,-624.916
498685.249,4417609.630,-617.667
498685.249,4417409.630,-610.595
498685.249,4417209.630,-597.801
498685.249,4417009.630,-575.513
498685.249,4416809.630,-554.698
498685.249,4416609.630,-541.374
498685.249,4416409.630,-528.801
498685.249,4416209.630,-514.665
498685.249,4416009.630,-500.412
498685.249,4415809.630,-482.726
498685.249,4415609.630,-463.959
498685.249,4415409.630,-443.842
498685.249,4415209.630,-418.511
498685.249,4415009.630,-467.568
498685.249,4414809.630,-592.774
498885.249,4426209.630,-503.201
498885.249,4426009.630,-507.948
498885.249,4425809.630,-518.852
498885.249,4425609.630,-530.130
498885.249,4425409.630,-541.302
498885.249,4425209.630,-552.269
498885.249,4425009.630,-563.227
498885.249,4424809.630,-574.423
498885.249,4424609.630,-586.590
498885.249,4424409.630,-597.946
498885.249,4424209.630,-607.137
498885.249,4424009.630,-616.216
498885.249,4423809.630,-625.315
498885.249,4423609.630,-632.755
498885.249,4423409.630,-639.164
498885.249,4423209.630,-645.291
498885.249,4423009.630,-651.327
498885.249,4422809.630,-657.076
498885.249,4422609.630,-663.185
498885.249,4422409.630,-669.079
498885.249,4422209.630,-674.569
498885.249,4422009.630,-680.414
498885.249,4421809.630,-686.202
498885.249,4421609.630,-691.431
498885.249,4421409.630,-696.033
498885.249,4421209.630,-700.266
498885.249,4421009.630,-703.977
498885.249,4420809.630,-706.147
498885.249,4420609.630,-706.369
498885.249,4420409.630,-705.235
498885.249,4420209.630,-702.823
498885.249,4420009.630,-698.597
498885.249,4419809.630,-693.571
498885.249,4419609.630,-687.050
498885.249,4419409.630,-679.007
498885.249,4419209.630,-670.068
498885.249,4419009.630,-661.003
498885.249,4418809.630,-650.728
498885.249,4418609.630,-641.294
498885.249,4418409.630,-633.812
498885.249,4418209.630,-625.721
498885.249,4418009.630,-618.486
498885.249,4417809.630,-611.772
498885.249,4417609.630,-603.599
498885.249,4417409.630,-595.072
498885.249,4417209.630,-584.129
498885.249,4417009.630,-566.297
498885.249,4416809.630,-546.297
498885.249,4416609.630,-531.005
498885.249,4416409.630,-512.051
498885.249,4416209.630,-487.727
498885.249,4416009.630,-467.762
498885.249,4415809.630,-444.082
498885.249,4415609.630,-418.099
498885.249,4415409.630,-391.249
498885.249,4415209.630,-358.840
498885.249,4415009.630,-339.875
498885.249,4414809.630,-497.858
498885.249,4414609.630,-702.630
499085.249,4426209.630,-505.215
499085.249,4426009.630,-508.510
499085.249,4425809.630,-519.254
499085.249,4425609.630,-531.700
499085.249,4425409.630,-544.086
499085.249,4425209.630,-555.456
499085.249,4425009.630,-566.706
499085.249,4424809.630,-578.001
499085.249,4424609.630,-589.007
499085.249,4424409.630,-599.150
499085.249,4424209.630,-608.399
499085.249,4424009.630,-617.292
499085.249,4423809.630,-625.445
499085.249,4423609.630,-632.223
499085.249,4423409.630,-638.624
499085.249,4423209.630,-644.769
499085.249,4423009.630,-650.256
499085.249,4422809.630,-654.853
499085.249,4422609.630,-660.071
499085.249,4422409.630,-666.471
499085.249,4422209.630,-673.091
499085.249,4422009.630,-679.247
499085.249,4421809.630,-684.658
499085.249,4421609.630,-689.458
499085.249,4421409.630,-693.508
499085.249,4421209.630,-696.904
499085.249,4421009.630,-700.080
499085.249,4420809.630,-702.061
499085.249,4420609.630,-702.083
499085.249,4420409.630,-700.768
499085.249,4420209.630,-697.039
499085.249,4420009.630,-691.055
499085.249,4419809.630,-685.070
499085.249,4419609.630,-678.257
499085.249,4419409.630,-669.277
499085.249,4419209.630,-658.663
499085.249,4419009.630,-648.422
499085.249,4418809.630,-641.918
499085.249,4418609.630,-639.154
499085.249,4418409.630,-632.723
499085.249,4418209.630,-621.179
499085.249,4418009.630,-610.562
499085.249,4417809.630,-599.499
499085.249,4417609.630,-586.811
499085.249,4417409.630,-575.432
499085.249,4417209.630,-565.850
499085.249,4417009.630,-554.208
499085.249,4416809.630,-530.927
499085.249,4416609.630,-496.889
499085.249,4416409.630,-468.038
499085.249,4416209.630,-441.879
499085.249,4416009.630,-417.495
499085.249,4415809.630,-393.407
499085.249,4415609.630,-357.428
499085.249,4415409.630,-328.618
499085.249,4415209.630,-312.891
499085.249,4415009.630,-306.847
499085.249,4414809.630,-422.113
499085.249,4414609.630,-622.851
499285.249,4426209.630,-511.364
499285.249,4426009.630,-516.264
499285.249,4425809.630,-527.402
499285.249,4425609.630,-539.688
499285.249,4425409.630,-550.407
499285.249,4425209.630,-559.470
499285.249,4425009.630,-568.866
499285.249,4424809.630,-579.480
499285.249,4424609.630,-590.342
499285.249,4424409.630,-600.285
499285.249,4424209.630,-608.267
499285.249,4424009.630,-615.674
499285.249,4423809.630,-624.095
499285.249,4423609.630,-631.369
499285.249,4423409.630,-636.634
499285.249,4423209.630,-641.910
499285.249,4423009.630,-648.276
499285.249,4422809.630,-654.345
499285.249,4422609.630,-660.130
499285.249,4422409.630,-666.204
499285.249,4422209.630,-671.748
499285.249,4422009.630,-676.575
499285.249,4421809.630,-681.242
499285.249,4421609.630,-686.034
499285.249,4421409.630,-690.301
499285.249,4421209.630,-693.743
499285.249,4421009.630,-697.041
499285.249,4420809.630,-697.507
499285.249,4420609.630,-696.219
499285.249,4420409.630,-694.873
499285.249,4420209.630,-691.420
499285.249,4420009.630,-685.380
499285.249,4419809.630,-677.558
499285.249,4419609.630,-668.474
499285.249,4419409.630,-658.991
499285.249,4419209.630,-651.430
499285.249,4419009.630,-647.744
499285.249,4418809.630,-645.514
499285.249,4418609.630,-639.976
499285.249,4418409.630,-631.830
499285.249,4418209.630,-620.712
499285.249,4418009.630,-604.792
499285.249,4417809.630,-586.109
499285.249,4417609.630,-568.965
499285.249,4417409.630,-556.015
499285.249,4417209.630,-548.368
499285.249,4417009.630,-537.823
499285.249,4416809.630,-512.543
499285.249,4416609.630,-468.164
499285.249,4416409.630,-414.592
499285.249,4416209.630,-370.855
499285.249,4416009.630,-340.849
499285.249,4415809.630,-319.305
499285.249,4415609.630,-294.215
499285.249,4415409.630,-280.732
499285.249,4415209.630,-281.715
499285.249,4415009.630,-274.144
499285.249,4414809.630,-342.588
499285.249,4414609.630,-483.466
499485.249,4426209.630,-510.328
499485.249,4426009.630,-518.147
499485.249,4425809.630,-528.469
499485.249,4425609.630,-538.195
499485.249,4425409.630,-547.690
499485.249,4425209.630,-555.357
499485.249,4425009.630,-563.833
499485.249,4424809.630,-574.471
499485.249,4424609.630,-586.491
499485.249,4424409.630,-597.193
499485.249,4424209.630,-605.070
499485.249,4424009.630,-613.158
499485.249,4423809.630,-621.458
499485.249,4423609.630,-628.440
499485.249,4423409.630,-634.435
499485.249,4423209.630,-640.842
499485.249,4423009.630,-647.486
499485.249,4422809.630,-654.030
499485.249,4422609.630,-659.896
499485.249,4422409.630,-665.083
499485.249,4422209.630,-670.156
499485.249,4422009.630,-674.689
499485.249,4421809.630,-679.175
499485.249,4421609.630,-683.928
499485.249,4421409.630,-687.807
499485.249,4421209.630,-690.746
499485.249,4421009.630,-692.384
499485.249,4420809.630,-691.355
499485.249,4420609.630,-690.349
499485.249,4420409.630,-689.488
499485.249,4420209.630,-684.924
499485.249,4420009.630,-676.415
499485.249,4419809.630,-667.554
499485.249,4419609.630,-661.584
499485.249,4419409.630,-658.571
499485.249,4419209.630,-656.105
499485.249,4419009.630,-651.784
499485.249,4418809.630,-642.540
499485.249,4418609.630,-630.669
499485.249,4418409.630,-624.348
499485.249,4418209.630,-619.346
499485.249,4418009.630,-607.594
499485.249,4417809.630,-585.875
499485.249,4417609.630,-563.344
499485.249,4417409.630,-550.286
499485.249,4417209.630,-537.535
499485.249,4417009.630,-517.091
499485.249,4416809.630,-482.451
499485.249,4416609.630,-441.167
499485.249,4416409.630,-388.530
499485.249,4416209.630,-321.489
499485.249,4416009.630,-272.319
499485.249,4415809.630,-257.952
499485.249,4415609.630,-254.395
499485.249,4415409.630,-253.804
499485.249,4415209.630,-260.024
499485.249,4415009.630,-260.488
499485.249,4414809.630,-291.624
499485.249,4414609.630,-373.660
499685.249,4426209.630,-506.753
499685.249,4426009.630,-512.677
499685.249,4425809.630,-524.842
499685.249,4425609.630,-535.463
499685.249,4425409.630,-545.063
499685.249,4425209.630,-554.764
499685.249,4425009.630,-564.774
499685.249,4424809.630,-575.559
499685.249,4424609.630,-586.313
499685.249,4424409.630,-595.446
499685.249,4424209.630,-603.115
499685.249,4424009.630,-610.822
499685.249,4423809.630,-619.103
499685.249,4423609.630,-626.775
499685.249,4423409.630,-633.966
499685.249,4423209.630,-641.192
499685.249,4423009.630,-647.950
499685.249,4422809.630,-654.311
499685.249,4422609.630,-660.007
499685.249,4422409.630,-664.635
499685.249,4422209.630,-668.851
499685.249,4422009.630,-673.204
499685.249,4421809.630,-677.427
499685.249,4421609.630,-681.711
499685.249,4421409.630,-685.026
499685.249,4421209.630,-686.954
499685.249,4421009.630,-687.378
499685.249,4420809.630,-686.312
499685.249,4420609.630,-685.011
499685.249,4420409.630,-681.341
499685.249,4420209.630,-674.945
499685.249,4420009.630,-668.750
499685.249,4419809.630,-664.724
499685.249,4419609.630,-662.299
499685.249,4419409.630,-659.836
499685.249,4419209.630,-655.277
499685.249,4419009.630,-644.983
499685.249,4418809.630,-630.885
499685.249,4418609.630,-617.908
499685.249,4418409.630,-610.878
499685.249,4418209.630,-606.835
499685.249,4418009.630,-591.617
499685.249,4417809.630,-570.710
499685.249,4417609.630,-553.645
499685.249,4417409.630,-534.531
499685.249,4417209.630,-514.160
499685.249,4417009.630,-491.917
499685.249,4416809.630,-458.492
499685.249,4416609.630,-412.469
499685.249,4416409.630,-356.311
499685.249,4416209.630,-296.911
499685.249,4416009.630,-256.954
499685.249,4415809.630,-246.679
499685.249,4415609.630,-248.605
499685.249,4415409.630,-251.856
499685.249,4415209.630,-253.179
499685.249,4415009.630,-252.459
499685.249,4414809.630,-273.246
499685.249,4414609.630,-310.669
499885.249,4426009.630,-508.879
499885.249,4425809.630,-516.844
499885.249,4425609.630,-529.719
499885.249,4425409.630,-541.693
499885.249,4425209.630,-552.647
499885.249,4425009.630,-562.949
499885.249,4424809.630,-573.746
499885.249,4424609.630,-584.288
499885.249,4424409.630,-593.355
499885.249,4424209.630,-600.979
499885.249,4424009.630,-608.757
499885.249,4423809.630,-618.005
499885.249,4423609.630,-626.764
499885.249,4423409.630,-634.352
499885.249,4423209.630,-641.915
499885.249,4423009.630,-648.674
499885.249,4422809.630,-654.409
499885.249,4422609.630,-659.200
499885.249,4422409.630,-663.056
499885.249,4422209.630,-667.175
499885.249,4422009.630,-671.442
499885.249,4421809.630,-675.638
499885.249,4421609.630,-679.266
499885.249,4421409.630,-681.211
499885.249,4421209.630,-682.204
499885.249,4421009.630,-682.440
499885.249,4420809.630,-680.755
499885.249,4420609.630,-677.788
499885.249,4420409.630,-674.095
499885.249,4420209.630,-670.655
499885.249,4420009.630,-666.879
499885.249,4419809.630,-664.093
499885.249,4419609.630,-662.386
499885.249,4419409.630,-656.514
499885.249,4419209.630,-645.773
499885.249,4419009.630,-632.598
499885.249,4418809.630,-617.837
499885.249,4418609.630,-602.713
499885.249,4418409.630,-588.887
499885.249,4418209.630,-579.745
499885.249,4418009.630,-569.441
499885.249,4417809.630,-554.454
499885.249,4417609.630,-539.167
499885.249,4417409.630,-519.800
499885.249,4417209.630,-497.761
499885.249,4417009.630,-475.215
499885.249,4416809.630,-450.678
499885.249,4416609.630,-411.959
499885.249,4416409.630,-353.165
499885.249,4416209.630,-295.400
499885.249,4416009.630,-256.542
499885.249,4415809.630,-241.553
499885.249,4415609.630,-245.610
499885.249,4415409.630,-255.342
499885.249,4415209.630,-263.934
499885.249,4415009.630,-272.529
499885.249,4414809.630,-284.349
499885.249,4414609.630,-324.407
499885.249,4414409.630,-369.200
500085.249,4425809.630,-511.140
500085.249,4425609.630,-524.418
500085.249,4425409.630,-538.275
500085.249,4425209.630,-549.563
500085.249,4425009.630,-559.552
500085.249,4424809.630,-569.506
500085.249,4424609.630,-580.282
500085.249,4424409.630,-590.752
500085.249,4424209.630,-600.086
500085.249,4424009.630,-609.436
500085.249,4423809.630,-619.613
500085.249,4423609.630,-628.854
500085.249,4423409.630,-635.766
500085.249,4423209.630,-641.469
500085.249,4423009.630,-646.338
500085.249,4422809.630,-650.939
500085.249,4422609.630,-655.641
500085.249,4422409.630,-660.336
500085.249,4422209.630,-664.861
500085.249,4422009.630,-669.024
500085.249,4421809.630,-672.576
500085.249,4421609.630,-675.399
500085.249,4421409.630,-677.327
500085.249,4421209.630,-677.945
500085.249,4421009.630,-677.208
500085.249,4420809.630,-676.075
500085.249,4420609.630,-674.957
500085.249,4420409.630,-674.137
500085.249,4420209.630,-672.474
500085.249,4420009.630,-669.881
500085.249,4419809.630,-668.400
500085.249,4419609.630,-666.030
500085.249,4419409.630,-657.791
500085.249,4419209.630,-644.037
500085.249,4419009.630,-627.769
500085.249,4418809.630,-610.173
500085.249,4418609.630,-592.236
500085.249,4418409.630,-574.708
500085.249,4418209.630,-557.931
500085.249,4418009.630,-543.870
500085.249,4417809.630,-534.773
500085.249,4417609.630,-522.894
500085.249,4417409.630,-502.459
500085.249,4417209.630,-479.529
500085.249,4417009.630,-456.416
500085.249,4416809.630,-432.005
500085.249,4416609.630,-399.140
500085.249,4416409.630,-350.517
500085.249,4416209.630,-300.982
500085.249,4416009.630,-265.255
500085.249,4415809.630,-247.043
500085.249,4415609.630,-248.234
500085.249,4415409.630,-257.262
500085.249,4415209.630,-267.439
500085.249,4415009.630,-277.555
500085.249,4414809.630,-292.779
500085.249,4414609.630,-315.815
500085.249,4414409.630,-397.183
500285.249,4425609.630,-520.293
500285.249,4425409.630,-534.435
500285.249,4425209.630,-547.028
500285.249,4425009.630,-557.880
500285.249,4424809.630,-568.262
500285.249,4424609.630,-579.323
500285.249,4424409.630,-591.692
500285.249,4424209.630,-603.428
500285.249,4424009.630,-612.500
500285.249,4423809.630,-620.948
500285.249,4423609.630,-628.900
500285.249,4423409.630,-634.588
500285.249,4423209.630,-639.266
500285.249,4423009.630,-643.205
500285.249,4422809.630,-647.501
500285.249,4422609.630,-652.974
500285.249,4422409.630,-658.459
500285.249,4422209.630,-662.779
500285.249,4422009.630,-666.070
500285.249,4421809.630,-668.812
500285.249,4421609.630,-670.896
500285.249,4421409.630,-672.915
500285.249,4421209.630,-674.780
500285.249,4421009.630,-676.134
500285.249,4420809.630,-676.684
500285.249,4420609.630,-676.288
500285.249,4420409.630,-675.754
500285.249,4420209.630,-674.295
500285.249,4420009.630,-672.568
500285.249,4419809.630,-671.332
500285.249,4419609.630,-666.465
500285.249,4419409.630,-654.240
500285.249,4419209.630,-638.418
500285.249,4419009.630,-622.727
500285.249,4418809.630,-606.587
500285.249,4418609.630,-590.914
500285.249,4418409.630,-576.402
500285.249,4418209.630,-562.335
500285.249,4418009.630,-548.478
500285.249,4417809.630,-536.110
500285.249,4417609.630,-523.061
500285.249,4417409.630,-502.351
500285.249,4417209.630,-481.842
500285.249,4417009.630,-462.997
500285.249,4416809.630,-433.705
500285.249,4416609.630,-392.757
500285.249,4416409.630,-345.607
500285.249,4416209.630,-305.859
500285.249,4416009.630,-273.605
500285.249,4415809.630,-257.271
500285.249,4415609.630,-257.559
500285.249,4415409.630,-261.620
500285.249,4415209.630,-270.615
500285.249,4415009.630,-281.784
500285.249,4414809.630,-301.082
500285.249,4414609.630,-327.945
500285.249,4414409.630,-376.608
500485.249,4425609.630,-513.139
500485.249,4425409.630,-529.604
500485.249,4425209.630,-544.633
500485.249,4425009.630,-558.369
500485.249,4424809.630,-571.476
500485.249,4424609.630,-584.526
500485.249,4424409.630,-596.770
500485.249,4424209.630,-606.626
500485.249,4424009.630,-613.609
500485.249,4423809.630,-620.815
500485.249,4423609.630,-627.843
500485.249,4423409.630,-632.757
500485.249,4423209.630,-636.883
500485.249,4423009.630,-641.097
500485.249,4422809.630,-645.974
500485.249,4422609.630,-651.846
500485.249,4422409.630,-657.421
500485.249,4422209.630,-661.748
500485.249,4422009.630,-665.275
500485.249,4421809.630,-668.310
500485.249,4421609.630,-671.369
500485.249,4421409.630,-673.977
500485.249,4421209.630,-675.493
500485.249,4421009.630,-676.175
500485.249,4420809.630,-676.033
500485.249,4420609.630,-675.776
500485.249,4420409.630,-675.242
500485.249,4420209.630,-673.774
500485.249,4420009.630,-672.855
500485.249,4419809.630,-671.523
500485.249,4419609.630,-663.933
500485.249,4419409.630,-652.371
500485.249,4419209.630,-644.652
500485.249,4419009.630,-638.889
500485.249,4418809.630,-632.939
500485.249,4418609.630,-626.720
500485.249,4418409.630,-616.591
500485.249,4418209.630,-601.778
500485.249,4418009.630,-585.586
500485.249,4417809.630,-570.376
500485.249,4417609.630,-552.024
500485.249,4417409.630,-523.424
500485.249,4417209.630,-494.593
500485.249,4417009.630,-465.875
500485.249,4416809.630,-428.527
500485.249,4416609.630,-386.941
500485.249,4416409.630,-344.274
500485.249,4416209.630,-309.305
500485.249,4416009.630,-280.072
500485.249,4415809.630,-264.068
500485.249,4415609.630,-265.658
500485.249,4415409.630,-269.725
500485.249,4415209.630,-275.974
500485.249,4415009.630,-287.053
500485.249,4414809.630,-311.387
500485.249,4414609.630,-354.325
500485.249,4414409.630,-405.300
500685.249,4425609.630,-513.380
500685.249,4425409.630,-534.348
500685.249,4425209.630,-551.159
500685.249,4425009.630,-564.066
500685.249,4424809.630,-576.963
500685.249,4424609.630,-589.507
500685.249,4424409.630,-599.061
500685.249,4424209.630,-606.625
500685.249,4424009.630,-612.624
500685.249,4423809.630,-618.963
500685.249,4423609.630,-625.768
500685.249,4423409.630,-630.820
500685.249,4423209.630,-635.510
500685.249,4423009.630,-640.780
500685.249,4422809.630,-646.343
500685.249,4422609.630,-652.445
500685.249,4422409.630,-659.017
500685.249,4422209.630,-664.245
500685.249,4422009.630,-668.406
500685.249,4421809.630,-671.763
500685.249,4421609.630,-673.736
500685.249,4421409.630,-674.828
500685.249,4421209.630,-675.189
500685.249,4421009.630,-675.270
500685.249,4420809.630,-675.348
500685.249,4420609.630,-675.472
500685.249,4420409.630,-675.414
500685.249,4420209.630,-674.866
500685.249,4420009.630,-673.274
500685.249,4419809.630,-670.249
500685.249,4419609.630,-665.964
500685.249,4419409.630,-662.004
500685.249,4419209.630,-658.856
500685.249,4419009.630,-654.088
500685.249,4418809.630,-646.452
500685.249,4418609.630,-636.637
500685.249,4418409.630,-622.945
500685.249,4418209.630,-604.842
500685.249,4418009.630,-582.947
500685.249,4417809.630,-556.443
500685.249,4417609.630,-529.403
500685.249,4417409.630,-497.377
500685.249,4417209.630,-462.186
500685.249,4417009.630,-433.107
500685.249,4416809.630,-407.098
500685.249,4416609.630,-376.379
500685.249,4416409.630,-341.429
500685.249,4416209.630,-312.676
500685.249,4416009.630,-293.663
500685.249,4415809.630,-280.928
500685.249,4415609.630,-276.765
500685.249,4415409.630,-277.731
500685.249,4415209.630,-290.261
500685.249,4415009.630,-316.456
500685.249,4414809.630,-351.170
500685.249,4414609.630,-392.933
500685.249,4414409.630,-430.927
500885.249,4425609.630,-519.440
500885.249,4425409.630,-540.828
500885.249,4425209.630,-556.512
500885.249,4425009.630,-568.951
500885.249,4424809.630,-580.315
500885.249,4424609.630,-590.297
500885.249,4424409.630,-598.330
500885.249,4424209.630,-605.002
500885.249,4424009.630,-611.335
500885.249,4423809.630,-618.621
500885.249,4423609.630,-625.892
500885.249,4423409.630,-631.027
500885.249,4423209.630,-635.890
500885.249,4423009.630,-641.557
500885.249,4422809.630,-647.834
500885.249,4422609.630,-654.380
500885.249,4422409.630,-661.089
500885.249,4422209.630,-666.537
500885.249,4422009.630,-670.242
500885.249,4421809.630,-672.461
500885.249,4421609.630,-673.180
500885.249,4421409.630,-673.752
500885.249,4421209.630,-674.432
500885.249,4421009.630,-675.076
500885.249,4420809.630,-675.404
500885.249,4420609.630,-675.522
500885.249,4420409.630,-675.546
500885.249,4420209.630,-675.167
500885.249,4420009.630,-673.136
500885.249,4419809.630,-669.579
500885.249,4419609.630,-666.618
500885.249,4419409.630,-663.844
500885.249,4419209.630,-658.659
500885.249,4419009.630,-649.733
500885.249,4418809.630,-636.819
500885.249,4418609.630,-621.258
