473085.249,4419809.630,-1185.087
473085.249,4419609.630,-1170.967
473085.249,4419409.630,-1173.063
473085.249,4419209.630,-1177.766
473085.249,4419009.630,-1181.446
473085.249,4418809.630,-1182.484
473085.249,4418609.630,-1184.685
473085.249,4418409.630,-1181.074
473085.249,4418209.630,-1174.687
473085.249,4418009.630,-1169.278
473085.249,4417809.630,-1172.220
473085.249,4417609.630,-1177.087
473085.249,4417409.630,-1180.757
473085.249,4417209.630,-1182.390
473085.249,4417009.630,-1183.089
473085.249,4416809.630,-1178.319
473085.249,4416609.630,-1170.884
473085.249,4416409.630,-1153.440
473085.249,4416209.630,-1138.331
473085.249,4416009.630,-1135.109
473085.249,4415809.630,-1140.351
473085.249,4415609.630,-1155.268
473085.249,4415409.630,-1171.365
473085.249,4415209.630,-1183.516
473085.249,4415009.630,-1195.362
473085.249,4414809.630,-1209.879
473085.249,4414609.630,-1223.969
473085.249,4414409.630,-1235.853
473285.249,4433009.630,-657.983
473285.249,4432809.630,-676.010
473285.249,4432609.630,-699.333
473285.249,4432409.630,-735.691
473285.249,4432209.630,-774.923
473285.249,4432009.630,-812.218
473285.249,4431809.630,-829.387
473285.249,4431609.630,-839.801
473285.249,4431409.630,-854.092
473285.249,4431209.630,-866.211
473285.249,4431009.630,-874.388
473285.249,4430809.630,-879.950
473285.249,4430609.630,-885.816
473285.249,4430409.630,-891.788
473285.249,4430209.630,-898.668
473285.249,4430009.630,-902.385
473285.249,4429809.630,-905.094
473285.249,4429609.630,-908.368
473285.249,4429409.630,-911.418
473285.249,4429209.630,-914.112
473285.249,4429009.630,-916.198
473285.249,4428809.630,-916.383
473285.249,4428609.630,-915.550
473285.249,4428409.630,-899.220
473285.249,4428209.630,-887.114
473285.249,4428009.630,-886.391
473285.249,4427809.630,-904.237
473285.249,4427609.630,-939.964
473285.249,4427409.630,-962.963
473285.249,4427209.630,-983.763
473285.249,4427009.630,-1008.198
473285.249,4426809.630,-1030.449
473285.249,4426609.630,-1045.426
473285.249,4426409.630,-1054.243
473285.249,4426209.630,-1060.753
473285.249,4426009.630,-1072.725
473285.249,4425809.630,-1077.141
473285.249,4425609.630,-1081.174
473285.249,4425409.630,-1084.615
473285.249,4425209.630,-1089.192
473285.249,4425009.630,-1094.455
473285.249,4424809.630,-1095.176
473285.249,4424609.630,-1097.284
473285.249,4424409.630,-1103.060
473285.249,4424209.630,-1113.885
473285.249,4424009.630,-1118.713
473285.249,4423809.630,-1120.617
473285.249,4423609.630,-1124.800
473285.249,4423409.630,-1127.452
473285.249,4423209.630,-1131.794
473285.249,4423009.630,-1132.392
473285.249,4422809.630,-1134.438
473285.249,4422609.630,-1136.084
473285.249,4422409.630,-1138.077
473285.249,4422209.630,-1140.825
473285.249,4422009.630,-1149.137
473285.249,4421809.630,-1156.490
473285.249,4421609.630,-1161.800
473285.249,4421409.630,-1163.550
473285.249,4421209.630,-1165.485
473285.249,4421009.630,-1168.863
473285.249,4420809.630,-1168.749
473285.249,4420609.630,-1170.086
473285.249,4420409.630,-1170.255
473285.249,4420209.630,-1174.958
473285.249,4420009.630,-1169.736
473285.249,4419809.630,-1159.571
473285.249,4419609.630,-1155.345
473285.249,4419409.630,-1153.896
473285.249,4419209.630,-1154.356
473285.249,4419009.630,-1165.488
473285.249,4418809.630,-1168.266
473285.249,4418609.630,-1167.076
473285.249,4418409.630,-1164.787
473285.249,4418209.630,-1162.615
473285.249,4418009.630,-1163.099
473285.249,4417809.630,-1167.381
473285.249,4417609.630,-1172.477
473285.249,4417409.630,-1175.297
473285.249,4417209.630,-1168.832
473285.249,4417009.630,-1161.614
473285.249,4416809.630,-1157.048
473285.249,4416609.630,-1136.954
473285.249,4416409.630,-1126.930
473285.249,4416209.630,-1127.570
473285.249,4416009.630,-1134.888
473285.249,4415809.630,-1146.335
473285.249,4415609.630,-1158.047
473285.249,4415409.630,-1174.564
473285.249,4415209.630,-1187.856
473285.249,4415009.630,-1201.947
473285.249,4414809.630,-1213.730
473285.249,4414609.630,-1226.255
473285.249,4414409.630,-1237.595
473485.249,4433009.630,-619.130
473485.249,4432809.630,-642.354
473485.249,4432609.630,-670.690
473485.249,4432409.630,-704.384
473485.249,4432209.630,-754.702
473485.249,4432009.630,-804.784
473485.249,4431809.630,-829.695
473485.249,4431609.630,-838.667
473485.249,4431409.630,-847.354
473485.249,4431209.630,-858.032
473485.249,4431009.630,-865.511
473485.249,4430809.630,-873.768
473485.249,4430609.630,-880.209
473485.249,4430409.630,-890.081
473485.249,4430209.630,-898.869
473485.249,4430009.630,-901.422
473485.249,4429809.630,-903.542
473485.249,4429609.630,-907.030
473485.249,4429409.630,-909.502
473485.249,4429209.630,-912.579
473485.249,4429009.630,-914.038
473485.249,4428809.630,-914.883
473485.249,4428609.630,-901.135
473485.249,4428409.630,-893.943
473485.249,4428209.630,-892.212
473485.249,4428009.630,-896.547
473485.249,4427809.630,-923.581
473485.249,4427609.630,-957.924
473485.249,4427409.630,-979.793
473485.249,4427209.630,-1000.139
473485.249,4427009.630,-1018.052
473485.249,4426809.630,-1027.708
473485.249,4426609.630,-1028.208
473485.249,4426409.630,-1029.009
473485.249,4426209.630,-1041.770
473485.249,4426009.630,-1050.590
473485.249,4425809.630,-1056.166
473485.249,4425609.630,-1060.974
473485.249,4425409.630,-1067.572
473485.249,4425209.630,-1076.363
473485.249,4425009.630,-1085.839
473485.249,4424809.630,-1093.513
473485.249,4424609.630,-1093.974
473485.249,4424409.630,-1102.495
473485.249,4424209.630,-1120.171
473485.249,4424009.630,-1122.340
473485.249,4423809.630,-1122.897
473485.249,4423609.630,-1126.344
473485.249,4423409.630,-1129.498
473485.249,4423209.630,-1131.211
473485.249,4423009.630,-1134.666
473485.249,4422809.630,-1136.099
473485.249,4422609.630,-1137.852
473485.249,4422409.630,-1138.891
473485.249,4422209.630,-1140.979
473485.249,4422009.630,-1144.731
473485.249,4421809.630,-1149.485
473485.249,4421609.630,-1156.093
473485.249,4421409.630,-1160.127
473485.249,4421209.630,-1161.503
473485.249,4421009.630,-1164.694
473485.249,4420809.630,-1163.776
473485.249,4420609.630,-1162.367
473485.249,4420409.630,-1158.067
473485.249,4420209.630,-1151.498
473485.249,4420009.630,-1143.036
473485.249,4419809.630,-1137.443
473485.249,4419609.630,-1139.145
473485.249,4419409.630,-1137.177
473485.249,4419209.630,-1137.558
473485.249,4419009.630,-1140.252
473485.249,4418809.630,-1146.884
473485.249,4418609.630,-1150.053
473485.249,4418409.630,-1146.341
473485.249,4418209.630,-1146.251
473485.249,4418009.630,-1153.993
473485.249,4417809.630,-1161.630
473485.249,4417609.630,-1164.992
473485.249,4417409.630,-1160.524
473485.249,4417209.630,-1148.003
473485.249,4417009.630,-1136.794
473485.249,4416809.630,-1125.055
473485.249,4416609.630,-1116.550
473485.249,4416409.630,-1118.808
473485.249,4416209.630,-1127.672
473485.249,4416009.630,-1139.908
473485.249,4415809.630,-1151.882
473485.249,4415609.630,-1164.451
473485.249,4415409.630,-1175.670
473485.249,4415209.630,-1190.879
473485.249,4415009.630,-1206.694
473485.249,4414809.630,-1218.450
473485.249,4414609.630,-1230.266
473485.249,4414409.630,-1242.630
473685.249,4433009.630,-654.353
473685.249,4432809.630,-614.266
473685.249,4432609.630,-644.914
473685.249,4432409.630,-680.700
473685.249,4432209.630,-735.338
473685.249,4432009.630,-783.190
473685.249,4431809.630,-823.571
473685.249,4431609.630,-833.163
473685.249,4431409.630,-843.755
473685.249,4431209.630,-853.435
473685.249,4431009.630,-859.682
473685.249,4430809.630,-867.350
473685.249,4430609.630,-878.005
473685.249,4430409.630,-891.636
473685.249,4430209.630,-896.532
473685.249,4430009.630,-900.293
473685.249,4429809.630,-902.802
473685.249,4429609.630,-906.022
473685.249,4429409.630,-908.247
473685.249,4429209.630,-911.190
473685.249,4429009.630,-910.945
473685.249,4428809.630,-908.609
473685.249,4428609.630,-896.622
473685.249,4428409.630,-902.211
473685.249,4428209.630,-906.098
473685.249,4428009.630,-918.435
473685.249,4427809.630,-933.835
473685.249,4427609.630,-957.290
473685.249,4427409.630,-981.959
473685.249,4427209.630,-995.329
473685.249,4427009.630,-999.947
473685.249,4426809.630,-996.902
473685.249,4426609.630,-999.513
473685.249,4426409.630,-1015.946
473685.249,4426209.630,-1025.058
473685.249,4426009.630,-1032.532
473685.249,4425809.630,-1044.394
473685.249,4425609.630,-1053.234
473685.249,4425409.630,-1060.652
473685.249,4425209.630,-1063.877
473685.249,4425009.630,-1068.246
473685.249,4424809.630,-1072.825
473685.249,4424609.630,-1086.711
473685.249,4424409.630,-1108.363
473685.249,4424209.630,-1121.637
473685.249,4424009.630,-1122.633
473685.249,4423809.630,-1125.620
473685.249,4423609.630,-1127.603
473685.249,4423409.630,-1132.142
473685.249,4423209.630,-1132.705
473685.249,4423009.630,-1133.977
473685.249,4422809.630,-1135.444
473685.249,4422609.630,-1138.990
473685.249,4422409.630,-1141.789
473685.249,4422209.630,-1144.039
473685.249,4422009.630,-1146.767
473685.249,4421809.630,-1150.555
473685.249,4421609.630,-1155.406
473685.249,4421409.630,-1157.986
473685.249,4421209.630,-1157.459
473685.249,4421009.630,-1157.599
473685.249,4420809.630,-1157.181
473685.249,4420609.630,-1155.311
473685.249,4420409.630,-1148.529
473685.249,4420209.630,-1142.112
473685.249,4420009.630,-1129.292
473685.249,4419809.630,-1126.439
473685.249,4419609.630,-1124.549
473685.249,4419409.630,-1122.375
473685.249,4419209.630,-1123.099
473685.249,4419009.630,-1123.417
473685.249,4418809.630,-1130.540
473685.249,4418609.630,-1131.542
473685.249,4418409.630,-1133.427
473685.249,4418209.630,-1134.581
473685.249,4418009.630,-1143.725
473685.249,4417809.630,-1151.441
473685.249,4417609.630,-1147.150
473685.249,4417409.630,-1135.684
473685.249,4417209.630,-1121.585
473685.249,4417009.630,-1108.764
473685.249,4416809.630,-1105.601
473685.249,4416609.630,-1108.579
473685.249,4416409.630,-1118.991
473685.249,4416209.630,-1128.746
473685.249,4416009.630,-1139.137
473685.249,4415809.630,-1150.011
473685.249,4415609.630,-1160.789
473685.249,4415409.630,-1174.613
473685.249,4415209.630,-1191.033
473685.249,4415009.630,-1208.302
473685.249,4414809.630,-1219.226
473685.249,4414609.630,-1230.636
473685.249,4414409.630,-1245.640
473885.249,4432809.630,-602.121
473885.249,4432609.630,-645.419
473885.249,4432409.630,-679.482
473885.249,4432209.630,-725.191
473885.249,4432009.630,-766.327
473885.249,4431809.630,-815.096
473885.249,4431609.630,-832.683
473885.249,4431409.630,-839.328
473885.249,4431209.630,-844.680
473885.249,4431009.630,-855.611
473885.249,4430809.630,-865.076
473885.249,4430609.630,-878.929
473885.249,4430409.630,-886.822
473885.249,4430209.630,-893.174
473885.249,4430009.630,-897.080
473885.249,4429809.630,-901.476
473885.249,4429609.630,-905.392
473885.249,4429409.630,-907.941
473885.249,4429209.630,-909.299
473885.249,4429009.630,-907.716
473885.249,4428809.630,-898.060
473885.249,4428609.630,-909.565
473885.249,4428409.630,-914.756
473885.249,4428209.630,-927.172
473885.249,4428009.630,-933.975
473885.249,4427809.630,-931.931
473885.249,4427609.630,-937.440
473885.249,4427409.630,-953.922
473885.249,4427209.630,-965.810
473885.249,4427009.630,-969.607
473885.249,4426809.630,-973.592
473885.249,4426609.630,-988.901
473885.249,4426409.630,-1002.921
473885.249,4426209.630,-1012.951
473885.249,4426009.630,-1024.703
473885.249,4425809.630,-1036.449
473885.249,4425609.630,-1043.658
473885.249,4425409.630,-1044.726
473885.249,4425209.630,-1049.501
473885.249,4425009.630,-1056.344
473885.249,4424809.630,-1066.437
473885.249,4424609.630,-1092.338
473885.249,4424409.630,-1118.231
473885.249,4424209.630,-1123.906
473885.249,4424009.630,-1124.564
473885.249,4423809.630,-1125.679
473885.249,4423609.630,-1130.113
473885.249,4423409.630,-1132.069
473885.249,4423209.630,-1135.128
473885.249,4423009.630,-1133.189
473885.249,4422809.630,-1137.447
473885.249,4422609.630,-1139.700
473885.249,4422409.630,-1140.627
473885.249,4422209.630,-1142.947
473885.249,4422009.630,-1145.950
473885.249,4421809.630,-1149.366
473885.249,4421609.630,-1153.217
473885.249,4421409.630,-1154.545
473885.249,4421209.630,-1153.087
473885.249,4421009.630,-1150.180
473885.249,4420809.630,-1149.394
473885.249,4420609.630,-1146.800
473885.249,4420409.630,-1141.709
473885.249,4420209.630,-1136.316
473885.249,4420009.630,-1123.468
473885.249,4419809.630,-1119.205
473885.249,4419609.630,-1113.220
473885.249,4419409.630,-1110.493
473885.249,4419209.630,-1109.760
473885.249,4419009.630,-1110.373
473885.249,4418809.630,-1106.894
473885.249,4418609.630,-1117.089
473885.249,4418409.630,-1118.568
473885.249,4418209.630,-1123.832
473885.249,4418009.630,-1135.027
473885.249,4417809.630,-1136.438
473885.249,4417609.630,-1122.747
473885.249,4417409.630,-1107.756
473885.249,4417209.630,-1094.923
473885.249,4417009.630,-1087.080
473885.249,4416809.630,-1086.673
473885.249,4416609.630,-1097.278
473885.249,4416409.630,-1111.915
473885.249,4416209.630,-1125.683
473885.249,4416009.630,-1135.735
473885.249,4415809.630,-1146.941
473885.249,4415609.630,-1159.530
473885.249,4415409.630,-1174.003
473885.249,4415209.630,-1189.676
473885.249,4415009.630,-1204.640
473885.249,4414809.630,-1216.801
473885.249,4414609.630,-1230.343
473885.249,4414409.630,-1243.039
474085.249,4432809.630,-609.517
474085.249,4432609.630,-642.864
474085.249,4432409.630,-677.977
474085.249,4432209.630,-719.982
474085.249,4432009.630,-765.674
474085.249,4431809.630,-805.305
474085.249,4431609.630,-831.900
474085.249,4431409.630,-835.269
474085.249,4431209.630,-843.011
474085.249,4431009.630,-851.869
474085.249,4430809.630,-864.304
474085.249,4430609.630,-877.227
474085.249,4430409.630,-884.413
474085.249,4430209.630,-892.230
474085.249,4430009.630,-896.276
474085.249,4429809.630,-902.042
474085.249,4429609.630,-905.092
474085.249,4429409.630,-906.736
474085.249,4429209.630,-901.775
474085.249,4429009.630,-888.420
474085.249,4428809.630,-904.872
474085.249,4428609.630,-924.299
474085.249,4428409.630,-933.344
474085.249,4428209.630,-936.324
474085.249,4428009.630,-937.663
474085.249,4427809.630,-937.257
474085.249,4427609.630,-937.061
474085.249,4427409.630,-938.237
474085.249,4427209.630,-941.601
474085.249,4427009.630,-948.820
474085.249,4426809.630,-967.438
474085.249,4426609.630,-984.159
474085.249,4426409.630,-999.110
474085.249,4426209.630,-1010.133
474085.249,4426009.630,-1021.356
474085.249,4425809.630,-1027.724
474085.249,4425609.630,-1032.143
474085.249,4425409.630,-1038.570
474085.249,4425209.630,-1046.558
474085.249,4425009.630,-1059.670
474085.249,4424809.630,-1077.548
474085.249,4424609.630,-1099.697
474085.249,4424409.630,-1120.267
474085.249,4424209.630,-1124.451
474085.249,4424009.630,-1125.745
474085.249,4423809.630,-1126.978
474085.249,4423609.630,-1129.849
474085.249,4423409.630,-1130.181
474085.249,4423209.630,-1133.999
474085.249,4423009.630,-1135.852
474085.249,4422809.630,-1137.480
474085.249,4422609.630,-1135.767
474085.249,4422409.630,-1139.795
474085.249,4422209.630,-1141.138
474085.249,4422009.630,-1144.255
474085.249,4421809.630,-1147.155
474085.249,4421609.630,-1149.061
474085.249,4421409.630,-1148.399
474085.249,4421209.630,-1147.530
474085.249,4421009.630,-1146.938
474085.249,4420809.630,-1144.375
474085.249,4420609.630,-1140.961
474085.249,4420409.630,-1136.625
474085.249,4420209.630,-1123.646
474085.249,4420009.630,-1114.225
474085.249,4419809.630,-1106.067
474085.249,4419609.630,-1101.913
474085.249,4419409.630,-1098.601
474085.249,4419209.630,-1095.067
474085.249,4419009.630,-1092.948
474085.249,4418809.630,-1093.712
474085.249,4418609.630,-1095.945
474085.249,4418409.630,-1107.382
474085.249,4418209.630,-1120.547
474085.249,4418009.630,-1126.827
474085.249,4417809.630,-1117.347
474085.249,4417609.630,-1101.299
474085.249,4417409.630,-1080.271
474085.249,4417209.630,-1064.139
474085.249,4417009.630,-1061.630
474085.249,4416809.630,-1069.793
474085.249,4416609.630,-1083.688
474085.249,4416409.630,-1099.774
474085.249,4416209.630,-1113.339
474085.249,4416009.630,-1131.459
474085.249,4415809.630,-1144.232
474085.249,4415609.630,-1157.035
474085.249,4415409.630,-1173.151
474085.249,4415209.630,-1193.198
474085.249,4415009.630,-1201.851
474085.249,4414809.630,-1214.943
474085.249,4414609.630,-1225.365
474085.249,4414409.630,-1233.062
474285.249,4432809.630,-614.905
474285.249,4432609.630,-639.849
474285.249,4432409.630,-672.094
474285.249,4432209.630,-711.767
474285.249,4432009.630,-762.728
474285.249,4431809.630,-806.705
474285.249,4431609.630,-828.924
474285.249,4431409.630,-833.375
474285.249,4431209.630,-839.289
474285.249,4431009.630,-850.846
474285.249,4430809.630,-862.632
474285.249,4430609.630,-874.758
474285.249,4430409.630,-882.008
474285.249,4430209.630,-886.451
474285.249,4430009.630,-892.951
474285.249,4429809.630,-902.694
474285.249,4429609.630,-904.742
474285.249,4429409.630,-894.307
474285.249,4429209.630,-881.317
474285.249,4429009.630,-892.184
474285.249,4428809.630,-914.586
474285.249,4428609.630,-934.221
474285.249,4428409.630,-936.511
474285.249,4428209.630,-938.114
474285.249,4428009.630,-939.773
474285.249,4427809.630,-941.954
474285.249,4427609.630,-939.896
474285.249,4427409.630,-934.854
474285.249,4427209.630,-937.108
474285.249,4427009.630,-950.895
474285.249,4426809.630,-976.125
474285.249,4426609.630,-996.591
474285.249,4426409.630,-1009.858
474285.249,4426209.630,-1015.964
474285.249,4426009.630,-1022.397
474285.249,4425809.630,-1028.544
474285.249,4425609.630,-1035.530
474285.249,4425409.630,-1043.908
474285.249,4425209.630,-1058.141
474285.249,4425009.630,-1074.558
474285.249,4424809.630,-1092.602
474285.249,4424609.630,-1113.944
474285.249,4424409.630,-1124.584
474285.249,4424209.630,-1125.931
474285.249,4424009.630,-1126.736
474285.249,4423809.630,-1129.381
474285.249,4423609.630,-1129.204
474285.249,4423409.630,-1130.737
474285.249,4423209.630,-1134.353
474285.249,4423009.630,-1134.549
474285.249,4422809.630,-1134.584
474285.249,4422609.630,-1135.873
474285.249,4422409.630,-1137.305
474285.249,4422209.630,-1140.341
474285.249,4422009.630,-1142.384
474285.249,4421809.630,-1144.314
474285.249,4421609.630,-1145.251
474285.249,4421409.630,-1145.106
474285.249,4421209.630,-1145.152
474285.249,4421009.630,-1144.306
474285.249,4420809.630,-1142.825
474285.249,4420609.630,-1134.997
474285.249,4420409.630,-1118.948
474285.249,4420209.630,-1109.513
474285.249,4420009.630,-1103.627
474285.249,4419809.630,-1097.822
474285.249,4419609.630,-1095.756
474285.249,4419409.630,-1088.887
474285.249,4419209.630,-1082.293
474285.249,4419009.630,-1080.381
474285.249,4418809.630,-1082.094
474285.249,4418609.630,-1087.907
474285.249,4418409.630,-1102.576
474285.249,4418209.630,-1113.726
474285.249,4418009.630,-1112.820
474285.249,4417809.630,-1095.391
474285.249,4417609.630,-1072.624
474285.249,4417409.630,-1048.828
474285.249,4417209.630,-1045.099
474285.249,4417009.630,-1052.139
474285.249,4416809.630,-1066.105
474285.249,4416609.630,-1077.368
474285.249,4416409.630,-1093.794
474285.249,4416209.630,-1109.042
474285.249,4416009.630,-1126.112
474285.249,4415809.630,-1137.452
474285.249,4415609.630,-1153.083
474285.249,4415409.630,-1176.369
474285.249,4415209.630,-1196.347
474285.249,4415009.630,-1202.079
474285.249,4414809.630,-1213.322
474285.249,4414609.630,-1219.836
474285.249,4414409.630,-1224.388
474485.249,4432809.630,-615.806
474485.249,4432609.630,-636.417
474485.249,4432409.630,-672.254
474485.249,4432209.630,-708.107
474485.249,4432009.630,-752.560
474485.249,4431809.630,-798.011
474485.249,4431609.630,-823.187
474485.249,4431409.630,-829.188
474485.249,4431209.630,-837.386
474485.249,4431009.630,-847.547
474485.249,4430809.630,-856.589
474485.249,4430609.630,-863.041
474485.249,4430409.630,-872.650
474485.249,4430209.630,-883.432
474485.249,4430009.630,-892.687
474485.249,4429809.630,-899.398
474485.249,4429609.630,-892.875
474485.249,4429409.630,-879.451
474485.249,4429209.630,-885.203
474485.249,4429009.630,-898.700
474485.249,4428809.630,-917.074
474485.249,4428609.630,-935.000
474485.249,4428409.630,-939.202
474485.249,4428209.630,-942.355
474485.249,4428009.630,-947.738
474485.249,4427809.630,-948.264
474485.249,4427609.630,-947.828
474485.249,4427409.630,-960.514
474485.249,4427209.630,-979.918
474485.249,4427009.630,-987.160
474485.249,4426809.630,-998.477
474485.249,4426609.630,-1004.456
474485.249,4426409.630,-1018.460
474485.249,4426209.630,-1032.398
474485.249,4426009.630,-1038.964
474485.249,4425809.630,-1038.675
474485.249,4425609.630,-1046.690
474485.249,4425409.630,-1057.999
474485.249,4425209.630,-1069.732
474485.249,4425009.630,-1084.015
474485.249,4424809.630,-1104.908
474485.249,4424609.630,-1121.913
474485.249,4424409.630,-1125.677
474485.249,4424209.630,-1126.813
474485.249,4424009.630,-1128.171
474485.249,4423809.630,-1129.072
474485.249,4423609.630,-1130.038
474485.249,4423409.630,-1130.953
474485.249,4423209.630,-1131.373
474485.249,4423009.630,-1132.783
474485.249,4422809.630,-1135.263
474485.249,4422609.630,-1136.174
474485.249,4422409.630,-1135.939
474485.249,4422209.630,-1138.299
474485.249,4422009.630,-1139.717
474485.249,4421809.630,-1141.618
474485.249,4421609.630,-1143.094
474485.249,4421409.630,-1142.262
474485.249,4421209.630,-1142.249
474485.249,4421009.630,-1142.863
474485.249,4420809.630,-1139.377
474485.249,4420609.630,-1120.960
474485.249,4420409.630,-1107.086
474485.249,4420209.630,-1099.600
474485.249,4420009.630,-1089.782
474485.249,4419809.630,-1085.742
474485.249,4419609.630,-1083.403
474485.249,4419409.630,-1073.072
474485.249,4419209.630,-1065.475
474485.249,4419009.630,-1064.213
474485.249,4418809.630,-1071.375
474485.249,4418609.630,-1081.515
474485.249,4418409.630,-1094.967
474485.249,4418209.630,-1104.111
474485.249,4418009.630,-1089.211
474485.249,4417809.630,-1066.594
474485.249,4417609.630,-1041.067
474485.249,4417409.630,-1034.079
474485.249,4417209.630,-1043.110
474485.249,4417009.630,-1054.534
474485.249,4416809.630,-1067.982
474485.249,4416609.630,-1080.587
474485.249,4416409.630,-1093.213
474485.249,4416209.630,-1107.408
474485.249,4416009.630,-1119.269
474485.249,4415809.630,-1138.042
474485.249,4415609.630,-1165.477
474485.249,4415409.630,-1184.620
474485.249,4415209.630,-1191.210
474485.249,4415009.630,-1200.275
474485.249,4414809.630,-1205.647
474485.249,4414609.630,-1209.754
474485.249,4414409.630,-1217.241
474685.249,4432809.630,-612.001
474685.249,4432609.630,-633.928
474685.249,4432409.630,-668.436
474685.249,4432209.630,-704.080
474685.249,4432009.630,-750.368
474685.249,4431809.630,-791.353
474685.249,4431609.630,-817.735
474685.249,4431409.630,-827.486
474685.249,4431209.630,-836.810
474685.249,4431009.630,-841.646
474685.249,4430809.630,-845.951
474685.249,4430609.630,-855.873
474685.249,4430409.630,-865.170
474685.249,4430209.630,-876.456
474685.249,4430009.630,-883.272
474685.249,4429809.630,-884.996
474685.249,4429609.630,-880.086
474685.249,4429409.630,-881.048
474685.249,4429209.630,-892.067
474685.249,4429009.630,-902.284
474685.249,4428809.630,-917.655
474685.249,4428609.630,-936.082
474685.249,4428409.630,-943.919
474685.249,4428209.630,-947.940
474685.249,4428009.630,-950.648
474685.249,4427809.630,-954.422
474685.249,4427609.630,-964.788
474685.249,4427409.630,-989.345
474685.249,4427209.630,-1013.831
474685.249,4427009.630,-1019.741
474685.249,4426809.630,-1024.407
474685.249,4426609.630,-1023.217
474685.249,4426409.630,-1032.318
474685.249,4426209.630,-1045.689
474685.249,4426009.630,-1049.536
474685.249,4425809.630,-1055.409
474685.249,4425609.630,-1062.125
474685.249,4425409.630,-1066.375
474685.249,4425209.630,-1074.698
474685.249,4425009.630,-1091.140
474685.249,4424809.630,-1113.325
474685.249,4424609.630,-1124.827
474685.249,4424409.630,-1125.132
474685.249,4424209.630,-1126.326
474685.249,4424009.630,-1127.833
474685.249,4423809.630,-1129.141
474685.249,4423609.630,-1131.355
474685.249,4423409.630,-1131.719
474685.249,4423209.630,-1132.768
474685.249,4423009.630,-1133.427
474685.249,4422809.630,-1136.277
474685.249,4422609.630,-1136.839
474685.249,4422409.630,-1136.571
474685.249,4422209.630,-1136.003
474685.249,4422009.630,-1137.814
474685.249,4421809.630,-1139.563
474685.249,4421609.630,-1140.539
474685.249,4421409.630,-1140.892
474685.249,4421209.630,-1141.698
474685.249,4421009.630,-1141.293
474685.249,4420809.630,-1134.657
474685.249,4420609.630,-1112.260
474685.249,4420409.630,-1097.782
474685.249,4420209.630,-1085.183
474685.249,4420009.630,-1076.438
474685.249,4419809.630,-1073.411
474685.249,4419609.630,-1071.488
474685.249,4419409.630,-1061.023
474685.249,4419209.630,-1055.974
474685.249,4419009.630,-1063.626
474685.249,4418809.630,-1074.741
474685.249,4418609.630,-1083.102
474685.249,4418409.630,-1087.800
474685.249,4418209.630,-1083.574
474685.249,4418009.630,-1060.221
474685.249,4417809.630,-1041.482
474685.249,4417609.630,-1030.943
474685.249,4417409.630,-1033.278
474685.249,4417209.630,-1044.285
474685.249,4417009.630,-1056.485
474685.249,4416809.630,-1069.919
474685.249,4416609.630,-1079.691
474685.249,4416409.630,-1089.751
474685.249,4416209.630,-1104.578
474685.249,4416009.630,-1124.414
474685.249,4415809.630,-1148.037
474685.249,4415609.630,-1161.001
474685.249,4415409.630,-1171.341
474685.249,4415209.630,-1179.232
474685.249,4415009.630,-1191.975
474685.249,4414809.630,-1199.596
474685.249,4414609.630,-1202.962
474685.249,4414409.630,-1203.403
474885.249,4432609.630,-629.656
474885.249,4432409.630,-661.278
474885.249,4432209.630,-696.651
474885.249,4432009.630,-729.665
474885.249,4431809.630,-767.564
474885.249,4431609.630,-796.022
474885.249,4431409.630,-824.284
474885.249,4431209.630,-831.495
474885.249,4431009.630,-831.659
474885.249,4430809.630,-833.253
474885.249,4430609.630,-842.859
474885.249,4430409.630,-852.069
474885.249,4430209.630,-860.465
474885.249,4430009.630,-873.494
474885.249,4429809.630,-877.985
474885.249,4429609.630,-883.767
474885.249,4429409.630,-889.377
474885.249,4429209.630,-897.396
474885.249,4429009.630,-906.668
474885.249,4428809.630,-916.355
474885.249,4428609.630,-930.661
474885.249,4428409.630,-940.202
474885.249,4428209.630,-949.247
474885.249,4428009.630,-955.304
474885.249,4427809.630,-961.539
474885.249,4427609.630,-978.583
474885.249,4427409.630,-1002.661
474885.249,4427209.630,-1021.045
474885.249,4427009.630,-1034.910
474885.249,4426809.630,-1036.775
474885.249,4426609.630,-1039.613
474885.249,4426409.630,-1045.541
474885.249,4426209.630,-1054.914
474885.249,4426009.630,-1065.293
474885.249,4425809.630,-1068.388
474885.249,4425609.630,-1066.677
474885.249,4425409.630,-1071.005
474885.249,4425209.630,-1082.327
474885.249,4425009.630,-1099.754
474885.249,4424809.630,-1119.800
474885.249,4424609.630,-1122.167
474885.249,4424409.630,-1125.763
474885.249,4424209.630,-1125.861
474885.249,4424009.630,-1127.255
474885.249,4423809.630,-1129.946
474885.249,4423609.630,-1130.948
474885.249,4423409.630,-1132.401
474885.249,4423209.630,-1132.120
474885.249,4423009.630,-1132.982
474885.249,4422809.630,-1133.274
474885.249,4422609.630,-1134.086
474885.249,4422409.630,-1135.029
474885.249,4422209.630,-1135.462
474885.249,4422009.630,-1133.847
474885.249,4421809.630,-1138.551
474885.249,4421609.630,-1138.287
474885.249,4421409.630,-1139.094
474885.249,4421209.630,-1139.924
474885.249,4421009.630,-1139.440
474885.249,4420809.630,-1132.580
474885.249,4420609.630,-1112.384
474885.249,4420409.630,-1096.093
474885.249,4420209.630,-1082.580
474885.249,4420009.630,-1068.043
474885.249,4419809.630,-1066.678
474885.249,4419609.630,-1062.623
474885.249,4419409.630,-1057.146
474885.249,4419209.630,-1060.500
474885.249,4419009.630,-1068.936
474885.249,4418809.630,-1077.001
474885.249,4418609.630,-1079.703
474885.249,4418409.630,-1080.246
474885.249,4418209.630,-1062.354
474885.249,4418009.630,-1040.961
474885.249,4417809.630,-1030.732
474885.249,4417609.630,-1029.421
474885.249,4417409.630,-1037.726
474885.249,4417209.630,-1049.158
474885.249,4417009.630,-1062.920
474885.249,4416809.630,-1072.825
474885.249,4416609.630,-1083.300
474885.249,4416409.630,-1096.289
474885.249,4416209.630,-1109.576
474885.249,4416009.630,-1123.513
474885.249,4415809.630,-1128.992
474885.249,4415609.630,-1140.800
474885.249,4415409.630,-1147.353
474885.249,4415209.630,-1164.996
474885.249,4415009.630,-1184.715
474885.249,4414809.630,-1190.258
474885.249,4414609.630,-1192.679
474885.249,4414409.630,-1192.449
475085.249,4432609.630,-626.525
475085.249,4432409.630,-655.210
475085.249,4432209.630,-695.847
475085.249,4432009.630,-724.811
475085.249,4431809.630,-749.316
475085.249,4431609.630,-775.778
475085.249,4431409.630,-795.993
475085.249,4431209.630,-810.470
475085.249,4431009.630,-809.815
475085.249,4430809.630,-816.613
475085.249,4430609.630,-833.348
475085.249,4430409.630,-841.477
475085.249,4430209.630,-860.771
475085.249,4430009.630,-876.049
475085.249,4429809.630,-885.122
475085.249,4429609.630,-890.578
475085.249,4429409.630,-896.211
475085.249,4429209.630,-903.375
475085.249,4429009.630,-911.192
475085.249,4428809.630,-918.454
475085.249,4428609.630,-922.278
475085.249,4428409.630,-928.968
475085.249,4428209.630,-941.836
475085.249,4428009.630,-957.640
475085.249,4427809.630,-966.291
475085.249,4427609.630,-987.473
475085.249,4427409.630,-1010.577
475085.249,4427209.630,-1020.685
475085.249,4427009.630,-1040.813
475085.249,4426809.630,-1046.230
475085.249,4426609.630,-1048.104
475085.249,4426409.630,-1052.283
475085.249,4426209.630,-1057.381
475085.249,4426009.630,-1071.034
475085.249,4425809.630,-1080.002
475085.249,4425609.630,-1072.181
475085.249,4425409.630,-1076.953
475085.249,4425209.630,-1093.034
475085.249,4425009.630,-1115.140
475085.249,4424809.630,-1119.713
475085.249,4424609.630,-1121.971
475085.249,4424409.630,-1123.417
475085.249,4424209.630,-1125.067
475085.249,4424009.630,-1127.069
475085.249,4423809.630,-1129.282
475085.249,4423609.630,-1131.038
475085.249,4423409.630,-1131.972
475085.249,4423209.630,-1133.280
475085.249,4423009.630,-1132.833
475085.249,4422809.630,-1132.323
475085.249,4422609.630,-1133.453
475085.249,4422409.630,-1133.527
475085.249,4422209.630,-1134.226
475085.249,4422009.630,-1134.163
475085.249,4421809.630,-1132.772
475085.249,4421609.630,-1135.647
475085.249,4421409.630,-1137.826
475085.249,4421209.630,-1136.790
475085.249,4421009.630,-1136.043
475085.249,4420809.630,-1132.942
475085.249,4420609.630,-1112.617
475085.249,4420409.630,-1094.824
475085.249,4420209.630,-1079.680
475085.249,4420009.630,-1068.247
475085.249,4419809.630,-1065.310
475085.249,4419609.630,-1063.298
475085.249,4419409.630,-1059.762
475085.249,4419209.630,-1063.516
475085.249,4419009.630,-1070.331
475085.249,4418809.630,-1074.413
475085.249,4418609.630,-1074.520
475085.249,4418409.630,-1064.070
475085.249,4418209.630,-1043.481
475085.249,4418009.630,-1026.672
475085.249,4417809.630,-1014.164
475085.249,4417609.630,-1030.808
475085.249,4417409.630,-1044.534
475085.249,4417209.630,-1057.026
475085.249,4417009.630,-1067.351
475085.249,4416809.630,-1076.395
475085.249,4416609.630,-1084.560
475085.249,4416409.630,-1093.192
475085.249,4416209.630,-1102.015
475085.249,4416009.630,-1107.154
475085.249,4415809.630,-1117.034
475085.249,4415609.630,-1134.294
475085.249,4415409.630,-1156.874
475085.249,4415209.630,-1172.269
475085.249,4415009.630,-1175.534
475085.249,4414809.630,-1171.317
475085.249,4414609.630,-1173.545
475085.249,4414409.630,-1186.475
475285.249,4432609.630,-633.103
475285.249,4432409.630,-656.177
475285.249,4432209.630,-692.563
475285.249,4432009.630,-723.380
475285.249,4431809.630,-739.354
475285.249,4431609.630,-748.576
475285.249,4431409.630,-757.185
475285.249,4431209.630,-772.432
475285.249,4431009.630,-775.930
475285.249,4430809.630,-800.281
475285.249,4430609.630,-818.434
475285.249,4430409.630,-837.152
475285.249,4430209.630,-866.237
475285.249,4430009.630,-876.294
475285.249,4429809.630,-883.040
475285.249,4429609.630,-891.713
475285.249,4429409.630,-898.537
475285.249,4429209.630,-905.426
475285.249,4429009.630,-911.450
475285.249,4428809.630,-916.244
475285.249,4428609.630,-918.211
475285.249,4428409.630,-920.016
475285.249,4428209.630,-933.614
475285.249,4428009.630,-947.240
475285.249,4427809.630,-973.221
475285.249,4427609.630,-996.207
475285.249,4427409.630,-1013.040
475285.249,4427209.630,-1025.163
475285.249,4427009.630,-1038.192
475285.249,4426809.630,-1052.122
475285.249,4426609.630,-1058.524
475285.249,4426409.630,-1064.115
475285.249,4426209.630,-1065.235
475285.249,4426009.630,-1076.602
475285.249,4425809.630,-1088.480
475285.249,4425609.630,-1086.732
475285.249,4425409.630,-1090.871
475285.249,4425209.630,-1113.083
475285.249,4425009.630,-1118.904
475285.249,4424809.630,-1119.741
475285.249,4424609.630,-1119.548
475285.249,4424409.630,-1123.431
475285.249,4424209.630,-1123.555
475285.249,4424009.630,-1126.974
475285.249,4423809.630,-1128.816
475285.249,4423609.630,-1130.918
475285.249,4423409.630,-1131.956
475285.249,4423209.630,-1132.218
475285.249,4423009.630,-1132.028
475285.249,4422809.630,-1132.331
475285.249,4422609.630,-1132.592
475285.249,4422409.630,-1131.840
475285.249,4422209.630,-1133.133
475285.249,4422009.630,-1132.427
475285.249,4421809.630,-1132.451
475285.249,4421609.630,-1133.218
475285.249,4421409.630,-1134.512
475285.249,4421209.630,-1134.973
475285.249,4421009.630,-1134.176
475285.249,4420809.630,-1130.163
475285.249,4420609.630,-1107.553
475285.249,4420409.630,-1089.445
475285.249,4420209.630,-1078.849
475285.249,4420009.630,-1076.857
475285.249,4419809.630,-1071.172
475285.249,4419609.630,-1063.898
475285.249,4419409.630,-1057.886
475285.249,4419209.630,-1062.442
475285.249,4419009.630,-1068.215
475285.249,4418809.630,-1069.227
475285.249,4418609.630,-1064.025
475285.249,4418409.630,-1045.799
475285.249,4418209.630,-1024.472
475285.249,4418009.630,-1010.259
475285.249,4417809.630,-1012.157
475285.249,4417609.630,-1031.483
475285.249,4417409.630,-1047.838
475285.249,4417209.630,-1054.413
475285.249,4417009.630,-1063.706
475285.249,4416809.630,-1071.774
475285.249,4416609.630,-1082.111
475285.249,4416409.630,-1089.671
475285.249,4416209.630,-1099.816
475285.249,4416009.630,-1114.753
475285.249,4415809.630,-1133.245
475285.249,4415609.630,-1146.703
475285.249,4415409.630,-1160.289
475285.249,4415209.630,-1158.660
475285.249,4415009.630,-1144.349
475285.249,4414809.630,-1141.637
475285.249,4414609.630,-1149.698
475285.249,4414409.630,-1174.507
475485.249,4432609.630,-634.286
475485.249,4432409.630,-655.735
475485.249,4432209.630,-681.956
475485.249,4432009.630,-714.067
475485.249,4431809.630,-722.217
475485.249,4431609.630,-724.672
475485.249,4431409.630,-726.673
475485.249,4431209.630,-738.381
475485.249,4431009.630,-762.063
475485.249,4430809.630,-790.868
475485.249,4430609.630,-813.913
475485.249,4430409.630,-834.653
475485.249,4430209.630,-859.718
475485.249,4430009.630,-879.367
475485.249,4429809.630,-883.380
475485.249,4429609.630,-890.677
475485.249,4429409.630,-898.440
475485.249,4429209.630,-904.415
475485.249,4429009.630,-909.832
475485.249,4428809.630,-913.587
475485.249,4428609.630,-916.198
475485.249,4428409.630,-917.665
475485.249,4428209.630,-924.204
475485.249,4428009.630,-933.891
475485.249,4427809.630,-985.220
475485.249,4427609.630,-1018.539
475485.249,4427409.630,-1031.811
475485.249,4427209.630,-1038.659
475485.249,4427009.630,-1047.438
475485.249,4426809.630,-1058.413
475485.249,4426609.630,-1065.626
475485.249,4426409.630,-1072.232
475485.249,4426209.630,-1078.919
475485.249,4426009.630,-1088.656
475485.249,4425809.630,-1095.800
475485.249,4425609.630,-1102.657
475485.249,4425409.630,-1111.634
475485.249,4425209.630,-1116.256
475485.249,4425009.630,-1118.064
475485.249,4424809.630,-1118.616
475485.249,4424609.630,-1120.271
475485.249,4424409.630,-1120.090
475485.249,4424209.630,-1122.581
475485.249,4424009.630,-1126.217
475485.249,4423809.630,-1127.992
475485.249,4423609.630,-1129.314
475485.249,4423409.630,-1131.295
475485.249,4423209.630,-1132.077
475485.249,4423009.630,-1132.339
475485.249,4422809.630,-1132.366
475485.249,4422609.630,-1132.409
475485.249,4422409.630,-1132.190
475485.249,4422209.630,-1132.239
475485.249,4422009.630,-1131.781
475485.249,4421809.630,-1130.983
475485.249,4421609.630,-1131.000
475485.249,4421409.630,-1132.104
475485.249,4421209.630,-1132.158
475485.249,4421009.630,-1131.352
475485.249,4420809.630,-1127.027
475485.249,4420609.630,-1111.468
475485.249,4420409.630,-1098.325
475485.249,4420209.630,-1087.807
475485.249,4420009.630,-1081.063
475485.249,4419809.630,-1074.297
475485.249,4419609.630,-1064.466
475485.249,4419409.630,-1057.627
475485.249,4419209.630,-1061.387
475485.249,4419009.630,-1064.249
475485.249,4418809.630,-1062.197
475485.249,4418609.630,-1051.259
475485.249,4418409.630,-1031.995
475485.249,4418209.630,-1006.050
475485.249,4418009.630,-1003.205
475485.249,4417809.630,-1018.648
475485.249,4417609.630,-1029.499
475485.249,4417409.630,-1042.829
475485.249,4417209.630,-1051.000
475485.249,4417009.630,-1059.547
475485.249,4416809.630,-1071.042
475485.249,4416609.630,-1081.458
475485.249,4416409.630,-1091.059
475485.249,4416209.630,-1104.360
475485.249,4416009.630,-1118.085
475485.249,4415809.630,-1128.120
475485.249,4415609.630,-1130.913
475485.249,4415409.630,-1129.160
475485.249,4415209.630,-1124.905
475485.249,4415009.630,-1118.472
475485.249,4414809.630,-1117.252
475485.249,4414609.630,-1131.627
475485.249,4414409.630,-1149.299
475685.249,4432609.630,-630.489
475685.249,4432409.630,-652.811
475685.249,4432209.630,-677.318
475685.249,4432009.630,-698.151
475685.249,4431809.630,-701.589
475685.249,4431609.630,-696.243
475685.249,4431409.630,-700.922
475685.249,4431209.630,-723.853
475685.249,4431009.630,-753.914
475685.249,4430809.630,-783.599
475685.249,4430609.630,-808.020
475685.249,4430409.630,-824.571
475685.249,4430209.630,-845.966
475685.249,4430009.630,-870.509
475685.249,4429809.630,-883.889
475685.249,4429609.630,-890.431
475685.249,4429409.630,-896.433
475685.249,4429209.630,-902.720
475685.249,4429009.630,-906.374
475685.249,4428809.630,-909.029
475685.249,4428609.630,-913.391
475685.249,4428409.630,-916.623
475685.249,4428209.630,-917.676
475685.249,4428009.630,-923.353
475685.249,4427809.630,-974.421
475685.249,4427609.630,-1018.128
475685.249,4427409.630,-1037.774
475685.249,4427209.630,-1047.227
475685.249,4427009.630,-1053.624
475685.249,4426809.630,-1062.979
475685.249,4426609.630,-1071.817
475685.249,4426409.630,-1078.923
475685.249,4426209.630,-1087.743
475685.249,4426009.630,-1099.501
475685.249,4425809.630,-1104.302
475685.249,4425609.630,-1109.056
475685.249,4425409.630,-1112.890
475685.249,4425209.630,-1115.347
475685.249,4425009.630,-1117.311
475685.249,4424809.630,-1119.054
475685.249,4424609.630,-1120.023
475685.249,4424409.630,-1121.639
475685.249,4424209.630,-1121.264
475685.249,4424009.630,-1123.119
475685.249,4423809.630,-1127.166
475685.249,4423609.630,-1128.373
475685.249,4423409.630,-1131.115
475685.249,4423209.630,-1130.994
475685.249,4423009.630,-1131.324
475685.249,4422809.630,-1132.091
475685.249,4422609.630,-1133.200
475685.249,4422409.630,-1133.015
475685.249,4422209.630,-1132.251
475685.249,4422009.630,-1131.152
475685.249,4421809.630,-1129.865
475685.249,4421609.630,-1130.769
475685.249,4421409.630,-1130.256
475685.249,4421209.630,-1129.619
475685.249,4421009.630,-1127.592
475685.249,4420809.630,-1124.653
475685.249,4420609.630,-1111.172
475685.249,4420409.630,-1096.879
475685.249,4420209.630,-1080.204
475685.249,4420009.630,-1062.957
475685.249,4419809.630,-1050.620
475685.249,4419609.630,-1038.779
475685.249,4419409.630,-1038.477
475685.249,4419209.630,-1043.950
475685.249,4419009.630,-1044.455
475685.249,4418809.630,-1035.593
475685.249,4418609.630,-1024.957
475685.249,4418409.630,-1003.758
475685.249,4418209.630,-981.986
475685.249,4418009.630,-993.893
475685.249,4417809.630,-1009.740
475685.249,4417609.630,-1020.280
475685.249,4417409.630,-1030.460
475685.249,4417209.630,-1047.241
475685.249,4417009.630,-1059.745
475685.249,4416809.630,-1070.981
475685.249,4416609.630,-1079.720
475685.249,4416409.630,-1088.034
475685.249,4416209.630,-1100.927
475685.249,4416009.630,-1107.733
475685.249,4415809.630,-1104.071
475685.249,4415609.630,-1107.615
475685.249,4415409.630,-1109.438
475685.249,4415209.630,-1104.105
475685.249,4415009.630,-1096.581
475685.249,4414809.630,-1096.186
475685.249,4414609.630,-1106.173
475685.249,4414409.630,-1115.569
475885.249,4432609.630,-622.214
475885.249,4432409.630,-645.138
475885.249,4432209.630,-662.424
475885.249,4432009.630,-670.228
475885.249,4431809.630,-670.862
475885.249,4431609.630,-683.937
475885.249,4431409.630,-701.945
475885.249,4431209.630,-723.500
475885.249,4431009.630,-752.212
475885.249,4430809.630,-784.805
475885.249,4430609.630,-807.471
475885.249,4430409.630,-820.885
475885.249,4430209.630,-839.309
475885.249,4430009.630,-860.091
475885.249,4429809.630,-880.933
475885.249,4429609.630,-887.335
475885.249,4429409.630,-894.701
475885.249,4429209.630,-899.443
475885.249,4429009.630,-903.572
475885.249,4428809.630,-906.267
475885.249,4428609.630,-908.403
475885.249,4428409.630,-908.941
475885.249,4428209.630,-904.027
475885.249,4428009.630,-915.795
475885.249,4427809.630,-962.474
475885.249,4427609.630,-1008.671
475885.249,4427409.630,-1041.583
475885.249,4427209.630,-1051.867
475885.249,4427009.630,-1059.609
475885.249,4426809.630,-1069.454
475885.249,4426609.630,-1082.047
475885.249,4426409.630,-1088.113
475885.249,4426209.630,-1094.438
475885.249,4426009.630,-1099.727
475885.249,4425809.630,-1105.070
475885.249,4425609.630,-1108.074
475885.249,4425409.630,-1111.026
475885.249,4425209.630,-1113.490
475885.249,4425009.630,-1115.377
475885.249,4424809.630,-1117.954
475885.249,4424609.630,-1119.804
475885.249,4424409.630,-1121.176
475885.249,4424209.630,-1123.119
475885.249,4424009.630,-1122.664
475885.249,4423809.630,-1125.191
475885.249,4423609.630,-1127.384
475885.249,4423409.630,-1129.205
475885.249,4423209.630,-1130.088
475885.249,4423009.630,-1131.112
475885.249,4422809.630,-1132.097
475885.249,4422609.630,-1132.983
475885.249,4422409.630,-1132.174
475885.249,4422209.630,-1131.817
475885.249,4422009.630,-1130.582
475885.249,4421809.630,-1129.834
475885.249,4421609.630,-1128.633
475885.249,4421409.630,-1128.487
475885.249,4421209.630,-1125.681
475885.249,4421009.630,-1124.557
475885.249,4420809.630,-1119.654
475885.249,4420609.630,-1101.575
475885.249,4420409.630,-1073.185
475885.249,4420209.630,-1047.570
475885.249,4420009.630,-1027.578
475885.249,4419809.630,-1012.904
475885.249,4419609.630,-1003.738
475885.249,4419409.630,-1009.640
475885.249,4419209.630,-1010.479
475885.249,4419009.630,-1007.293
475885.249,4418809.630,-1001.463
475885.249,4418609.630,-981.455
475885.249,4418409.630,-962.782
475885.249,4418209.630,-976.433
475885.249,4418009.630,-992.253
475885.249,4417809.630,-1003.960
475885.249,4417609.630,-1011.847
475885.249,4417409.630,-1024.581
475885.249,4417209.630,-1042.241
475885.249,4417009.630,-1056.862
475885.249,4416809.630,-1068.091
475885.249,4416609.630,-1074.013
475885.249,4416409.630,-1080.563
475885.249,4416209.630,-1090.295
475885.249,4416009.630,-1084.381
475885.249,4415809.630,-1085.239
475885.249,4415609.630,-1092.354
475885.249,4415409.630,-1094.074
475885.249,4415209.630,-1078.673
475885.249,4415009.630,-1071.369
475885.249,4414809.630,-1071.065
475885.249,4414609.630,-1073.854
475885.249,4414409.630,-1077.771
476085.249,4432409.630,-631.898
476085.249,4432209.630,-641.409
476085.249,4432009.630,-658.032
476085.249,4431809.630,-671.873
476085.249,4431609.630,-689.013
476085.249,4431409.630,-705.562
476085.249,4431209.630,-725.087
476085.249,4431009.630,-752.232
476085.249,4430809.630,-782.426
476085.249,4430609.630,-806.789
476085.249,4430409.630,-824.995
476085.249,4430209.630,-840.884
476085.249,4430009.630,-858.309
476085.249,4429809.630,-881.130
476085.249,4429609.630,-887.111
476085.249,4429409.630,-892.134
476085.249,4429209.630,-897.519
476085.249,4429009.630,-900.411
476085.249,4428809.630,-901.447
476085.249,4428609.630,-900.103
476085.249,4428409.630,-898.711
476085.249,4428209.630,-899.502
476085.249,4428009.630,-917.941
476085.249,4427809.630,-954.154
476085.249,4427609.630,-1000.524
476085.249,4427409.630,-1044.887
476085.249,4427209.630,-1060.505
476085.249,4427009.630,-1068.691
476085.249,4426809.630,-1080.554
476085.249,4426609.630,-1088.390
476085.249,4426409.630,-1094.416
476085.249,4426209.630,-1096.453
476085.249,4426009.630,-1099.373
476085.249,4425809.630,-1105.669
476085.249,4425609.630,-1106.714
476085.249,4425409.630,-1109.287
476085.249,4425209.630,-1112.013
476085.249,4425009.630,-1113.884
476085.249,4424809.630,-1116.913
476085.249,4424609.630,-1119.616
476085.249,4424409.630,-1121.329
476085.249,4424209.630,-1123.872
476085.249,4424009.630,-1124.121
476085.249,4423809.630,-1123.991
476085.249,4423609.630,-1125.986
476085.249,4423409.630,-1127.236
476085.249,4423209.630,-1129.421
476085.249,4423009.630,-1131.278
476085.249,4422809.630,-1131.972
476085.249,4422609.630,-1131.867
476085.249,4422409.630,-1131.101
476085.249,4422209.630,-1130.231
476085.249,4422009.630,-1130.897
476085.249,4421809.630,-1129.391
476085.249,4421609.630,-1126.526
476085.249,4421409.630,-1123.452
476085.249,4421209.630,-1122.046
476085.249,4421009.630,-1112.681
476085.249,4420809.630,-1092.751
476085.249,4420609.630,-1060.047
476085.249,4420409.630,-1028.858
476085.249,4420209.630,-1009.455
476085.249,4420009.630,-989.042
476085.249,4419809.630,-972.659
476085.249,4419609.630,-961.123
476085.249,4419409.630,-964.216
476085.249,4419209.630,-964.998
476085.249,4419009.630,-965.500
476085.249,4418809.630,-952.756
476085.249,4418609.630,-936.483
476085.249,4418409.630,-955.538
476085.249,4418209.630,-978.778
476085.249,4418009.630,-989.612
476085.249,4417809.630,-997.828
476085.249,4417609.630,-1007.297
476085.249,4417409.630,-1019.205
476085.249,4417209.630,-1035.380
476085.249,4417009.630,-1051.681
476085.249,4416809.630,-1060.792
476085.249,4416609.630,-1069.756
476085.249,4416409.630,-1070.151
476085.249,4416209.630,-1067.082
476085.249,4416009.630,-1068.629
476085.249,4415809.630,-1071.388
476085.249,4415609.630,-1073.220
476085.249,4415409.630,-1065.635
476085.249,4415209.630,-1054.449
476085.249,4415009.630,-1048.614
476085.249,4414809.630,-1048.506
476085.249,4414609.630,-1044.604
476085.249,4414409.630,-1050.305
476285.249,4432409.630,-627.450
476285.249,4432209.630,-643.493
476285.249,4432009.630,-656.029
476285.249,4431809.630,-670.416
476285.249,4431609.630,-687.566
476285.249,4431409.630,-703.306
476285.249,4431209.630,-722.102
