420237.074,4317356.047,-177.589
420237.074,4317256.039,-177.406
420237.074,4317156.031,-177.291
420237.074,4317056.023,-177.286
420237.074,4316956.015,-177.206
420237.074,4316856.007,-177.108
420237.074,4316755.998,-176.840
420237.074,4316655.990,-176.634
420237.074,4316555.982,-176.513
420237.074,4316455.974,-176.337
420237.074,4316355.966,-176.302
420237.074,4316255.958,-176.288
420237.074,4316155.950,-176.129
420237.074,4316055.941,-176.017
420237.074,4315955.933,-175.848
420237.074,4315855.925,-175.664
420237.074,4315755.917,-175.469
420237.074,4315655.909,-175.338
420237.074,4315555.901,-175.303
420237.074,4315455.893,-175.289
420237.074,4315355.884,-175.361
420237.074,4315255.876,-175.534
420237.074,4315155.868,-175.669
420237.074,4315055.860,-175.638
420237.074,4314955.852,-175.543
420237.074,4314855.844,-175.375
420237.074,4314755.836,-175.304
420237.074,4314655.827,-175.358
420237.074,4314555.819,-175.443
420237.074,4314455.811,-175.481
420237.074,4314355.803,-175.486
420237.074,4314255.795,-175.423
420237.074,4314155.787,-175.280
420237.074,4314055.779,-175.093
420237.074,4313955.770,-174.887
420237.074,4313855.762,-174.684
420237.074,4313755.754,-174.486
420237.074,4313655.746,-174.344
420237.074,4313555.738,-174.292
420237.074,4313455.730,-174.286
420237.074,4313355.722,-174.286
420237.074,4313255.713,-174.286
420237.074,4313155.705,-174.286
420237.074,4313055.697,-174.286
420237.074,4312955.689,-174.293
420237.074,4312855.681,-174.340
420237.074,4312755.673,-174.386
420237.074,4312655.665,-174.424
420237.074,4312555.656,-174.516
420237.074,4312455.648,-174.693
420237.074,4312355.640,-174.982
420237.074,4312255.632,-175.279
420237.074,4312155.624,-175.603
420237.074,4312055.616,-175.944
420237.074,4311955.608,-176.304
420237.074,4311855.600,-176.811
420237.074,4311755.591,-177.395
420237.074,4311655.583,-177.931
420237.074,4311555.575,-178.290
420237.074,4311455.567,-178.475
420237.074,4311355.559,-178.570
420237.074,4311255.551,-178.713
420237.074,4311155.543,-179.051
420237.074,4311055.534,-179.565
420237.074,4310955.526,-180.194
420237.074,4310855.518,-180.820
420237.074,4310755.510,-181.214
420237.074,4310655.502,-181.485
420237.074,4310555.494,-181.669
420237.074,4310455.486,-181.887
420237.074,4310355.477,-182.260
420237.074,4310255.469,-182.753
420237.074,4310155.461,-183.480
420237.074,4310055.453,-184.457
420237.074,4309955.445,-185.422
420237.074,4309855.437,-186.214
420237.074,4309755.429,-186.844
420237.074,4309655.420,-187.545
420237.074,4309555.412,-188.322
420237.074,4309455.404,-189.108
420237.074,4309355.396,-189.999
420237.074,4309255.388,-191.078
420237.074,4309155.380,-192.242
420237.074,4309055.372,-193.500
420237.074,4308955.363,-194.788
420237.074,4308855.355,-196.140
420337.083,4344058.221,-181.874
420337.083,4343958.213,-181.874
420337.083,4343858.204,-181.984
420337.083,4343758.196,-182.096
420337.083,4343658.188,-182.112
420337.083,4343558.180,-182.195
420337.083,4343458.172,-182.269
420337.083,4343358.164,-182.091
420337.083,4343258.156,-181.905
420337.083,4343158.147,-181.720
420337.083,4343058.139,-181.601
420337.083,4342958.131,-181.598
420337.083,4342858.123,-181.600
420337.083,4342758.115,-181.589
420337.083,4342658.107,-181.577
420337.083,4342558.099,-181.574
420337.083,4342458.090,-181.656
420337.083,4342358.082,-181.835
420337.083,4342258.074,-181.954
420337.083,4342158.066,-181.974
420337.083,4342058.058,-181.888
420337.083,4341958.050,-181.710
420337.083,4341858.042,-181.522
420337.083,4341758.033,-181.410
420337.083,4341658.025,-181.315
420337.083,4341558.017,-181.287
420337.083,4341458.009,-181.348
420337.083,4341358.001,-181.306
420337.083,4341257.993,-181.198
420337.083,4341157.985,-181.037
420337.083,4341057.976,-180.917
420337.083,4340957.968,-180.887
420337.083,4340857.960,-180.887
420337.083,4340757.952,-180.941
420337.083,4340657.944,-181.036
420337.083,4340557.936,-181.015
420337.083,4340457.928,-180.908
420337.083,4340357.920,-180.746
420337.083,4340257.911,-180.605
420337.083,4340157.903,-180.506
420337.083,4340057.895,-180.408
420337.083,4339957.887,-180.309
420337.083,4339857.879,-180.210
420337.083,4339757.871,-180.162
420337.083,4339657.863,-180.168
420337.083,4339557.854,-180.223
420337.083,4339457.846,-180.274
420337.083,4339357.838,-180.274
420337.083,4339257.830,-180.269
420337.083,4339157.822,-180.218
420337.083,4339057.814,-180.119
420337.083,4338957.806,-180.062
420337.083,4338857.797,-180.062
420337.083,4338757.789,-180.067
420337.083,4338657.781,-180.074
420337.083,4338557.773,-180.032
420337.083,4338457.765,-179.930
420337.083,4338357.757,-179.839
420337.083,4338257.749,-179.736
420337.083,4338157.740,-179.629
420337.083,4338057.732,-179.503
420337.083,4337957.724,-179.371
420337.083,4337857.716,-179.332
420337.083,4337757.708,-179.205
420337.083,4337657.700,-179.008
420337.083,4337557.692,-178.862
420337.083,4337457.683,-178.843
420337.083,4337357.675,-178.808
420337.083,4337257.667,-178.903
420337.083,4337157.659,-179.067
420337.083,4337057.651,-179.389
420337.083,4336957.643,-179.702
420337.083,4336857.635,-179.726
420337.083,4336757.626,-179.528
420337.083,4336657.618,-179.348
420337.083,4336557.610,-179.293
420337.083,4336457.602,-179.442
420337.083,4336357.594,-179.759
420337.083,4336257.586,-180.097
420337.083,4336157.578,-180.164
420337.083,4336057.569,-180.077
420337.083,4335957.561,-180.133
420337.083,4335857.553,-180.563
420337.083,4335757.545,-181.286
420337.083,4335657.537,-181.869
420337.083,4335557.529,-181.981
420337.083,4335457.521,-181.728
420337.083,4335357.512,-181.295
420337.083,4335257.504,-180.900
420337.083,4335157.496,-180.677
420337.083,4335057.488,-180.491
420337.083,4334957.480,-179.908
420337.083,4334857.472,-178.455
420337.083,4334757.464,-176.830
420337.083,4334657.456,-175.639
420337.083,4334557.447,-175.109
420337.083,4334457.439,-175.365
420337.083,4334357.431,-176.732
420337.083,4334257.423,-178.161
420337.083,4334157.415,-179.048
420337.083,4334057.407,-179.164
420337.083,4333957.399,-178.975
420337.083,4333857.390,-180.678
420337.083,4333757.382,-183.349
420337.083,4333657.374,-185.250
420337.083,4333557.366,-186.129
420337.083,4333457.358,-186.523
420337.083,4333357.350,-186.766
420337.083,4333257.342,-186.535
420337.083,4333157.333,-186.224
420337.083,4333057.325,-186.490
420337.083,4332957.317,-186.879
420337.083,4332857.309,-186.939
420337.083,4332757.301,-186.548
420337.083,4332657.293,-185.694
420337.083,4332557.285,-185.226
420337.083,4332457.276,-185.123
420337.083,4332357.268,-184.892
420337.083,4332257.260,-184.587
420337.083,4332157.252,-184.234
420337.083,4332057.244,-183.970
420337.083,4331957.236,-183.781
420337.083,4331857.228,-183.657
420337.083,4331757.219,-183.623
420337.083,4331657.211,-183.683
420337.083,4331557.203,-183.665
420337.083,4331457.195,-183.559
420337.083,4331357.187,-183.406
420337.083,4331257.179,-183.269
420337.083,4331157.171,-183.116
420337.083,4331057.162,-182.918
420337.083,4330957.154,-182.721
420337.083,4330857.146,-182.818
420337.083,4330757.138,-183.177
420337.083,4330657.130,-183.499
420337.083,4330557.122,-183.568
420337.083,4330457.114,-183.444
420337.083,4330357.105,-183.362
420337.083,4330257.097,-183.198
420337.083,4330157.089,-182.868
420337.083,4330057.081,-182.314
420337.083,4329957.073,-181.736
420337.083,4329857.065,-181.188
420337.083,4329757.057,-180.693
420337.083,4329657.048,-180.368
420337.083,4329557.040,-179.992
420337.083,4329457.032,-179.481
420337.083,4329357.024,-179.009
420337.083,4329257.016,-178.765
420337.083,4329157.008,-178.630
420337.083,4329057.000,-178.446
420337.083,4328956.992,-178.498
420337.083,4328856.983,-178.550
420337.083,4328756.975,-178.662
420337.083,4328656.967,-178.535
420337.083,4328556.959,-178.310
420337.083,4328456.951,-178.190
420337.083,4328356.943,-178.241
420337.083,4328256.935,-178.426
420337.083,4328156.926,-178.599
420337.083,4328056.918,-178.639
420337.083,4327956.910,-178.339
420337.083,4327856.902,-178.125
420337.083,4327756.894,-177.873
420337.083,4327656.886,-177.835
420337.083,4327556.878,-177.635
420337.083,4327456.869,-177.352
420337.083,4327356.861,-177.198
420337.083,4327256.853,-177.298
420337.083,4327156.845,-177.410
420337.083,4327056.837,-177.483
420337.083,4326956.829,-177.075
420337.083,4326856.821,-176.485
420337.083,4326756.812,-176.209
420337.083,4326656.804,-176.164
420337.083,4326556.796,-175.865
420337.083,4326456.788,-176.185
420337.083,4326356.780,-176.111
420337.083,4326256.772,-176.295
420337.083,4326156.764,-176.238
420337.083,4326056.755,-176.608
420337.083,4325956.747,-176.718
420337.083,4325856.739,-176.887
420337.083,4325756.731,-177.269
420337.083,4325656.723,-177.584
420337.083,4325556.715,-177.690
420337.083,4325456.707,-177.977
420337.083,4325356.698,-178.286
420337.083,4325256.690,-178.433
420337.083,4325156.682,-178.867
420337.083,4325056.674,-179.095
420337.083,4324956.666,-179.291
420337.083,4324856.658,-179.571
420337.083,4324756.650,-179.857
420337.083,4324656.641,-180.081
420337.083,4324556.633,-180.203
420337.083,4324456.625,-180.077
420337.083,4324356.617,-179.989
420337.083,4324256.609,-179.747
420337.083,4324156.601,-179.525
420337.083,4324056.593,-179.401
420337.083,4323956.584,-179.311
420337.083,4323856.576,-179.216
420337.083,4323756.568,-179.065
420337.083,4323656.560,-178.815
420337.083,4323556.552,-178.599
420337.083,4323456.544,-178.472
420337.083,4323356.536,-178.438
420337.083,4323256.528,-178.301
420337.083,4323156.519,-178.044
420337.083,4323056.511,-177.930
420337.083,4322956.503,-177.811
420337.083,4322856.495,-177.506
420337.083,4322756.487,-177.277
420337.083,4322656.479,-177.067
420337.083,4322556.471,-176.838
420337.083,4322456.462,-176.682
420337.083,4322356.454,-176.619
420337.083,4322256.446,-176.613
420337.083,4322156.438,-176.658
420337.083,4322056.430,-176.744
420337.083,4321956.422,-176.843
420337.083,4321856.414,-176.912
420337.083,4321756.405,-176.973
420337.083,4321656.397,-177.060
420337.083,4321556.389,-177.185
420337.083,4321456.381,-177.414
420337.083,4321356.373,-177.800
420337.083,4321256.365,-178.147
420337.083,4321156.357,-178.137
420337.083,4321056.348,-177.981
420337.083,4320956.340,-177.874
420337.083,4320856.332,-177.775
420337.083,4320756.324,-177.740
420337.083,4320656.316,-177.892
420337.083,4320556.308,-178.189
420337.083,4320456.300,-178.490
420337.083,4320356.291,-178.763
420337.083,4320256.283,-178.957
420337.083,4320156.275,-179.117
420337.083,4320056.267,-179.212
420337.083,4319956.259,-179.302
420337.083,4319856.251,-179.378
420337.083,4319756.243,-179.390
420337.083,4319656.234,-179.427
420337.083,4319556.226,-179.532
420337.083,4319456.218,-179.621
420337.083,4319356.210,-179.703
420337.083,4319256.202,-179.713
420337.083,4319156.194,-179.713
420337.083,4319056.186,-179.715
420337.083,4318956.177,-179.710
420337.083,4318856.169,-179.624
420337.083,4318756.161,-179.599
420337.083,4318656.153,-179.511
420337.083,4318556.145,-179.489
420337.083,4318456.137,-179.380
420337.083,4318356.129,-179.191
420337.083,4318256.120,-179.092
420337.083,4318156.112,-178.987
420337.083,4318056.104,-178.801
420337.083,4317956.096,-178.608
420337.083,4317856.088,-178.509
420337.083,4317756.080,-178.408
420337.083,4317656.072,-178.197
420337.083,4317556.064,-177.913
420337.083,4317456.055,-177.702
420337.083,4317356.047,-177.505
420337.083,4317256.039,-177.391
420337.083,4317156.031,-177.208
420337.083,4317056.023,-177.188
420337.083,4316956.015,-177.187
420337.083,4316856.007,-177.095
420337.083,4316755.998,-176.917
420337.083,4316655.990,-176.720
420337.083,4316555.982,-176.523
420337.083,4316455.974,-176.412
420337.083,4316355.966,-176.314
420337.083,4316255.958,-176.215
420337.083,4316155.950,-176.105
420337.083,4316055.941,-176.015
420337.083,4315955.933,-175.929
420337.083,4315855.925,-175.832
420337.083,4315755.917,-175.653
420337.083,4315655.909,-175.456
420337.083,4315555.901,-175.325
420337.083,4315455.893,-175.224
420337.083,4315355.884,-175.266
420337.083,4315255.876,-175.426
420337.083,4315155.868,-175.611
420337.083,4315055.860,-175.680
420337.083,4314955.852,-175.626
420337.083,4314855.844,-175.461
420337.083,4314755.836,-175.332
420337.083,4314655.827,-175.291
420337.083,4314555.819,-175.287
420337.083,4314455.811,-175.344
420337.083,4314355.803,-175.374
420337.083,4314255.795,-175.320
420337.083,4314155.787,-175.287
420337.083,4314055.779,-175.174
420337.083,4313955.770,-174.930
420337.083,4313855.762,-174.696
420337.083,4313755.754,-174.499
420337.083,4313655.746,-174.350
420337.083,4313555.738,-174.245
420337.083,4313455.730,-174.193
420337.083,4313355.722,-174.181
420337.083,4313255.713,-174.174
420337.083,4313155.705,-174.181
420337.083,4313055.697,-174.187
420337.083,4312955.689,-174.235
420337.083,4312855.681,-174.287
420337.083,4312755.673,-174.281
420337.083,4312655.665,-174.280
420337.083,4312555.656,-174.331
420337.083,4312455.648,-174.472
420337.083,4312355.640,-174.706
420337.083,4312255.632,-174.990
420337.083,4312155.624,-175.240
420337.083,4312055.616,-175.470
420337.083,4311955.608,-175.754
420337.083,4311855.600,-176.110
420337.083,4311755.591,-176.626
420337.083,4311655.583,-177.211
420337.083,4311555.575,-177.744
420337.083,4311455.567,-178.062
420337.083,4311355.559,-178.149
420337.083,4311255.551,-178.207
420337.083,4311155.543,-178.453
420337.083,4311055.534,-178.906
420337.083,4310955.526,-179.589
420337.083,4310855.518,-180.256
420337.083,4310755.510,-180.786
420337.083,4310655.502,-181.064
420337.083,4310555.494,-181.183
420337.083,4310455.486,-181.279
420337.083,4310355.477,-181.379
420337.083,4310255.469,-181.607
420337.083,4310155.461,-182.201
420337.083,4310055.453,-183.074
420337.083,4309955.445,-184.063
420337.083,4309855.437,-185.029
420337.083,4309755.429,-185.832
420337.083,4309655.420,-186.536
420337.083,4309555.412,-187.241
420337.083,4309455.404,-187.952
420337.083,4309355.396,-188.744
420337.083,4309255.388,-189.708
420337.083,4309155.380,-190.689
420337.083,4309055.372,-191.771
420337.083,4308955.363,-193.020
420337.083,4308855.355,-194.274
420437.092,4344058.221,-181.688
420437.092,4343958.213,-181.700
420437.092,4343858.204,-181.883
420437.092,4343758.196,-182.092
420437.092,4343658.188,-182.195
420437.092,4343558.180,-182.189
420437.092,4343458.172,-182.096
420437.092,4343358.164,-181.905
420437.092,4343258.156,-181.798
420437.092,4343158.147,-181.699
420437.092,4343058.139,-181.522
420437.092,4342958.131,-181.577
420437.092,4342858.123,-181.588
420437.092,4342758.115,-181.504
420437.092,4342658.107,-181.405
420437.092,4342558.099,-181.398
420437.092,4342458.090,-181.481
420437.092,4342358.082,-181.651
420437.092,4342258.074,-181.758
420437.092,4342158.066,-181.768
420437.092,4342058.058,-181.621
420437.092,4341958.050,-181.434
420437.092,4341858.042,-181.314
420437.092,4341758.033,-181.280
420437.092,4341658.025,-181.213
420437.092,4341558.017,-181.197
420437.092,4341458.009,-181.192
420437.092,4341358.001,-181.112
420437.092,4341257.993,-180.941
420437.092,4341157.985,-180.818
420437.092,4341057.976,-180.788
420437.092,4340957.968,-180.788
420437.092,4340857.960,-180.788
420437.092,4340757.952,-180.781
420437.092,4340657.944,-180.824
420437.092,4340557.936,-180.794
420437.092,4340457.928,-180.636
420437.092,4340357.920,-180.445
420437.092,4340257.911,-180.309
420437.092,4340157.903,-180.204
420437.092,4340057.895,-180.106
420437.092,4339957.887,-180.012
420437.092,4339857.879,-179.919
420437.092,4339757.871,-179.877
420437.092,4339657.863,-179.927
420437.092,4339557.854,-180.025
420437.092,4339457.846,-180.071
420437.092,4339357.838,-180.060
420437.092,4339257.830,-180.009
420437.092,4339157.822,-179.915
420437.092,4339057.814,-179.827
420437.092,4338957.806,-179.777
420437.092,4338857.797,-179.777
420437.092,4338757.789,-179.816
420437.092,4338657.781,-179.872
420437.092,4338557.773,-179.795
420437.092,4338457.765,-179.677
420437.092,4338357.757,-179.638
420437.092,4338257.749,-179.497
420437.092,4338157.740,-179.336
420437.092,4338057.732,-179.242
420437.092,4337957.724,-179.135
420437.092,4337857.716,-179.036
420437.092,4337757.708,-178.909
420437.092,4337657.700,-178.714
420437.092,4337557.692,-178.580
420437.092,4337457.683,-178.610
420437.092,4337357.675,-178.680
420437.092,4337257.667,-178.756
420437.092,4337157.659,-179.074
420437.092,4337057.651,-179.424
420437.092,4336957.643,-179.544
420437.092,4336857.635,-179.418
420437.092,4336757.626,-179.222
420437.092,4336657.618,-179.069
420437.092,4336557.610,-179.134
420437.092,4336457.602,-179.454
420437.092,4336357.594,-179.822
420437.092,4336257.586,-179.977
420437.092,4336157.578,-179.969
420437.092,4336057.569,-179.917
420437.092,4335957.561,-180.129
420437.092,4335857.553,-180.668
420437.092,4335757.545,-181.640
420437.092,4335657.537,-182.325
420437.092,4335557.529,-182.591
420437.092,4335457.521,-181.995
420437.092,4335357.512,-181.296
420437.092,4335257.504,-180.912
420437.092,4335157.496,-180.516
420437.092,4335057.488,-180.403
420437.092,4334957.480,-179.820
420437.092,4334857.472,-178.390
420437.092,4334757.464,-176.425
420437.092,4334657.456,-174.716
420437.092,4334557.447,-173.544
420437.092,4334457.439,-173.219
420437.092,4334357.431,-175.061
420437.092,4334257.423,-177.473
420437.092,4334157.415,-179.364
420437.092,4334057.407,-180.364
420437.092,4333957.399,-180.790
420437.092,4333857.390,-182.300
420437.092,4333757.382,-184.416
420437.092,4333657.374,-185.848
420437.092,4333557.366,-186.647
420437.092,4333457.358,-187.161
420437.092,4333357.350,-187.536
420437.092,4333257.342,-187.552
420437.092,4333157.333,-187.324
420437.092,4333057.325,-187.316
420437.092,4332957.317,-187.440
420437.092,4332857.309,-187.168
420437.092,4332757.301,-186.543
420437.092,4332657.293,-185.652
420437.092,4332557.285,-184.932
420437.092,4332457.276,-184.513
420437.092,4332357.268,-184.071
420437.092,4332257.260,-183.709
420437.092,4332157.252,-183.420
420437.092,4332057.244,-183.199
420437.092,4331957.236,-183.068
420437.092,4331857.228,-183.038
420437.092,4331757.219,-183.042
420437.092,4331657.211,-183.095
420437.092,4331557.203,-183.066
420437.092,4331457.195,-182.918
420437.092,4331357.187,-182.786
420437.092,4331257.179,-182.687
420437.092,4331157.171,-182.541
420437.092,4331057.162,-182.349
420437.092,4330957.154,-182.157
420437.092,4330857.146,-182.216
420437.092,4330757.138,-182.655
420437.092,4330657.130,-183.135
420437.092,4330557.122,-183.237
420437.092,4330457.114,-182.977
420437.092,4330357.105,-182.612
420437.092,4330257.097,-182.287
420437.092,4330157.089,-181.902
420437.092,4330057.081,-181.220
420437.092,4329957.073,-180.473
420437.092,4329857.065,-179.818
420437.092,4329757.057,-179.198
420437.092,4329657.048,-178.656
420437.092,4329557.040,-178.238
420437.092,4329457.032,-177.881
420437.092,4329357.024,-177.814
420437.092,4329257.016,-177.960
420437.092,4329157.008,-178.013
420437.092,4329057.000,-177.797
420437.092,4328956.992,-177.719
420437.092,4328856.983,-177.756
420437.092,4328756.975,-177.860
420437.092,4328656.967,-177.905
420437.092,4328556.959,-178.016
420437.092,4328456.951,-178.126
420437.092,4328356.943,-178.231
420437.092,4328256.935,-178.318
420437.092,4328156.926,-178.443
420437.092,4328056.918,-178.576
420437.092,4327956.910,-178.153
420437.092,4327856.902,-177.943
420437.092,4327756.894,-177.695
420437.092,4327656.886,-177.584
420437.092,4327556.878,-177.449
420437.092,4327456.869,-177.178
420437.092,4327356.861,-177.109
420437.092,4327256.853,-177.205
420437.092,4327156.845,-177.381
420437.092,4327056.837,-177.527
420437.092,4326956.829,-177.145
420437.092,4326856.821,-176.443
420437.092,4326756.812,-175.586
420437.092,4326656.804,-175.231
420437.092,4326556.796,-174.838
420437.092,4326456.788,-175.285
420437.092,4326356.780,-175.395
420437.092,4326256.772,-175.506
420437.092,4326156.764,-175.724
420437.092,4326056.755,-176.008
420437.092,4325956.747,-176.125
420437.092,4325856.739,-176.131
420437.092,4325756.731,-176.480
420437.092,4325656.723,-176.874
420437.092,4325556.715,-176.928
420437.092,4325456.707,-177.288
420437.092,4325356.698,-177.693
420437.092,4325256.690,-178.013
420437.092,4325156.682,-178.387
420437.092,4325056.674,-178.547
420437.092,4324956.666,-178.723
420437.092,4324856.658,-178.992
420437.092,4324756.650,-179.205
420437.092,4324656.641,-179.474
420437.092,4324556.633,-179.610
420437.092,4324456.625,-179.562
420437.092,4324356.617,-179.714
420437.092,4324256.609,-179.547
420437.092,4324156.601,-179.328
420437.092,4324056.593,-179.203
420437.092,4323956.584,-179.177
420437.092,4323856.576,-179.114
420437.092,4323756.568,-179.088
420437.092,4323656.560,-178.967
420437.092,4323556.552,-178.852
420437.092,4323456.544,-178.756
420437.092,4323356.536,-178.723
420437.092,4323256.528,-178.530
420437.092,4323156.519,-178.297
420437.092,4323056.511,-178.161
420437.092,4322956.503,-178.069
420437.092,4322856.495,-177.862
420437.092,4322756.487,-177.577
420437.092,4322656.479,-177.394
420437.092,4322556.471,-177.227
420437.092,4322456.462,-176.975
420437.092,4322356.454,-176.792
420437.092,4322256.446,-176.734
420437.092,4322156.438,-176.723
420437.092,4322056.430,-176.723
420437.092,4321956.422,-176.817
420437.092,4321856.414,-177.014
420437.092,4321756.405,-177.176
420437.092,4321656.397,-177.199
420437.092,4321556.389,-177.193
420437.092,4321456.381,-177.318
420437.092,4321356.373,-177.709
420437.092,4321256.365,-178.177
420437.092,4321156.357,-178.269
420437.092,4321056.348,-178.144
420437.092,4320956.340,-177.985
420437.092,4320856.332,-177.882
420437.092,4320756.324,-177.775
420437.092,4320656.316,-177.809
420437.092,4320556.308,-178.090
420437.092,4320456.300,-178.416
420437.092,4320356.291,-178.744
420437.092,4320256.283,-178.919
420437.092,4320156.275,-179.018
420437.092,4320056.267,-179.088
420437.092,4319956.259,-179.116
420437.092,4319856.251,-179.214
420437.092,4319756.243,-179.316
420437.092,4319656.234,-179.445
420437.092,4319556.226,-179.591
420437.092,4319456.218,-179.621
420437.092,4319356.210,-179.720
420437.092,4319256.202,-179.802
420437.092,4319156.194,-179.812
420437.092,4319056.186,-179.827
420437.092,4318956.177,-179.886
420437.092,4318856.169,-179.797
420437.092,4318756.161,-179.698
420437.092,4318656.153,-179.601
420437.092,4318556.145,-179.512
420437.092,4318456.137,-179.403
420437.092,4318356.129,-179.213
420437.092,4318256.120,-179.103
420437.092,4318156.112,-178.993
420437.092,4318056.104,-178.889
420437.092,4317956.096,-178.695
420437.092,4317856.088,-178.596
420437.092,4317756.080,-178.482
420437.092,4317656.072,-178.209
420437.092,4317556.064,-178.000
420437.092,4317456.055,-177.703
420437.092,4317356.047,-177.505
420437.092,4317256.039,-177.307
420437.092,4317156.031,-177.205
420437.092,4317056.023,-177.095
420437.092,4316956.015,-177.067
420437.092,4316856.007,-176.984
420437.092,4316755.998,-176.886
420437.092,4316655.990,-176.718
420437.092,4316555.982,-176.533
420437.092,4316455.974,-176.414
420437.092,4316355.966,-176.314
420437.092,4316255.958,-176.205
420437.092,4316155.950,-176.030
420437.092,4316055.941,-176.000
420437.092,4315955.933,-176.009
420437.092,4315855.925,-175.931
420437.092,4315755.917,-175.752
420437.092,4315655.909,-175.555
420437.092,4315555.901,-175.357
420437.092,4315455.893,-175.235
420437.092,4315355.884,-175.203
420437.092,4315255.876,-175.265
420437.092,4315155.868,-175.361
420437.092,4315055.860,-175.524
420437.092,4314955.852,-175.585
420437.092,4314855.844,-175.466
420437.092,4314755.836,-175.343
420437.092,4314655.827,-175.244
420437.092,4314555.819,-175.204
420437.092,4314455.811,-175.192
420437.092,4314355.803,-175.188
420437.092,4314255.795,-175.188
420437.092,4314155.787,-175.188
420437.092,4314055.779,-175.135
420437.092,4313955.770,-174.988
420437.092,4313855.762,-174.795
420437.092,4313755.754,-174.597
420437.092,4313655.746,-174.400
420437.092,4313555.738,-174.250
420437.092,4313455.730,-174.146
420437.092,4313355.722,-174.047
420437.092,4313255.713,-174.000
420437.092,4313155.705,-174.039
420437.092,4313055.697,-174.077
420437.092,4312955.689,-174.125
420437.092,4312855.681,-174.177
420437.092,4312755.673,-174.136
420437.092,4312655.665,-174.128
420437.092,4312555.656,-174.220
420437.092,4312455.648,-174.362
420437.092,4312355.640,-174.559
420437.092,4312255.632,-174.757
420437.092,4312155.624,-174.950
420437.092,4312055.616,-175.141
420437.092,4311955.608,-175.339
420437.092,4311855.600,-175.604
420437.092,4311755.591,-176.022
420437.092,4311655.583,-176.534
420437.092,4311555.575,-177.084
420437.092,4311455.567,-177.527
420437.092,4311355.559,-177.753
420437.092,4311255.551,-177.831
420437.092,4311155.543,-178.017
420437.092,4311055.534,-178.310
420437.092,4310955.526,-178.917
420437.092,4310855.518,-179.576
420437.092,4310755.510,-180.146
420437.092,4310655.502,-180.599
420437.092,4310555.494,-180.868
420437.092,4310455.486,-180.965
420437.092,4310355.477,-180.947
420437.092,4310255.469,-180.894
420437.092,4310155.461,-181.121
420437.092,4310055.453,-181.732
420437.092,4309955.445,-182.689
420437.092,4309855.437,-183.668
420437.092,4309755.429,-184.634
420437.092,4309655.420,-185.438
420437.092,4309555.412,-186.250
420437.092,4309455.404,-187.034
420437.092,4309355.396,-187.755
420437.092,4309255.388,-188.551
420437.092,4309155.380,-189.434
420437.092,4309055.372,-190.400
420437.092,4308955.363,-191.383
420437.092,4308855.355,-192.518
420537.101,4344058.221,-181.610
420537.101,4343958.213,-181.698
420537.101,4343858.204,-181.797
420537.101,4343758.196,-182.068
420537.101,4343658.188,-182.174
420537.101,4343558.180,-182.085
420537.101,4343458.172,-181.977
420537.101,4343358.164,-181.795
420537.101,4343258.156,-181.689
420537.101,4343158.147,-181.590
420537.101,4343058.139,-181.500
420537.101,4342958.131,-181.490
420537.101,4342858.123,-181.481
420537.101,4342758.115,-181.403
420537.101,4342658.107,-181.306
420537.101,4342558.099,-181.372
420537.101,4342458.090,-181.471
420537.101,4342358.082,-181.562
420537.101,4342258.074,-181.587
420537.101,4342158.066,-181.512
420537.101,4342058.058,-181.413
420537.101,4341958.050,-181.306
420537.101,4341858.042,-181.205
420537.101,4341758.033,-181.113
420537.101,4341658.025,-181.097
420537.101,4341558.017,-181.164
420537.101,4341458.009,-181.112
420537.101,4341358.001,-180.941
420537.101,4341257.993,-180.744
420537.101,4341157.985,-180.679
420537.101,4341057.976,-180.686
420537.101,4340957.968,-180.690
420537.101,4340857.960,-180.683
420537.101,4340757.952,-180.617
420537.101,4340657.944,-180.512
420537.101,4340557.936,-180.403
420537.101,4340457.928,-180.247
420537.101,4340357.920,-180.111
420537.101,4340257.911,-180.012
420537.101,4340157.903,-179.864
420537.101,4340057.895,-179.779
420537.101,4339957.887,-179.732
420537.101,4339857.879,-179.690
420537.101,4339757.871,-179.690
420537.101,4339657.863,-179.729
420537.101,4339557.854,-179.812
420537.101,4339457.846,-179.816
420537.101,4339357.838,-179.727
420537.101,4339257.830,-179.634
420537.101,4339157.822,-179.579
420537.101,4339057.814,-179.579
420537.101,4338957.806,-179.584
420537.101,4338857.797,-179.590
420537.101,4338757.789,-179.625
420537.101,4338657.781,-179.641
420537.101,4338557.773,-179.542
420537.101,4338457.765,-179.475
420537.101,4338357.757,-179.399
420537.101,4338257.749,-179.205
420537.101,4338157.740,-179.076
420537.101,4338057.732,-179.006
420537.101,4337957.724,-178.838
420537.101,4337857.716,-178.739
420537.101,4337757.708,-178.615
420537.101,4337657.700,-178.455
420537.101,4337557.692,-178.413
420537.101,4337457.683,-178.482
420537.101,4337357.675,-178.513
420537.101,4337257.667,-178.657
420537.101,4337157.659,-178.971
420537.101,4337057.651,-179.267
420537.101,4336957.643,-179.220
420537.101,4336857.635,-179.022
420537.101,4336757.626,-178.845
420537.101,4336657.618,-178.814
420537.101,4336557.610,-179.060
420537.101,4336457.602,-179.462
420537.101,4336357.594,-179.790
420537.101,4336257.586,-179.788
420537.101,4336157.578,-179.789
420537.101,4336057.569,-179.891
420537.101,4335957.561,-180.057
420537.101,4335857.553,-180.666
420537.101,4335757.545,-181.613
420537.101,4335657.537,-182.362
420537.101,4335557.529,-182.628
420537.101,4335457.521,-182.041
420537.101,4335357.512,-181.286
420537.101,4335257.504,-181.000
420537.101,4335157.496,-180.615
420537.101,4335057.488,-180.405
420537.101,4334957.480,-179.820
420537.101,4334857.472,-178.569
420537.101,4334757.464,-176.558
420537.101,4334657.456,-174.793
420537.101,4334557.447,-173.320
420537.101,4334457.439,-172.548
420537.101,4334357.431,-174.171
420537.101,4334257.423,-177.121
420537.101,4334157.415,-180.030
420537.101,4334057.407,-181.812
420537.101,4333957.399,-182.735
420537.101,4333857.390,-183.840
420537.101,4333757.382,-185.328
420537.101,4333657.374,-186.559
420537.101,4333557.366,-187.321
420537.101,4333457.358,-187.658
420537.101,4333357.350,-187.686
420537.101,4333257.342,-187.757
420537.101,4333157.333,-187.711
420537.101,4333057.325,-187.591
420537.101,4332957.317,-187.298
420537.101,4332857.309,-186.747
420537.101,4332757.301,-186.016
420537.101,4332657.293,-185.246
420537.101,4332557.285,-184.468
420537.101,4332457.276,-183.810
420537.101,4332357.268,-183.274
420537.101,4332257.260,-182.908
420537.101,4332157.252,-182.690
420537.101,4332057.244,-182.570
420537.101,4331957.236,-182.475
420537.101,4331857.228,-182.499
420537.101,4331757.219,-182.538
420537.101,4331657.211,-182.532
420537.101,4331557.203,-182.417
420537.101,4331457.195,-182.338
420537.101,4331357.187,-182.293
420537.101,4331257.179,-182.209
420537.101,4331157.171,-182.121
420537.101,4331057.162,-181.969
420537.101,4330957.154,-181.839
420537.101,4330857.146,-181.961
420537.101,4330757.138,-182.336
420537.101,4330657.130,-182.645
420537.101,4330557.122,-182.619
420537.101,4330457.114,-182.222
420537.101,4330357.105,-181.664
420537.101,4330257.097,-181.192
420537.101,4330157.089,-180.662
420537.101,4330057.081,-179.944
420537.101,4329957.073,-179.245
420537.101,4329857.065,-178.574
420537.101,4329757.057,-177.737
420537.101,4329657.048,-177.018
420537.101,4329557.040,-176.709
420537.101,4329457.032,-176.641
420537.101,4329357.024,-176.807
420537.101,4329257.016,-177.064
420537.101,4329157.008,-177.195
420537.101,4329057.000,-177.163
420537.101,4328956.992,-177.044
420537.101,4328856.983,-177.169
420537.101,4328756.975,-177.523
420537.101,4328656.967,-177.751
420537.101,4328556.959,-177.946
420537.101,4328456.951,-178.136
420537.101,4328356.943,-178.290
420537.101,4328256.935,-178.294
420537.101,4328156.926,-178.320
420537.101,4328056.918,-178.303
420537.101,4327956.910,-178.022
420537.101,4327856.902,-177.835
420537.101,4327756.894,-177.742
420537.101,4327656.886,-177.558
420537.101,4327556.878,-177.329
420537.101,4327456.869,-177.058
420537.101,4327356.861,-177.058
420537.101,4327256.853,-177.057
420537.101,4327156.845,-177.055
420537.101,4327056.837,-177.121
420537.101,4326956.829,-177.007
420537.101,4326856.821,-176.349
420537.101,4326756.812,-175.558
420537.101,4326656.804,-174.786
420537.101,4326556.796,-174.291
420537.101,4326456.788,-174.370
420537.101,4326356.780,-174.526
420537.101,4326256.772,-174.724
420537.101,4326156.764,-175.106
420537.101,4326056.755,-175.329
420537.101,4325956.747,-175.537
420537.101,4325856.739,-175.558
420537.101,4325756.731,-175.734
420537.101,4325656.723,-176.105
420537.101,4325556.715,-176.337
420537.101,4325456.707,-176.734
420537.101,4325356.698,-177.192
420537.101,4325256.690,-177.623
420537.101,4325156.682,-177.937
420537.101,4325056.674,-178.233
420537.101,4324956.666,-178.363
420537.101,4324856.658,-178.544
420537.101,4324756.650,-178.750
420537.101,4324656.641,-178.925
420537.101,4324556.633,-179.046
420537.101,4324456.625,-179.069
420537.101,4324356.617,-179.376
420537.101,4324256.609,-179.325
420537.101,4324156.601,-179.138
420537.101,4324056.593,-179.016
420537.101,4323956.584,-178.982
420537.101,4323856.576,-178.979
420537.101,4323756.568,-178.979
420537.101,4323656.560,-178.986
420537.101,4323556.552,-178.997
420537.101,4323456.544,-178.947
420537.101,4323356.536,-178.921
420537.101,4323256.528,-178.734
420537.101,4323156.519,-178.518
420537.101,4323056.511,-178.390
420537.101,4322956.503,-178.346
420537.101,4322856.495,-178.228
420537.101,4322756.487,-178.034
420537.101,4322656.479,-177.831
420537.101,4322556.471,-177.572
420537.101,4322456.462,-177.331
420537.101,4322356.454,-177.182
420537.101,4322256.446,-177.030
420537.101,4322156.438,-176.942
420537.101,4322056.430,-176.936
420537.101,4321956.422,-176.976
420537.101,4321856.414,-177.167
420537.101,4321756.405,-177.421
420537.101,4321656.397,-177.577
420537.101,4321556.389,-177.595
420537.101,4321456.381,-177.587
420537.101,4321356.373,-177.790
420537.101,4321256.365,-178.121
420537.101,4321156.357,-178.335
420537.101,4321056.348,-178.329
420537.101,4320956.340,-178.186
420537.101,4320856.332,-178.057
420537.101,4320756.324,-177.884
420537.101,4320656.316,-177.831
420537.101,4320556.308,-177.984
420537.101,4320456.300,-178.271
420537.101,4320356.291,-178.574
420537.101,4320256.283,-178.810
420537.101,4320156.275,-178.909
420537.101,4320056.267,-178.979
420537.101,4319956.259,-179.006
420537.101,4319856.251,-179.108
420537.101,4319756.243,-179.239
420537.101,4319656.234,-179.416
420537.101,4319556.226,-179.523
420537.101,4319456.218,-179.624
420537.101,4319356.210,-179.729
420537.101,4319256.202,-179.819
420537.101,4319156.194,-179.900
420537.101,4319056.186,-179.902
420537.101,4318956.177,-179.909
420537.101,4318856.169,-179.887
420537.101,4318756.161,-179.798
420537.101,4318656.153,-179.721
420537.101,4318556.145,-179.708
420537.101,4318456.137,-179.590
420537.101,4318356.129,-179.392
420537.101,4318256.120,-179.195
420537.101,4318156.112,-179.003
420537.101,4318056.104,-178.889
420537.101,4317956.096,-178.695
420537.101,4317856.088,-178.593
420537.101,4317756.080,-178.398
420537.101,4317656.072,-178.297
420537.101,4317556.064,-178.000
420537.101,4317456.055,-177.703
420537.101,4317356.047,-177.505
420537.101,4317256.039,-177.307
420537.101,4317156.031,-177.205
420537.101,4317056.023,-177.011
420537.101,4316956.015,-176.814
420537.101,4316856.007,-176.790
420537.101,4316755.998,-176.699
420537.101,4316655.990,-176.680
420537.101,4316555.982,-176.600
420537.101,4316455.974,-176.433
420537.101,4316355.966,-176.324
420537.101,4316255.958,-176.131
420537.101,4316155.950,-176.007
420537.101,4316055.941,-175.998
420537.101,4315955.933,-176.073
420537.101,4315855.925,-176.009
420537.101,4315755.917,-175.839
420537.101,4315655.909,-175.651
420537.101,4315555.901,-175.456
420537.101,4315455.893,-175.334
420537.101,4315355.884,-175.227
420537.101,4315255.876,-175.200
420537.101,4315155.868,-175.265
420537.101,4315055.860,-175.361
420537.101,4314955.852,-175.460
420537.101,4314855.844,-175.497
420537.101,4314755.836,-175.439
420537.101,4314655.827,-175.343
420537.101,4314555.819,-175.244
420537.101,4314455.811,-175.139
420537.101,4314355.803,-175.093
420537.101,4314255.795,-175.090
420537.101,4314155.787,-175.090
420537.101,4314055.779,-175.090
420537.101,4313955.770,-175.030
420537.101,4313855.762,-174.879
420537.101,4313755.754,-174.692
420537.101,4313655.746,-174.499
420537.101,4313555.738,-174.306
420537.101,4313455.730,-174.162
420537.101,4313355.722,-174.052
420537.101,4313255.713,-174.000
420537.101,4313155.705,-173.950
420537.101,4313055.697,-173.895
420537.101,4312955.689,-173.933
420537.101,4312855.681,-173.979
420537.101,4312755.673,-173.979
420537.101,4312655.665,-173.979
420537.101,4312555.656,-174.023
420537.101,4312455.648,-174.164
420537.101,4312355.640,-174.362
420537.101,4312255.632,-174.559
420537.101,4312155.624,-174.718
420537.101,4312055.616,-174.851
420537.101,4311955.608,-175.042
420537.101,4311855.600,-175.272
420537.101,4311755.591,-175.593
420537.101,4311655.583,-175.978
420537.101,4311555.575,-176.431
420537.101,4311455.567,-176.965
420537.101,4311355.559,-177.341
420537.101,4311255.551,-177.587
420537.101,4311155.543,-177.689
420537.101,4311055.534,-177.899
420537.101,4310955.526,-178.411
420537.101,4310855.518,-179.002
420537.101,4310755.510,-179.562
420537.101,4310655.502,-180.024
420537.101,4310555.494,-180.392
420537.101,4310455.486,-180.642
420537.101,4310355.477,-180.644
420537.101,4310255.469,-180.560
420537.101,4310155.461,-180.498
420537.101,4310055.453,-180.749
420537.101,4309955.445,-181.429
420537.101,4309855.437,-182.304
420537.101,4309755.429,-183.273
420537.101,4309655.420,-184.182
420537.101,4309555.412,-185.143
420537.101,4309455.404,-185.953
420537.101,4309355.396,-186.845
420537.101,4309255.388,-187.646
420537.101,4309155.380,-188.437
420537.101,4309055.372,-189.231
420537.101,4308955.363,-190.101
420537.101,4308855.355,-190.978
420637.110,4344058.221,-181.709
420637.110,4343958.213,-181.709
420637.110,4343858.204,-181.797
420637.110,4343758.196,-181.887
420637.110,4343658.188,-181.968
420637.110,4343558.180,-181.879
420637.110,4343458.172,-181.696
420637.110,4343358.164,-181.590
420637.110,4343258.156,-181.491
420637.110,4343158.147,-181.392
420637.110,4343058.139,-181.382
420637.110,4342958.131,-181.382
420637.110,4342858.123,-181.304
420637.110,4342758.115,-181.283
420637.110,4342658.107,-181.213
420637.110,4342558.099,-181.282
420637.110,4342458.090,-181.381
420637.110,4342358.082,-181.400
420637.110,4342258.074,-181.465
420637.110,4342158.066,-181.404
420637.110,4342058.058,-181.305
420637.110,4341958.050,-181.130
420637.110,4341858.042,-181.007
420637.110,4341758.033,-180.982
420637.110,4341658.025,-181.054
420637.110,4341558.017,-181.082
420637.110,4341458.009,-180.942
420637.110,4341358.001,-180.744
420637.110,4341257.993,-180.552
420637.110,4341157.985,-180.491
420637.110,4341057.976,-180.550
420637.110,4340957.968,-180.576
420637.110,4340857.960,-180.509
420637.110,4340757.952,-180.410
420637.110,4340657.944,-180.250
420637.110,4340557.936,-180.058
420637.110,4340457.928,-179.917
420637.110,4340357.920,-179.815
420637.110,4340257.911,-179.721
420637.110,4340157.903,-179.626
420637.110,4340057.895,-179.582
420637.110,4339957.887,-179.582
420637.110,4339857.879,-179.582
420637.110,4339757.871,-179.577
420637.110,4339657.863,-179.523
420637.110,4339557.854,-179.472
420637.110,4339457.846,-179.472
420637.110,4339357.838,-179.472
420637.110,4339257.830,-179.431
420637.110,4339157.822,-179.386
420637.110,4339057.814,-179.391
420637.110,4338957.806,-179.433
420637.110,4338857.797,-179.491
420637.110,4338757.789,-179.484
420637.110,4338657.781,-179.438
420637.110,4338557.773,-179.341
420637.110,4338457.765,-179.236
420637.110,4338357.757,-179.102
420637.110,4338257.749,-178.939
420637.110,4338157.740,-178.840
420637.110,4338057.732,-178.709
420637.110,4337957.724,-178.542
420637.110,4337857.716,-178.440
420637.110,4337757.708,-178.338
420637.110,4337657.700,-178.272
420637.110,4337557.692,-178.275
420637.110,4337457.683,-178.309
420637.110,4337357.675,-178.415
420637.110,4337257.667,-178.557
420637.110,4337157.659,-178.821
420637.110,4337057.651,-178.943
420637.110,4336957.643,-178.825
420637.110,4336857.635,-178.630
420637.110,4336757.626,-178.502
420637.110,4336657.618,-178.665
420637.110,4336557.610,-179.081
420637.110,4336457.602,-179.527
420637.110,4336357.594,-179.701
420637.110,4336257.586,-179.699
420637.110,4336157.578,-179.629
420637.110,4336057.569,-179.755
420637.110,4335957.561,-180.166
420637.110,4335857.553,-180.663
420637.110,4335757.545,-181.304
420637.110,4335657.537,-181.848
420637.110,4335557.529,-182.101
420637.110,4335457.521,-181.615
420637.110,4335357.512,-181.133
420637.110,4335257.504,-180.936
420637.110,4335157.496,-180.675
420637.110,4335057.488,-180.397
420637.110,4334957.480,-179.811
420637.110,4334857.472,-178.636
420637.110,4334757.464,-176.883
420637.110,4334657.456,-175.418
420637.110,4334557.447,-174.264
420637.110,4334457.439,-173.380
420637.110,4334357.431,-174.837
420637.110,4334257.423,-177.881
420637.110,4334157.415,-180.938
420637.110,4334057.407,-183.032
420637.110,4333957.399,-184.162
420637.110,4333857.390,-185.052
420637.110,4333757.382,-186.249
420637.110,4333657.374,-187.246
420637.110,4333557.366,-187.778
420637.110,4333457.358,-187.776
420637.110,4333357.350,-187.526
420637.110,4333257.342,-187.526
420637.110,4333157.333,-187.531
420637.110,4333057.325,-187.205
420637.110,4332957.317,-186.493
420637.110,4332857.309,-185.631
420637.110,4332757.301,-184.966
420637.110,4332657.293,-184.375
420637.110,4332557.285,-183.712
420637.110,4332457.276,-183.020
420637.110,4332357.268,-182.402
420637.110,4332257.260,-182.022
420637.110,4332157.252,-181.938
420637.110,4332057.244,-181.945
420637.110,4331957.236,-181.888
420637.110,4331857.228,-181.899
420637.110,4331757.219,-181.926
420637.110,4331657.211,-181.878
420637.110,4331557.203,-181.787
420637.110,4331457.195,-181.750
420637.110,4331357.187,-181.815
420637.110,4331257.179,-181.878
420637.110,4331157.171,-181.891
420637.110,4331057.162,-181.738
420637.110,4330957.154,-181.768
420637.110,4330857.146,-182.083
420637.110,4330757.138,-182.254
420637.110,4330657.130,-182.154
420637.110,4330557.122,-181.775
420637.110,4330457.114,-181.219
420637.110,4330357.105,-180.582
420637.110,4330257.097,-179.917
420637.110,4330157.089,-179.312
420637.110,4330057.081,-178.724
420637.110,4329957.073,-178.131
420637.110,4329857.065,-177.459
420637.110,4329757.057,-176.569
420637.110,4329657.048,-175.768
420637.110,4329557.040,-175.594
420637.110,4329457.032,-175.752
420637.110,4329357.024,-175.914
420637.110,4329257.016,-176.108
420637.110,4329157.008,-176.198
420637.110,4329057.000,-176.410
420637.110,4328956.992,-176.501
420637.110,4328856.983,-176.776
420637.110,4328756.975,-177.232
420637.110,4328656.967,-177.726
420637.110,4328556.959,-177.910
420637.110,4328456.951,-178.048
420637.110,4328356.943,-178.209
420637.110,4328256.935,-178.247
420637.110,4328156.926,-178.312
420637.110,4328056.918,-177.935
420637.110,4327956.910,-177.635
420637.110,4327856.902,-177.387
420637.110,4327756.894,-177.465
420637.110,4327656.886,-177.419
420637.110,4327556.878,-177.039
420637.110,4327456.869,-176.688
420637.110,4327356.861,-176.665
420637.110,4327256.853,-176.674
420637.110,4327156.845,-176.590
420637.110,4327056.837,-176.488
420637.110,4326956.829,-176.545
420637.110,4326856.821,-176.223
420637.110,4326756.812,-175.455
420637.110,4326656.804,-174.783
420637.110,4326556.796,-174.207
420637.110,4326456.788,-174.099
420637.110,4326356.780,-173.892
420637.110,4326256.772,-174.069
420637.110,4326156.764,-174.364
420637.110,4326056.755,-174.765
420637.110,4325956.747,-175.075
420637.110,4325856.739,-175.193
420637.110,4325756.731,-175.301
420637.110,4325656.723,-175.584
420637.110,4325556.715,-175.962
420637.110,4325456.707,-176.519
420637.110,4325356.698,-176.774
420637.110,4325256.690,-177.425
420637.110,4325156.682,-177.768
420637.110,4325056.674,-178.063
420637.110,4324956.666,-178.201
420637.110,4324856.658,-178.383
420637.110,4324756.650,-178.655
420637.110,4324656.641,-178.629
420637.110,4324556.633,-178.753
420637.110,4324456.625,-178.791
420637.110,4324356.617,-179.084
420637.110,4324256.609,-179.111
420637.110,4324156.601,-179.030
420637.110,4324056.593,-178.936
420637.110,4323956.584,-178.830
420637.110,4323856.576,-178.807
420637.110,4323756.568,-178.809
420637.110,4323656.560,-178.878
420637.110,4323556.552,-178.977
420637.110,4323456.544,-179.082
420637.110,4323356.536,-179.118
420637.110,4323256.528,-179.007
420637.110,4323156.519,-178.946
420637.110,4323056.511,-178.884
420637.110,4322956.503,-178.785
420637.110,4322856.495,-178.686
420637.110,4322756.487,-178.528
420637.110,4322656.479,-178.273
420637.110,4322556.471,-177.971
420637.110,4322456.462,-177.726
420637.110,4322356.454,-177.523
420637.110,4322256.446,-177.379
420637.110,4322156.438,-177.337
420637.110,4322056.430,-177.286
420637.110,4321956.422,-177.232
420637.110,4321856.414,-177.369
420637.110,4321756.405,-177.656
420637.110,4321656.397,-177.860
420637.110,4321556.389,-177.964
420637.110,4321456.381,-177.974
420637.110,4321356.373,-177.957
420637.110,4321256.365,-178.081
420637.110,4321156.357,-178.255
420637.110,4321056.348,-178.370
420637.110,4320956.340,-178.385
420637.110,4320856.332,-178.320
420637.110,4320756.324,-178.059
420637.110,4320656.316,-177.800
420637.110,4320556.308,-177.816
420637.110,4320456.300,-178.010
420637.110,4320356.291,-178.370
420637.110,4320256.283,-178.612
420637.110,4320156.275,-178.711
420637.110,4320056.267,-178.784
420637.110,4319956.259,-178.818
420637.110,4319856.251,-178.940
420637.110,4319756.243,-179.131
420637.110,4319656.234,-179.331
420637.110,4319556.226,-179.515
420637.110,4319456.218,-179.641
420637.110,4319356.210,-179.793
420637.110,4319256.202,-179.817
420637.110,4319156.194,-179.891
420637.110,4319056.186,-179.908
420637.110,4318956.177,-179.976
420637.110,4318856.169,-179.900
420637.110,4318756.161,-179.899
420637.110,4318656.153,-179.891
420637.110,4318556.145,-179.869
420637.110,4318456.137,-179.681
420637.110,4318356.129,-179.491
420637.110,4318256.120,-179.293
420637.110,4318156.112,-179.096
420637.110,4318056.104,-178.897
420637.110,4317956.096,-178.695
420637.110,4317856.088,-178.593
420637.110,4317756.080,-178.398
420637.110,4317656.072,-178.288
420637.110,4317556.064,-178.000
420637.110,4317456.055,-177.712
420637.110,4317356.047,-177.514
420637.110,4317256.039,-177.325
420637.110,4317156.031,-177.214
420637.110,4317056.023,-177.020
420637.110,4316956.015,-176.823
420637.110,4316856.007,-176.700
420637.110,4316755.998,-176.600
420637.110,4316655.990,-176.501
420637.110,4316555.982,-176.499
420637.110,4316455.974,-176.500
420637.110,4316355.966,-176.414
420637.110,4316255.958,-176.152
420637.110,4316155.950,-175.933
420637.110,4316055.941,-175.975
420637.110,4315955.933,-175.983
420637.110,4315855.925,-175.908
420637.110,4315755.917,-175.811
420637.110,4315655.909,-175.719
420637.110,4315555.901,-175.552
420637.110,4315455.893,-175.433
420637.110,4315355.884,-175.259
420637.110,4315255.876,-175.202
420637.110,4315155.868,-175.200
420637.110,4315055.860,-175.265
420637.110,4314955.852,-175.361
420637.110,4314855.844,-175.460
420637.110,4314755.836,-175.497
420637.110,4314655.827,-175.439
420637.110,4314555.819,-175.337
420637.110,4314455.811,-175.170
420637.110,4314355.803,-175.030
420637.110,4314255.795,-174.985
420637.110,4314155.787,-174.982
420637.110,4314055.779,-174.982
420637.110,4313955.770,-174.928
420637.110,4313855.762,-174.838
420637.110,4313755.754,-174.743
420637.110,4313655.746,-174.598
420637.110,4313555.738,-174.464
420637.110,4313455.730,-174.311
420637.110,4313355.722,-174.113
420637.110,4313255.713,-174.009
