634036.456,4396771.198,-191.12 
634036.456,4396671.287,-188.32 
634036.456,4396571.376,-185.48 
634036.456,4396471.465,-182.2 
634036.456,4396371.554,-179.55 
634036.456,4396271.643,-177.78 
634036.456,4396171.733,-175.55 
634036.456,4396071.822,-173.17 
634036.456,4395971.911,-171.3 
634036.456,4395872.000,-168.3 
634036.456,4395772.089,-165.11 
634036.456,4395672.178,-162.23 
634036.456,4395572.267,-159.29 
634036.456,4395472.357,-156.43 
634036.456,4395372.446,-154.68 
634036.456,4395272.535,-154.85 
634036.456,4395172.624,-154.39 
634036.456,4395072.713,-151.96 
634036.456,4394972.802,-149.03 
634036.456,4394872.891,-145.79 
634036.456,4394772.981,-143.16 
634036.456,4394673.070,-143.4 
634136.214,4408760.501,-131 
634136.214,4408660.590,-133.45 
634136.214,4408560.679,-136.04 
634136.214,4408460.768,-139.52 
634136.214,4408360.858,-142.43 
634136.214,4408260.947,-145.7 
634136.214,4408161.036,-148.65 
634136.214,4408061.125,-151.64 
634136.214,4407961.214,-155.29 
634136.214,4407861.303,-156.77 
634136.214,4407761.392,-159 
634136.214,4407661.482,-162.62 
634136.214,4407561.571,-163.89 
634136.214,4407461.660,-165.81 
634136.214,4407361.749,-168.51 
634136.214,4407261.838,-170.89 
634136.214,4407161.927,-173.63 
634136.214,4407062.016,-177.2 
634136.214,4406962.106,-179.37 
634136.214,4406862.195,-180.76 
634136.214,4406762.284,-183.46 
634136.214,4406662.373,-185.82 
634136.214,4406562.462,-188.35 
634136.214,4406462.551,-190.46 
634136.214,4406362.640,-191.26 
634136.214,4406262.729,-192.2 
634136.214,4406162.819,-193.52 
634136.214,4406062.908,-194.81 
634136.214,4405962.997,-195.4 
634136.214,4405863.086,-195.7 
634136.214,4405763.175,-196.71 
634136.214,4405663.264,-197.51 
634136.214,4405563.353,-198.36 
634136.214,4405463.443,-198.58 
634136.214,4405363.532,-198.82 
634136.214,4405263.621,-199.67 
634136.214,4405163.710,-200.86 
634136.214,4405063.799,-200.21 
634136.214,4404963.888,-200.36 
634136.214,4404863.977,-201.4 
634136.214,4404764.067,-202.55 
634136.214,4404664.156,-203.91 
634136.214,4404564.245,-205.26 
634136.214,4404464.334,-206.64 
634136.214,4404364.423,-208.68 
634136.214,4404264.512,-211.21 
634136.214,4404164.601,-214 
634136.214,4404064.691,-217.57 
634136.214,4403964.780,-221.62 
634136.214,4403864.869,-224.68 
634136.214,4403764.958,-227.78 
634136.214,4403665.047,-230.34 
634136.214,4403565.136,-228.7 
634136.214,4403465.225,-223.5 
634136.214,4403365.315,-216.52 
634136.214,4403265.404,-209.32 
634136.214,4403165.493,-202.58 
634136.214,4403065.582,-200.33 
634136.214,4402965.671,-201.24 
634136.214,4402865.760,-202.61 
634136.214,4402765.849,-203.51 
634136.214,4402665.939,-203.97 
634136.214,4402566.028,-204.51 
634136.214,4402466.117,-205.17 
634136.214,4402366.206,-205.98 
634136.214,4402266.295,-207.06 
634136.214,4402166.384,-207.77 
634136.214,4402066.473,-209.07 
634136.214,4401966.562,-209.64 
634136.214,4401866.652,-209.84 
634136.214,4401766.741,-210.44 
634136.214,4401666.830,-211.32 
634136.214,4401566.919,-211.57 
634136.214,4401467.008,-211.52 
634136.214,4401367.097,-211.58 
634136.214,4401267.186,-211.47 
634136.214,4401167.276,-211.14 
634136.214,4401067.365,-210.5 
634136.214,4400967.454,-210.55 
634136.214,4400867.543,-211.3 
634136.214,4400767.632,-211.22 
634136.214,4400667.721,-210.39 
634136.214,4400567.810,-209.77 
634136.214,4400467.900,-209.98 
634136.214,4400367.989,-210.57 
634136.214,4400268.078,-211.03 
634136.214,4400168.167,-211.7 
634136.214,4400068.256,-212.61 
634136.214,4399968.345,-214.24 
634136.214,4399868.434,-215.27 
634136.214,4399768.524,-214.52 
634136.214,4399668.613,-213.42 
634136.214,4399568.702,-212.83 
634136.214,4399468.791,-211.07 
634136.214,4399368.880,-214.96 
634136.214,4399268.969,-217.32 
634136.214,4399169.058,-216.1 
634136.214,4399069.148,-214.87 
634136.214,4398969.237,-213.37 
634136.214,4398869.326,-213.26 
634136.214,4398769.415,-209.42 
634136.214,4398669.504,-205.58 
634136.214,4398569.593,-206.71 
634136.214,4398469.682,-208.3 
634136.214,4398369.772,-208.6 
634136.214,4398269.861,-208.13 
634136.214,4398169.950,-208.03 
634136.214,4398070.039,-207.94 
634136.214,4397970.128,-208.84 
634136.214,4397870.217,-211.44 
634136.214,4397770.306,-210.12 
634136.214,4397670.395,-209.44 
634136.214,4397570.485,-210.83 
634136.214,4397470.574,-209.72 
634136.214,4397370.663,-207.11 
634136.214,4397270.752,-204.96 
634136.214,4397170.841,-202.65 
634136.214,4397070.930,-200.85 
634136.214,4396971.019,-199.32 
634136.214,4396871.109,-197.6 
634136.214,4396771.198,-195.99 
634136.214,4396671.287,-193.61 
634136.214,4396571.376,-190.29 
634136.214,4396471.465,-187.61 
634136.214,4396371.554,-185.98 
634136.214,4396271.643,-184.2 
634136.214,4396171.733,-181.69 
634136.214,4396071.822,-179.37 
634136.214,4395971.911,-176.96 
634136.214,4395872.000,-174.25 
634136.214,4395772.089,-171.9 
634136.214,4395672.178,-169.31 
634136.214,4395572.267,-166.21 
634136.214,4395472.357,-163.16 
634136.214,4395372.446,-162.6 
634136.214,4395272.535,-163.57 
634136.214,4395172.624,-163.22 
634136.214,4395072.713,-160.87 
634136.214,4394972.802,-157.09 
634136.214,4394872.891,-153 
634136.214,4394772.981,-149.57 
634136.214,4394673.070,-146.16 
634136.214,4394573.159,-143.73 
634136.214,4394473.248,-142.12 
634136.214,4394373.337,-139.73 
634235.971,4408860.412,-131.24 
634235.971,4408760.501,-133.47 
634235.971,4408660.590,-137.07 
634235.971,4408560.679,-140.1 
634235.971,4408460.768,-143.04 
634235.971,4408360.858,-146.69 
634235.971,4408260.947,-149.88 
634235.971,4408161.036,-152.89 
634235.971,4408061.125,-155.66 
634235.971,4407961.214,-159.07 
634235.971,4407861.303,-161.44 
634235.971,4407761.392,-163.18 
634235.971,4407661.482,-166.35 
634235.971,4407561.571,-168.54 
634235.971,4407461.660,-169.82 
634235.971,4407361.749,-172.05 
634235.971,4407261.838,-174.3 
634235.971,4407161.927,-176.9 
634235.971,4407062.016,-180.01 
634235.971,4406962.106,-183.34 
634235.971,4406862.195,-184.82 
634235.971,4406762.284,-186.54 
634235.971,4406662.373,-189.16 
634235.971,4406562.462,-191.11 
634235.971,4406462.551,-192.99 
634235.971,4406362.640,-194.32 
634235.971,4406262.729,-195.27 
634235.971,4406162.819,-196.06 
634235.971,4406062.908,-197.11 
634235.971,4405962.997,-197.8 
634235.971,4405863.086,-198.8 
634235.971,4405763.175,-199.73 
634235.971,4405663.264,-200.47 
634235.971,4405563.353,-201.26 
634235.971,4405463.443,-201.62 
634235.971,4405363.532,-201.77 
634235.971,4405263.621,-202.76 
634235.971,4405163.710,-203.69 
634235.971,4405063.799,-203.08 
634235.971,4404963.888,-203.31 
634235.971,4404863.977,-204.33 
634235.971,4404764.067,-205.32 
634235.971,4404664.156,-206.41 
634235.971,4404564.245,-207.38 
634235.971,4404464.334,-208.69 
634235.971,4404364.423,-211.11 
634235.971,4404264.512,-213.9 
634235.971,4404164.601,-216.98 
634235.971,4404064.691,-220.67 
634235.971,4403964.780,-224.91 
634235.971,4403864.869,-227.91 
634235.971,4403764.958,-230.71 
634235.971,4403665.047,-232.52 
634235.971,4403565.136,-231.17 
634235.971,4403465.225,-225.94 
634235.971,4403365.315,-218.69 
634235.971,4403265.404,-210.32 
634235.971,4403165.493,-204.61 
634235.971,4403065.582,-203.41 
634235.971,4402965.671,-204.56 
634235.971,4402865.760,-205.57 
634235.971,4402765.849,-206.31 
634235.971,4402665.939,-206.95 
634235.971,4402566.028,-207.64 
634235.971,4402466.117,-208.1 
634235.971,4402366.206,-208.56 
634235.971,4402266.295,-209.41 
634235.971,4402166.384,-210.16 
634235.971,4402066.473,-211.47 
634235.971,4401966.562,-212.35 
634235.971,4401866.652,-212.72 
634235.971,4401766.741,-213.09 
634235.971,4401666.830,-213.83 
634235.971,4401566.919,-214.37 
634235.971,4401467.008,-214.41 
634235.971,4401367.097,-214.17 
634235.971,4401267.186,-213.86 
634235.971,4401167.276,-213.98 
634235.971,4401067.365,-213.77 
634235.971,4400967.454,-213.23 
634235.971,4400867.543,-213.33 
634235.971,4400767.632,-213.45 
634235.971,4400667.721,-213 
634235.971,4400567.810,-212.89 
634235.971,4400467.900,-213.12 
634235.971,4400367.989,-213.47 
634235.971,4400268.078,-214.29 
634235.971,4400168.167,-214.87 
634235.971,4400068.256,-214.91 
634235.971,4399968.345,-215.95 
634235.971,4399868.434,-217.83 
634235.971,4399768.524,-218.2 
634235.971,4399668.613,-217.01 
634235.971,4399568.702,-215.95 
634235.971,4399468.791,-214.34 
634235.971,4399368.880,-216.53 
634235.971,4399268.969,-220.89 
634235.971,4399169.058,-221.62 
634235.971,4399069.148,-220.73 
634235.971,4398969.237,-216.98 
634235.971,4398869.326,-211.36 
634235.971,4398769.415,-208.24 
634235.971,4398669.504,-208.84 
634235.971,4398569.593,-211.09 
634235.971,4398469.682,-212.24 
634235.971,4398369.772,-211.83 
634235.971,4398269.861,-211.31 
634235.971,4398169.950,-212.06 
634235.971,4398070.039,-212.29 
634235.971,4397970.128,-213.09 
634235.971,4397870.217,-215.46 
634235.971,4397770.306,-214.5 
634235.971,4397670.395,-214.24 
634235.971,4397570.485,-215.43 
634235.971,4397470.574,-214.43 
634235.971,4397370.663,-212.12 
634235.971,4397270.752,-210.29 
634235.971,4397170.841,-208.11 
634235.971,4397070.930,-206.09 
634235.971,4396971.019,-204.5 
634235.971,4396871.109,-202.43 
634235.971,4396771.198,-200.23 
634235.971,4396671.287,-198.11 
634235.971,4396571.376,-194.99 
634235.971,4396471.465,-192.92 
634235.971,4396371.554,-192.31 
634235.971,4396271.643,-190.89 
634235.971,4396171.733,-188.14 
634235.971,4396071.822,-185.64 
634235.971,4395971.911,-183.29 
634235.971,4395872.000,-180.68 
634235.971,4395772.089,-178.22 
634235.971,4395672.178,-175.84 
634235.971,4395572.267,-172.81 
634235.971,4395472.357,-170.05 
634235.971,4395372.446,-170.39 
634235.971,4395272.535,-171.75 
634235.971,4395172.624,-171.35 
634235.971,4395072.713,-169.21 
634235.971,4394972.802,-165.67 
634235.971,4394872.891,-160.94 
634235.971,4394772.981,-157.29 
634235.971,4394673.070,-154.23 
634235.971,4394573.159,-151.8 
634235.971,4394473.248,-150.45 
634235.971,4394373.337,-149.3 
634235.971,4394273.426,-148.04 
634235.971,4394173.515,-148.45 
634235.971,4394073.605,-150.47 
634235.971,4393973.694,-154.59 
634335.728,4408960.323,-131.94 
634335.728,4408860.412,-133.73 
634335.728,4408760.501,-137.01 
634335.728,4408660.590,-140.37 
634335.728,4408560.679,-143.61 
634335.728,4408460.768,-147.12 
634335.728,4408360.858,-150.53 
634335.728,4408260.947,-154.22 
634335.728,4408161.036,-157.16 
634335.728,4408061.125,-160.06 
634335.728,4407961.214,-162.71 
634335.728,4407861.303,-166.46 
634335.728,4407761.392,-168.03 
634335.728,4407661.482,-169.81 
634335.728,4407561.571,-172.99 
634335.728,4407461.660,-173.95 
634335.728,4407361.749,-175.38 
634335.728,4407261.838,-177.8 
634335.728,4407161.927,-180.49 
634335.728,4407062.016,-183.48 
634335.728,4406962.106,-186.43 
634335.728,4406862.195,-188.44 
634335.728,4406762.284,-190.02 
634335.728,4406662.373,-192.02 
634335.728,4406562.462,-194.07 
634335.728,4406462.551,-195.72 
634335.728,4406362.640,-197.67 
634335.728,4406262.729,-198.74 
634335.728,4406162.819,-198.88 
634335.728,4406062.908,-199.66 
634335.728,4405962.997,-200.79 
634335.728,4405863.086,-202.21 
634335.728,4405763.175,-203.07 
634335.728,4405663.264,-203.67 
634335.728,4405563.353,-204.27 
634335.728,4405463.443,-204.58 
634335.728,4405363.532,-204.85 
634335.728,4405263.621,-205.75 
634335.728,4405163.710,-206.28 
634335.728,4405063.799,-205.78 
634335.728,4404963.888,-205.99 
634335.728,4404863.977,-207.15 
634335.728,4404764.067,-207.97 
634335.728,4404664.156,-208.04 
634335.728,4404564.245,-209.25 
634335.728,4404464.334,-211.01 
634335.728,4404364.423,-213.49 
634335.728,4404264.512,-216.74 
634335.728,4404164.601,-220.33 
634335.728,4404064.691,-224.27 
634335.728,4403964.780,-228.88 
634335.728,4403864.869,-231.13 
634335.728,4403764.958,-234.31 
634335.728,4403665.047,-235.09 
634335.728,4403565.136,-232.53 
634335.728,4403465.225,-227.17 
634335.728,4403365.315,-219.2 
634335.728,4403265.404,-211.9 
634335.728,4403165.493,-207.44 
634335.728,4403065.582,-206.64 
634335.728,4402965.671,-207.76 
634335.728,4402865.760,-208.73 
634335.728,4402765.849,-209.25 
634335.728,4402665.939,-209.93 
634335.728,4402566.028,-210.45 
634335.728,4402466.117,-210.7 
634335.728,4402366.206,-210.84 
634335.728,4402266.295,-211.31 
634335.728,4402166.384,-212.23 
634335.728,4402066.473,-213.71 
634335.728,4401966.562,-215 
634335.728,4401866.652,-215.64 
634335.728,4401766.741,-215.99 
634335.728,4401666.830,-216.36 
634335.728,4401566.919,-216.84 
634335.728,4401467.008,-217.19 
634335.728,4401367.097,-217.04 
634335.728,4401267.186,-216.59 
634335.728,4401167.276,-216.72 
634335.728,4401067.365,-216.75 
634335.728,4400967.454,-216.73 
634335.728,4400867.543,-216.68 
634335.728,4400767.632,-216.16 
634335.728,4400667.721,-216.04 
634335.728,4400567.810,-216.01 
634335.728,4400467.900,-215.84 
634335.728,4400367.989,-215.75 
634335.728,4400268.078,-216.41 
634335.728,4400168.167,-216.94 
634335.728,4400068.256,-217.1 
634335.728,4399968.345,-217.73 
634335.728,4399868.434,-220.01 
634335.728,4399768.524,-221.92 
634335.728,4399668.613,-220.83 
634335.728,4399568.702,-218.64 
634335.728,4399468.791,-216.84 
634335.728,4399368.880,-219.41 
634335.728,4399268.969,-223.32 
634335.728,4399169.058,-222.28 
634335.728,4399069.148,-218.54 
634335.728,4398969.237,-214.78 
634335.728,4398869.326,-211.8 
634335.728,4398769.415,-210.81 
634335.728,4398669.504,-212.49 
634335.728,4398569.593,-214.11 
634335.728,4398469.682,-216.03 
634335.728,4398369.772,-215.89 
634335.728,4398269.861,-215.36 
634335.728,4398169.950,-216.3 
634335.728,4398070.039,-216.34 
634335.728,4397970.128,-217.02 
634335.728,4397870.217,-219.58 
634335.728,4397770.306,-219.12 
634335.728,4397670.395,-218.97 
634335.728,4397570.485,-220.04 
634335.728,4397470.574,-219.37 
634335.728,4397370.663,-217.78 
634335.728,4397270.752,-215.61 
634335.728,4397170.841,-213.26 
634335.728,4397070.930,-211.4 
634335.728,4396971.019,-209.73 
634335.728,4396871.109,-207.6 
634335.728,4396771.198,-205.12 
634335.728,4396671.287,-202.23 
634335.728,4396571.376,-199.85 
634335.728,4396471.465,-198.83 
634335.728,4396371.554,-198.52 
634335.728,4396271.643,-197.13 
634335.728,4396171.733,-194.45 
634335.728,4396071.822,-192.07 
634335.728,4395971.911,-189.55 
634335.728,4395872.000,-186.86 
634335.728,4395772.089,-184.34 
634335.728,4395672.178,-181.92 
634335.728,4395572.267,-179.23 
634335.728,4395472.357,-177.78 
634335.728,4395372.446,-179.06 
634335.728,4395272.535,-180.41 
634335.728,4395172.624,-179.58 
634335.728,4395072.713,-176.99 
634335.728,4394972.802,-173.37 
634335.728,4394872.891,-169.63 
634335.728,4394772.981,-166.74 
634335.728,4394673.070,-164.22 
634335.728,4394573.159,-162.5 
634335.728,4394473.248,-160.87 
634335.728,4394373.337,-158.82 
634335.728,4394273.426,-157.29 
634335.728,4394173.515,-155.17 
634335.728,4394073.605,-155.55 
634335.728,4393973.694,-157.53 
634335.728,4393873.783,-157.69 
634335.728,4393773.872,-157.45 
634335.728,4393673.961,-161.49 
634335.728,4393574.050,-165.54 
634435.486,4409060.234,-131.96 
634435.486,4408960.323,-133.84 
634435.486,4408860.412,-137.18 
634435.486,4408760.501,-140.67 
634435.486,4408660.590,-143.88 
634435.486,4408560.679,-147.53 
634435.486,4408460.768,-151.04 
634435.486,4408360.858,-154.67 
634435.486,4408260.947,-158.47 
634435.486,4408161.036,-161.55 
634435.486,4408061.125,-164.26 
634435.486,4407961.214,-166.92 
634435.486,4407861.303,-169.69 
634435.486,4407761.392,-172.45 
634435.486,4407661.482,-173.68 
634435.486,4407561.571,-175.79 
634435.486,4407461.660,-178.16 
634435.486,4407361.749,-179.56 
634435.486,4407261.838,-181.55 
634435.486,4407161.927,-184.12 
634435.486,4407062.016,-186.97 
634435.486,4406962.106,-189.67 
634435.486,4406862.195,-191.84 
634435.486,4406762.284,-193.55 
634435.486,4406662.373,-195.09 
634435.486,4406562.462,-197.47 
634435.486,4406462.551,-198.89 
634435.486,4406362.640,-200.61 
634435.486,4406262.729,-201.83 
634435.486,4406162.819,-201.87 
634435.486,4406062.908,-202.6 
634435.486,4405962.997,-204.29 
634435.486,4405863.086,-205.59 
634435.486,4405763.175,-206.17 
634435.486,4405663.264,-206.77 
634435.486,4405563.353,-207.36 
634435.486,4405463.443,-208.1 
634435.486,4405363.532,-208.16 
634435.486,4405263.621,-209.05 
634435.486,4405163.710,-208.98 
634435.486,4405063.799,-208.34 
634435.486,4404963.888,-208.55 
634435.486,4404863.977,-209.62 
634435.486,4404764.067,-209.85 
634435.486,4404664.156,-210.26 
634435.486,4404564.245,-211.61 
634435.486,4404464.334,-213.7 
634435.486,4404364.423,-216.41 
634435.486,4404264.512,-219.88 
634435.486,4404164.601,-223.65 
634435.486,4404064.691,-227.89 
634435.486,4403964.780,-232.1 
634435.486,4403864.869,-234.97 
634435.486,4403764.958,-238.21 
634435.486,4403665.047,-237.7 
634435.486,4403565.136,-233.68 
634435.486,4403465.225,-228.63 
634435.486,4403365.315,-222.39 
634435.486,4403265.404,-214.25 
634435.486,4403165.493,-209.55 
634435.486,4403065.582,-209.46 
634435.486,4402965.671,-211.05 
634435.486,4402865.760,-212.05 
634435.486,4402765.849,-212.31 
634435.486,4402665.939,-212.79 
634435.486,4402566.028,-213.23 
634435.486,4402466.117,-213.3 
634435.486,4402366.206,-213.43 
634435.486,4402266.295,-213.7 
634435.486,4402166.384,-214.4 
634435.486,4402066.473,-215.63 
634435.486,4401966.562,-217.38 
634435.486,4401866.652,-218.35 
634435.486,4401766.741,-218.8 
634435.486,4401666.830,-219.23 
634435.486,4401566.919,-219.69 
634435.486,4401467.008,-220.34 
634435.486,4401367.097,-220.6 
634435.486,4401267.186,-220.02 
634435.486,4401167.276,-219.91 
634435.486,4401067.365,-219.82 
634435.486,4400967.454,-220.11 
634435.486,4400867.543,-220.51 
634435.486,4400767.632,-220.11 
634435.486,4400667.721,-219.68 
634435.486,4400567.810,-219.3 
634435.486,4400467.900,-218.65 
634435.486,4400367.989,-218.52 
634435.486,4400268.078,-219.02 
634435.486,4400168.167,-219.41 
634435.486,4400068.256,-219.54 
634435.486,4399968.345,-219.87 
634435.486,4399868.434,-221.54 
634435.486,4399768.524,-224.11 
634435.486,4399668.613,-224.1 
634435.486,4399568.702,-222.24 
634435.486,4399468.791,-220.77 
634435.486,4399368.880,-222.95 
634435.486,4399268.969,-225.3 
634435.486,4399169.058,-224.14 
634435.486,4399069.148,-221.61 
634435.486,4398969.237,-218.12 
634435.486,4398869.326,-214.99 
634435.486,4398769.415,-214.51 
634435.486,4398669.504,-216.27 
634435.486,4398569.593,-218.78 
634435.486,4398469.682,-219.97 
634435.486,4398369.772,-219 
634435.486,4398269.861,-218.77 
634435.486,4398169.950,-219.28 
634435.486,4398070.039,-219.34 
634435.486,4397970.128,-220.24 
634435.486,4397870.217,-223.39 
634435.486,4397770.306,-224.08 
634435.486,4397670.395,-223.92 
634435.486,4397570.485,-224.9 
634435.486,4397470.574,-223.89 
634435.486,4397370.663,-222.33 
634435.486,4397270.752,-220.65 
634435.486,4397170.841,-218.47 
634435.486,4397070.930,-216.46 
634435.486,4396971.019,-214.49 
634435.486,4396871.109,-212.43 
634435.486,4396771.198,-209.74 
634435.486,4396671.287,-206.76 
634435.486,4396571.376,-205.57 
634435.486,4396471.465,-205.14 
634435.486,4396371.554,-204.62 
634435.486,4396271.643,-203.32 
634435.486,4396171.733,-201.09 
634435.486,4396071.822,-199.1 
634435.486,4395971.911,-196.63 
634435.486,4395872.000,-193.12 
634435.486,4395772.089,-190.08 
634435.486,4395672.178,-187.97 
634435.486,4395572.267,-186.14 
634435.486,4395472.357,-185.71 
634435.486,4395372.446,-187.39 
634435.486,4395272.535,-188.29 
634435.486,4395172.624,-186.64 
634435.486,4395072.713,-182.88 
634435.486,4394972.802,-178.92 
634435.486,4394872.891,-176.39 
634435.486,4394772.981,-174.12 
634435.486,4394673.070,-172.31 
634435.486,4394573.159,-171.5 
634435.486,4394473.248,-170.53 
634435.486,4394373.337,-168.98 
634435.486,4394273.426,-167.03 
634435.486,4394173.515,-165.16 
634435.486,4394073.605,-164.28 
634435.486,4393973.694,-164.67 
634435.486,4393873.783,-165.85 
634435.486,4393773.872,-166.68 
634435.486,4393673.961,-167.19 
634435.486,4393574.050,-166.81 
634435.486,4393474.139,-167.12 
634435.486,4393374.229,-171.26 
634535.243,4409160.144,-132.5 
634535.243,4409060.234,-134.27 
634535.243,4408960.323,-137.4 
634535.243,4408860.412,-140.56 
634535.243,4408760.501,-144.62 
634535.243,4408660.590,-147.81 
634535.243,4408560.679,-151.12 
634535.243,4408460.768,-154.98 
634535.243,4408360.858,-158.86 
634535.243,4408260.947,-162.62 
634535.243,4408161.036,-165.64 
634535.243,4408061.125,-168.24 
634535.243,4407961.214,-171.12 
634535.243,4407861.303,-173.2 
634535.243,4407761.392,-175.84 
634535.243,4407661.482,-177.96 
634535.243,4407561.571,-179.45 
634535.243,4407461.660,-182.79 
634535.243,4407361.749,-184.26 
634535.243,4407261.838,-185.37 
634535.243,4407161.927,-187.37 
634535.243,4407062.016,-190.17 
634535.243,4406962.106,-192.87 
634535.243,4406862.195,-195.03 
634535.243,4406762.284,-197.12 
634535.243,4406662.373,-198.81 
634535.243,4406562.462,-200.5 
634535.243,4406462.551,-202.17 
634535.243,4406362.640,-203.48 
634535.243,4406262.729,-204.82 
634535.243,4406162.819,-205.26 
634535.243,4406062.908,-205.6 
634535.243,4405962.997,-207.21 
634535.243,4405863.086,-208.53 
634535.243,4405763.175,-209.3 
634535.243,4405663.264,-209.91 
634535.243,4405563.353,-210.59 
634535.243,4405463.443,-211.07 
634535.243,4405363.532,-211.38 
634535.243,4405263.621,-212.07 
634535.243,4405163.710,-211.5 
634535.243,4405063.799,-210.97 
634535.243,4404963.888,-211.17 
634535.243,4404863.977,-212.01 
634535.243,4404764.067,-212.54 
634535.243,4404664.156,-212.92 
634535.243,4404564.245,-213.85 
634535.243,4404464.334,-216.23 
634535.243,4404364.423,-219.52 
634535.243,4404264.512,-223.06 
634535.243,4404164.601,-227.02 
634535.243,4404064.691,-231.4 
634535.243,4403964.780,-235.25 
634535.243,4403864.869,-239.9 
634535.243,4403764.958,-242.43 
634535.243,4403665.047,-240.53 
634535.243,4403565.136,-235.81 
634535.243,4403465.225,-230.93 
634535.243,4403365.315,-225.3 
634535.243,4403265.404,-218.98 
634535.243,4403165.493,-213.52 
634535.243,4403065.582,-212.67 
634535.243,4402965.671,-214.15 
634535.243,4402865.760,-214.97 
634535.243,4402765.849,-215.32 
634535.243,4402665.939,-215.79 
634535.243,4402566.028,-216.35 
634535.243,4402466.117,-216.14 
634535.243,4402366.206,-215.99 
634535.243,4402266.295,-216.49 
634535.243,4402166.384,-217.21 
634535.243,4402066.473,-218.48 
634535.243,4401966.562,-219.61 
634535.243,4401866.652,-220.61 
634535.243,4401766.741,-221.62 
634535.243,4401666.830,-222.22 
634535.243,4401566.919,-222.49 
634535.243,4401467.008,-222.85 
634535.243,4401367.097,-222.95 
634535.243,4401267.186,-222.32 
634535.243,4401167.276,-221.94 
634535.243,4401067.365,-222.29 
634535.243,4400967.454,-222.41 
634535.243,4400867.543,-222.6 
634535.243,4400767.632,-222.74 
634535.243,4400667.721,-222.71 
634535.243,4400567.810,-222.33 
634535.243,4400467.900,-221.87 
634535.243,4400367.989,-221.89 
634535.243,4400268.078,-222.12 
634535.243,4400168.167,-222.01 
634535.243,4400068.256,-222.01 
634535.243,4399968.345,-222.44 
634535.243,4399868.434,-223.5 
634535.243,4399768.524,-225.83 
634535.243,4399668.613,-227.33 
634535.243,4399568.702,-225.96 
634535.243,4399468.791,-223.44 
634535.243,4399368.880,-226.98 
634535.243,4399268.969,-227.97 
634535.243,4399169.058,-226.59 
634535.243,4399069.148,-225.74 
634535.243,4398969.237,-223.75 
634535.243,4398869.326,-219.96 
634535.243,4398769.415,-219.12 
634535.243,4398669.504,-220.58 
634535.243,4398569.593,-222.51 
634535.243,4398469.682,-222.82 
634535.243,4398369.772,-222.68 
634535.243,4398269.861,-222.93 
634535.243,4398169.950,-222.74 
634535.243,4398070.039,-222.71 
634535.243,4397970.128,-224.09 
634535.243,4397870.217,-226.88 
634535.243,4397770.306,-228.7 
634535.243,4397670.395,-228.75 
634535.243,4397570.485,-229.09 
634535.243,4397470.574,-228.2 
634535.243,4397370.663,-226.64 
634535.243,4397270.752,-225.29 
634535.243,4397170.841,-223.67 
634535.243,4397070.930,-221.75 
634535.243,4396971.019,-219.52 
634535.243,4396871.109,-216.79 
634535.243,4396771.198,-213.47 
634535.243,4396671.287,-211.74 
634535.243,4396571.376,-211.55 
634535.243,4396471.465,-211.44 
634535.243,4396371.554,-210.79 
634535.243,4396271.643,-208.7 
634535.243,4396171.733,-206.26 
634535.243,4396071.822,-204.65 
634535.243,4395971.911,-202.95 
634535.243,4395872.000,-199.78 
634535.243,4395772.089,-196.28 
634535.243,4395672.178,-194.11 
634535.243,4395572.267,-192.62 
634535.243,4395472.357,-192.99 
634535.243,4395372.446,-194.96 
634535.243,4395272.535,-195.02 
634535.243,4395172.624,-191.88 
634535.243,4395072.713,-187.77 
634535.243,4394972.802,-184.79 
634535.243,4394872.891,-182.44 
634535.243,4394772.981,-180.51 
634535.243,4394673.070,-179.34 
634535.243,4394573.159,-178.56 
634535.243,4394473.248,-178.03 
634535.243,4394373.337,-177.16 
634535.243,4394273.426,-175.31 
634535.243,4394173.515,-173.17 
634535.243,4394073.605,-171.73 
634535.243,4393973.694,-171.73 
634535.243,4393873.783,-173.05 
634535.243,4393773.872,-174.22 
634535.243,4393673.961,-174.23 
634535.243,4393574.050,-174.13 
634535.243,4393474.139,-175.15 
634535.243,4393374.229,-178.03 
634535.243,4393274.318,-177.56 
634535.243,4393174.407,-174.66 
634635.000,4409260.055,-132.78 
634635.000,4409160.144,-134.51 
634635.000,4409060.234,-137.73 
634635.000,4408960.323,-141.16 
634635.000,4408860.412,-144.76 
634635.000,4408760.501,-148.4 
634635.000,4408660.590,-151.74 
634635.000,4408560.679,-155.1 
634635.000,4408460.768,-158.9 
634635.000,4408360.858,-162.95 
634635.000,4408260.947,-166.45 
634635.000,4408161.036,-169.69 
634635.000,4408061.125,-172.47 
634635.000,4407961.214,-175.07 
634635.000,4407861.303,-177.58 
634635.000,4407761.392,-179.61 
634635.000,4407661.482,-182.91 
634635.000,4407561.571,-183.54 
634635.000,4407461.660,-185.21 
634635.000,4407361.749,-188.7 
634635.000,4407261.838,-189.86 
634635.000,4407161.927,-190.95 
634635.000,4407062.016,-193.39 
634635.000,4406962.106,-196.08 
634635.000,4406862.195,-198.45 
634635.000,4406762.284,-200.36 
634635.000,4406662.373,-202.58 
634635.000,4406562.462,-203.96 
634635.000,4406462.551,-205.61 
634635.000,4406362.640,-206.63 
634635.000,4406262.729,-207.88 
634635.000,4406162.819,-208.93 
634635.000,4406062.908,-208.93 
634635.000,4405962.997,-209.94 
634635.000,4405863.086,-211.54 
634635.000,4405763.175,-212.33 
634635.000,4405663.264,-213.13 
634635.000,4405563.353,-213.62 
634635.000,4405463.443,-213.97 
634635.000,4405363.532,-214.31 
634635.000,4405263.621,-214.88 
634635.000,4405163.710,-214.23 
634635.000,4405063.799,-213.86 
634635.000,4404963.888,-213.87 
634635.000,4404863.977,-214.55 
634635.000,4404764.067,-215.34 
634635.000,4404664.156,-215.23 
634635.000,4404564.245,-216.1 
634635.000,4404464.334,-218.62 
634635.000,4404364.423,-222.61 
634635.000,4404264.512,-226.6 
634635.000,4404164.601,-230.67 
634635.000,4404064.691,-235.06 
634635.000,4403964.780,-238.04 
634635.000,4403864.869,-243.96 
634635.000,4403764.958,-246.4 
634635.000,4403665.047,-243.34 
634635.000,4403565.136,-238.58 
634635.000,4403465.225,-233.85 
634635.000,4403365.315,-228.02 
634635.000,4403265.404,-222.13 
634635.000,4403165.493,-216.34 
634635.000,4403065.582,-215.24 
634635.000,4402965.671,-216.77 
634635.000,4402865.760,-217.73 
634635.000,4402765.849,-218.39 
634635.000,4402665.939,-218.83 
634635.000,4402566.028,-219.17 
634635.000,4402466.117,-218.86 
634635.000,4402366.206,-218.55 
634635.000,4402266.295,-219.04 
634635.000,4402166.384,-220.01 
634635.000,4402066.473,-220.99 
634635.000,4401966.562,-221.33 
634635.000,4401866.652,-222.72 
634635.000,4401766.741,-224.01 
634635.000,4401666.830,-224.86 
634635.000,4401566.919,-225.26 
634635.000,4401467.008,-225.48 
634635.000,4401367.097,-225.45 
634635.000,4401267.186,-225.21 
634635.000,4401167.276,-224.8 
634635.000,4401067.365,-224.37 
634635.000,4400967.454,-224.45 
634635.000,4400867.543,-225.04 
634635.000,4400767.632,-225.51 
634635.000,4400667.721,-225.7 
634635.000,4400567.810,-225.57 
634635.000,4400467.900,-225.13 
634635.000,4400367.989,-224.98 
634635.000,4400268.078,-224.9 
634635.000,4400168.167,-224.5 
634635.000,4400068.256,-224.34 
634635.000,4399968.345,-224.89 
634635.000,4399868.434,-226.19 
634635.000,4399768.524,-227.62 
634635.000,4399668.613,-229.67 
634635.000,4399568.702,-229.46 
634635.000,4399468.791,-226.64 
634635.000,4399368.880,-230.28 
634635.000,4399268.969,-231.16 
634635.000,4399169.058,-229.95 
634635.000,4399069.148,-229.66 
634635.000,4398969.237,-228.59 
634635.000,4398869.326,-225 
634635.000,4398769.415,-223.64 
634635.000,4398669.504,-224.53 
634635.000,4398569.593,-226.08 
634635.000,4398469.682,-226.32 
634635.000,4398369.772,-225.39 
634635.000,4398269.861,-225.83 
634635.000,4398169.950,-225.96 
634635.000,4398070.039,-226.32 
634635.000,4397970.128,-227.86 
634635.000,4397870.217,-230.26 
634635.000,4397770.306,-233.4 
634635.000,4397670.395,-232.78 
634635.000,4397570.485,-232.64 
634635.000,4397470.574,-232.51 
634635.000,4397370.663,-231.37 
634635.000,4397270.752,-229.95 
634635.000,4397170.841,-228.12 
634635.000,4397070.930,-226.5 
634635.000,4396971.019,-224.26 
634635.000,4396871.109,-221.09 
634635.000,4396771.198,-218.62 
634635.000,4396671.287,-217.75 
634635.000,4396571.376,-217.65 
634635.000,4396471.465,-217.65 
634635.000,4396371.554,-216.64 
634635.000,4396271.643,-213.89 
634635.000,4396171.733,-211.1 
634635.000,4396071.822,-209.77 
634635.000,4395971.911,-208.5 
634635.000,4395872.000,-205.75 
634635.000,4395772.089,-202.75 
634635.000,4395672.178,-200.24 
634635.000,4395572.267,-198.43 
634635.000,4395472.357,-199.39 
634635.000,4395372.446,-201.24 
634635.000,4395272.535,-200.34 
634635.000,4395172.624,-196.7 
634635.000,4395072.713,-193.06 
634635.000,4394972.802,-190.44 
634635.000,4394872.891,-188.27 
634635.000,4394772.981,-186.62 
634635.000,4394673.070,-185.76 
634635.000,4394573.159,-185.17 
634635.000,4394473.248,-184.99 
634635.000,4394373.337,-184.21 
634635.000,4394273.426,-182.39 
634635.000,4394173.515,-180.16 
634635.000,4394073.605,-178.28 
634635.000,4393973.694,-177.91 
634635.000,4393873.783,-179.33 
634635.000,4393773.872,-181.14 
634635.000,4393673.961,-182.23 
634635.000,4393574.050,-182.9 
634635.000,4393474.139,-184.42 
634635.000,4393374.229,-186.24 
634635.000,4393274.318,-183.17 
634635.000,4393174.407,-176.26 
634734.758,4409359.966,-133.34 
634734.758,4409260.055,-134.91 
634734.758,4409160.144,-138.02 
634734.758,4409060.234,-141.44 
634734.758,4408960.323,-144.91 
634734.758,4408860.412,-148.88 
634734.758,4408760.501,-152.37 
634734.758,4408660.590,-155.61 
634734.758,4408560.679,-159.49 
634734.758,4408460.768,-162.96 
634734.758,4408360.858,-166.45 
634734.758,4408260.947,-170.18 
634734.758,4408161.036,-173.41 
634734.758,4408061.125,-176.68 
634734.758,4407961.214,-179.47 
634734.758,4407861.303,-181.82 
634734.758,4407761.392,-183.62 
634734.758,4407661.482,-185.78 
634734.758,4407561.571,-187.79 
634734.758,4407461.660,-189.1 
634734.758,4407361.749,-192.05 
634734.758,4407261.838,-194.27 
634734.758,4407161.927,-195.11 
634734.758,4407062.016,-197.01 
634734.758,4406962.106,-199.66 
634734.758,4406862.195,-201.93 
634734.758,4406762.284,-203.87 
634734.758,4406662.373,-205.83 
634734.758,4406562.462,-207.38 
634734.758,4406462.551,-208.73 
634734.758,4406362.640,-209.86 
634734.758,4406262.729,-210.91 
634734.758,4406162.819,-211.88 
634734.758,4406062.908,-212.16 
634734.758,4405962.997,-212.56 
634734.758,4405863.086,-214.02 
634734.758,4405763.175,-215.26 
634734.758,4405663.264,-215.92 
634734.758,4405563.353,-216.22 
634734.758,4405463.443,-216.64 
634734.758,4405363.532,-217.27 
634734.758,4405263.621,-217.47 
634734.758,4405163.710,-216.77 
634734.758,4405063.799,-216.65 
634734.758,4404963.888,-216.65 
634734.758,4404863.977,-216.81 
634734.758,4404764.067,-217.37 
634734.758,4404664.156,-217.19 
634734.758,4404564.245,-218.32 
634734.758,4404464.334,-221.19 
634734.758,4404364.423,-225.29 
634734.758,4404264.512,-230.01 
634734.758,4404164.601,-234.56 
634734.758,4404064.691,-238.41 
634734.758,4403964.780,-240.9 
634734.758,4403864.869,-246.61 
634734.758,4403764.958,-249.91 
634734.758,4403665.047,-247.06 
634734.758,4403565.136,-242.16 
634734.758,4403465.225,-237.05 
634734.758,4403365.315,-230.81 
634734.758,4403265.404,-224.18 
634734.758,4403165.493,-220.04 
634734.758,4403065.582,-219.05 
634734.758,4402965.671,-219.85 
634734.758,4402865.760,-220.9 
634734.758,4402765.849,-221.52 
634734.758,4402665.939,-221.84 
634734.758,4402566.028,-222.08 
634734.758,4402466.117,-221.82 
634734.758,4402366.206,-221.48 
634734.758,4402266.295,-221.74 
634734.758,4402166.384,-222.29 
634734.758,4402066.473,-223.06 
634734.758,4401966.562,-223.46 
634734.758,4401866.652,-224.17 
634734.758,4401766.741,-225.83 
634734.758,4401666.830,-227.27 
634734.758,4401566.919,-227.57 
634734.758,4401467.008,-227.89 
634734.758,4401367.097,-227.86 
634734.758,4401267.186,-227.16 
634734.758,4401167.276,-227.09 
634734.758,4401067.365,-227.16 
634734.758,4400967.454,-227.6 
634734.758,4400867.543,-228.14 
634734.758,4400767.632,-228.52 
634734.758,4400667.721,-228.86 
634734.758,4400567.810,-228.71 
634734.758,4400467.900,-227.8 
634734.758,4400367.989,-227.23 
634734.758,4400268.078,-227.37 
634734.758,4400168.167,-227.36 
634734.758,4400068.256,-227.37 
634734.758,4399968.345,-227.64 
634734.758,4399868.434,-228.56 
634734.758,4399768.524,-230.32 
634734.758,4399668.613,-232.37 
634734.758,4399568.702,-232.71 
634734.758,4399468.791,-230.07 
634734.758,4399368.880,-231.2 
634734.758,4399268.969,-233.5 
634734.758,4399169.058,-232.66 
634734.758,4399069.148,-232.23 
634734.758,4398969.237,-232.11 
634734.758,4398869.326,-228.03 
634734.758,4398769.415,-226.86 
634734.758,4398669.504,-228.04 
634734.758,4398569.593,-229.31 
634734.758,4398469.682,-229.64 
634734.758,4398369.772,-228.76 
634734.758,4398269.861,-228.76 
634734.758,4398169.950,-229.04 
634734.758,4398070.039,-229.72 
634734.758,4397970.128,-231.23 
634734.758,4397870.217,-234.46 
634734.758,4397770.306,-238.89 
634734.758,4397670.395,-236.89 
634734.758,4397570.485,-235.69 
634734.758,4397470.574,-236.22 
634734.758,4397370.663,-235.42 
634734.758,4397270.752,-234.12 
634734.758,4397170.841,-232.48 
634734.758,4397070.930,-230.91 
634734.758,4396971.019,-228.64 
634734.758,4396871.109,-226.09 
634734.758,4396771.198,-224.26 
634734.758,4396671.287,-223.51 
634734.758,4396571.376,-223.63 
634734.758,4396471.465,-223.53 
634734.758,4396371.554,-221.84 
634734.758,4396271.643,-219 
634734.758,4396171.733,-216.44 
634734.758,4396071.822,-214.91 
634734.758,4395971.911,-213.16 
634734.758,4395872.000,-210.56 
634734.758,4395772.089,-207.98 
634734.758,4395672.178,-206.03 
634734.758,4395572.267,-204.8 
634734.758,4395472.357,-204.97 
634734.758,4395372.446,-206.18 
634734.758,4395272.535,-205.73 
634734.758,4395172.624,-202.53 
634734.758,4395072.713,-198.69 
634734.758,4394972.802,-195.51 
634734.758,4394872.891,-193.37 
634734.758,4394772.981,-192.4 
634734.758,4394673.070,-191.78 
634734.758,4394573.159,-191.46 
634734.758,4394473.248,-191.79 
634734.758,4394373.337,-190.95 
634734.758,4394273.426,-188.56 
634734.758,4394173.515,-186.01 
634734.758,4394073.605,-184.12 
634734.758,4393973.694,-183.77 
634734.758,4393873.783,-185.26 
634734.758,4393773.872,-187.56 
634734.758,4393673.961,-189.46 
634734.758,4393574.050,-190.5 
634734.758,4393474.139,-192.17 
634734.758,4393374.229,-192.44 
634734.758,4393274.318,-187.39 
634734.758,4393174.407,-180.35 
634734.758,4393074.496,-175.14 
634834.515,4409559.788,-130.33 
634834.515,4409459.877,-132.42 
634834.515,4409359.966,-135.38 
634834.515,4409260.055,-138.48 
634834.515,4409160.144,-141.67 
634834.515,4409060.234,-145.15 
634834.515,4408960.323,-148.54 
634834.515,4408860.412,-152.55 
634834.515,4408760.501,-156.3 
634834.515,4408660.590,-159.81 
634834.515,4408560.679,-163.4 
634834.515,4408460.768,-167.07 
634834.515,4408360.858,-170.36 
634834.515,4408260.947,-173.64 
634834.515,4408161.036,-176.93 
634834.515,4408061.125,-180.46 
634834.515,4407961.214,-183.82 
634834.515,4407861.303,-186.12 
634834.515,4407761.392,-188.13 
634834.515,4407661.482,-189.75 
634834.515,4407561.571,-192.75 
634834.515,4407461.660,-193.74 
634834.515,4407361.749,-195.25 
634834.515,4407261.838,-199.05 
634834.515,4407161.927,-200.16 
634834.515,4407062.016,-201.29 
634834.515,4406962.106,-203.4 
634834.515,4406862.195,-205.54 
634834.515,4406762.284,-207.41 
634834.515,4406662.373,-209.31 
634834.515,4406562.462,-210.96 
634834.515,4406462.551,-212.16 
634834.515,4406362.640,-213.72 
634834.515,4406262.729,-214.49 
634834.515,4406162.819,-215.04 
634834.515,4406062.908,-215.5 
634834.515,4405962.997,-215.82 
634834.515,4405863.086,-216.69 
634834.515,4405763.175,-217.4 
634834.515,4405663.264,-217.76 
634834.515,4405563.353,-218.33 
634834.515,4405463.443,-219.28 
634834.515,4405363.532,-220.1 
634834.515,4405263.621,-219.78 
634834.515,4405163.710,-219.2 
634834.515,4405063.799,-219.47 
634834.515,4404963.888,-219.27 
634834.515,4404863.977,-218.82 
634834.515,4404764.067,-218.76 
634834.515,4404664.156,-219.13 
634834.515,4404564.245,-220.71 
634834.515,4404464.334,-223.64 
634834.515,4404364.423,-227.65 
634834.515,4404264.512,-232.2 
634834.515,4404164.601,-236.93 
634834.515,4404064.691,-241.3 
634834.515,4403964.780,-244.93 
634834.515,4403864.869,-249.69 
634834.515,4403764.958,-253.41 
634834.515,4403665.047,-250.63 
634834.515,4403565.136,-245.16 
634834.515,4403465.225,-240.3 
634834.515,4403365.315,-234.33 
634834.515,4403265.404,-227.51 
634834.515,4403165.493,-223.54 
634834.515,4403065.582,-221.67 
634834.515,4402965.671,-222.61 
634834.515,4402865.760,-224.02 
634834.515,4402765.849,-224.62 
634834.515,4402665.939,-224.75 
634834.515,4402566.028,-224.94 
634834.515,4402466.117,-224.76 
634834.515,4402366.206,-224.4 
634834.515,4402266.295,-224.55 
634834.515,4402166.384,-225.05 
634834.515,4402066.473,-225.55 
634834.515,4401966.562,-226.06 
634834.515,4401866.652,-226.44 
634834.515,4401766.741,-227.42 
634834.515,4401666.830,-229.04 
634834.515,4401566.919,-230.08 
634834.515,4401467.008,-230.65 
634834.515,4401367.097,-230.99 
634834.515,4401267.186,-230.61 
634834.515,4401167.276,-230.62 
634834.515,4401067.365,-231.13 
634834.515,4400967.454,-231.64 
634834.515,4400867.543,-231.34 
634834.515,4400767.632,-231.38 
634834.515,4400667.721,-232.17 
634834.515,4400567.810,-232.09 
634834.515,4400467.900,-230.74 
634834.515,4400367.989,-230.09 
634834.515,4400268.078,-230.15 
634834.515,4400168.167,-230.05 
634834.515,4400068.256,-230.19 
634834.515,4399968.345,-230.98 
634834.515,4399868.434,-232.16 
634834.515,4399768.524,-233.28 
634834.515,4399668.613,-234.52 
634834.515,4399568.702,-234.61 
634834.515,4399468.791,-232.77 
634834.515,4399368.880,-230.91 
634834.515,4399268.969,-234.08 
634834.515,4399169.058,-236.13 
634834.515,4399069.148,-235.32 
634834.515,4398969.237,-235.21 
634834.515,4398869.326,-231.15 
634834.515,4398769.415,-229.72 
634834.515,4398669.504,-230.88 
634834.515,4398569.593,-232.7 
634834.515,4398469.682,-233.13 
634834.515,4398369.772,-232.36 
634834.515,4398269.861,-232.73 
634834.515,4398169.950,-233.21 
634834.515,4398070.039,-233.8 
634834.515,4397970.128,-234.56 
634834.515,4397870.217,-236.9 
634834.515,4397770.306,-241.37 
634834.515,4397670.395,-240.25 
634834.515,4397570.485,-238.8 
634834.515,4397470.574,-239.12 
634834.515,4397370.663,-238.67 
634834.515,4397270.752,-237.71 
634834.515,4397170.841,-236.25 
634834.515,4397070.930,-234.59 
634834.515,4396971.019,-233.03 
634834.515,4396871.109,-231.21 
634834.515,4396771.198,-229.76 
634834.515,4396671.287,-229.15 
634834.515,4396571.376,-229 
634834.515,4396471.465,-228.86 
634834.515,4396371.554,-227.45 
634834.515,4396271.643,-224.86 
634834.515,4396171.733,-222.85 
634834.515,4396071.822,-220.39 
634834.515,4395971.911,-217.31 
634834.515,4395872.000,-214.57 
634834.515,4395772.089,-212.5 
634834.515,4395672.178,-210.74 
634834.515,4395572.267,-209.48 
634834.515,4395472.357,-209.87 
634834.515,4395372.446,-210.89 
634834.515,4395272.535,-210.4 
634834.515,4395172.624,-207.99 
634834.515,4395072.713,-204.12 
634834.515,4394972.802,-200.76 
634834.515,4394872.891,-198.88 
634834.515,4394772.981,-198.1 
634834.515,4394673.070,-197.83 
634834.515,4394573.159,-197.74 
634834.515,4394473.248,-198.49 
634834.515,4394373.337,-197.96 
634834.515,4394273.426,-195.33 
634834.515,4394173.515,-191.91 
634834.515,4394073.605,-189.39 
634834.515,4393973.694,-189.19 
634834.515,4393873.783,-190.91 
634834.515,4393773.872,-193.3 
634834.515,4393673.961,-195.33 
634834.515,4393574.050,-196.63 
634834.515,4393474.139,-197.49 
634834.515,4393374.229,-196.76 
634834.515,4393274.318,-192.28 
634834.515,4393174.407,-186.34 
634834.515,4393074.496,-181.66 
634834.515,4392974.585,-178.87 
634934.272,4409659.699,-130.84 
634934.272,4409559.788,-132.82 
634934.272,4409459.877,-135.97 
634934.272,4409359.966,-138.85 
634934.272,4409260.055,-142.37 
634934.272,4409160.144,-145.79 
634934.272,4409060.234,-149.16 
634934.272,4408960.323,-152.46 
634934.272,4408860.412,-156.33 
634934.272,4408760.501,-160.06 
634934.272,4408660.590,-163.73 
634934.272,4408560.679,-167.34 
634934.272,4408460.768,-171.03 
634934.272,4408360.858,-174.66 
634934.272,4408260.947,-177.7 
634934.272,4408161.036,-180.37 
634934.272,4408061.125,-184.08 
634934.272,4407961.214,-187.57 
634934.272,4407861.303,-190.41 
634934.272,4407761.392,-192.3 
634934.272,4407661.482,-194.08 
634934.272,4407561.571,-196.53 
634934.272,4407461.660,-198.16 
634934.272,4407361.749,-199.5 
634934.272,4407261.838,-202.09 
634934.272,4407161.927,-205.26 
634934.272,4407062.016,-206.23 
634934.272,4406962.106,-207.42 
634934.272,4406862.195,-209.29 
634934.272,4406762.284,-210.94 
634934.272,4406662.373,-213 
634934.272,4406562.462,-214.82 
634934.272,4406462.551,-216.34 
634934.272,4406362.640,-217.2 
634934.272,4406262.729,-217.55 
634934.272,4406162.819,-217.79 
634934.272,4406062.908,-218.32 
634934.272,4405962.997,-219.1 
634934.272,4405863.086,-219.79 
634934.272,4405763.175,-220.06 
634934.272,4405663.264,-220.14 
634934.272,4405563.353,-220.23 
634934.272,4405463.443,-221.3 
634934.272,4405363.532,-221.71 
634934.272,4405263.621,-221.31 
634934.272,4405163.710,-221.33 
634934.272,4405063.799,-221.73 
634934.272,4404963.888,-221.24 
634934.272,4404863.977,-220.05 
634934.272,4404764.067,-220.22 
634934.272,4404664.156,-221.47 
634934.272,4404564.245,-223.14 
634934.272,4404464.334,-226 
634934.272,4404364.423,-229.67 
634934.272,4404264.512,-233.84 
634934.272,4404164.601,-238.6 
634934.272,4404064.691,-242.88 
634934.272,4403964.780,-247.19 
634934.272,4403864.869,-252.49 
634934.272,4403764.958,-255.86 
634934.272,4403665.047,-253.44 
634934.272,4403565.136,-247.99 
634934.272,4403465.225,-243.33 
634934.272,4403365.315,-238.23 
634934.272,4403265.404,-231.67 
634934.272,4403165.493,-227.49 
634934.272,4403065.582,-226.48 
634934.272,4402965.671,-227.04 
634934.272,4402865.760,-227.8 
634934.272,4402765.849,-227.93 
634934.272,4402665.939,-227.74 
634934.272,4402566.028,-227.73 
634934.272,4402466.117,-227.41 
634934.272,4402366.206,-226.91 
634934.272,4402266.295,-226.95 
634934.272,4402166.384,-227.68 
634934.272,4402066.473,-228.32 
634934.272,4401966.562,-228.6 
634934.272,4401866.652,-228.95 
634934.272,4401766.741,-229.64 
634934.272,4401666.830,-231.23 
634934.272,4401566.919,-232.45 
634934.272,4401467.008,-233.21 
634934.272,4401367.097,-234.1 
634934.272,4401267.186,-234.46 
634934.272,4401167.276,-234.84 
634934.272,4401067.365,-235.23 
634934.272,4400967.454,-234.46 
634934.272,4400867.543,-233.49 
634934.272,4400767.632,-233.98 
634934.272,4400667.721,-235.19 
634934.272,4400567.810,-235.41 
634934.272,4400467.900,-234.65 
634934.272,4400367.989,-233.89 
634934.272,4400268.078,-233.24 
634934.272,4400168.167,-232.79 
634934.272,4400068.256,-233.7 
634934.272,4399968.345,-234.48 
634934.272,4399868.434,-235.24 
634934.272,4399768.524,-235.69 
634934.272,4399668.613,-236.11 
634934.272,4399568.702,-235.84 
634934.272,4399468.791,-234.28 
634934.272,4399368.880,-232.86 
634934.272,4399268.969,-233.74 
634934.272,4399169.058,-237.4 
634934.272,4399069.148,-239.25 
634934.272,4398969.237,-238.51 
634934.272,4398869.326,-236.4 
634934.272,4398769.415,-233.91 
634934.272,4398669.504,-233.58 
634934.272,4398569.593,-235.77 
634934.272,4398469.682,-237.02 
634934.272,4398369.772,-236.39 
634934.272,4398269.861,-236.13 
634934.272,4398169.950,-236.85 
634934.272,4398070.039,-237.76 
634934.272,4397970.128,-238.24 
634934.272,4397870.217,-239.34 
634934.272,4397770.306,-243.26 
634934.272,4397670.395,-243.03 
634934.272,4397570.485,-241.6 
634934.272,4397470.574,-241.95 
634934.272,4397370.663,-241.63 
634934.272,4397270.752,-240.52 
634934.272,4397170.841,-239.46 
634934.272,4397070.930,-238.54 
634934.272,4396971.019,-237.32 
634934.272,4396871.109,-235.68 
634934.272,4396771.198,-234.56 
634934.272,4396671.287,-233.96 
634934.272,4396571.376,-233.83 
634934.272,4396471.465,-233.77 
634934.272,4396371.554,-232.36 
634934.272,4396271.643,-230.08 
634934.272,4396171.733,-227.85 
634934.272,4396071.822,-225.04 
634934.272,4395971.911,-221.49 
634934.272,4395872.000,-218.53 
634934.272,4395772.089,-216.51 
634934.272,4395672.178,-215.04 
634934.272,4395572.267,-214.24 
634934.272,4395472.357,-214.5 
634934.272,4395372.446,-215.04 
634934.272,4395272.535,-214.71 
634934.272,4395172.624,-212.88 
634934.272,4395072.713,-210.09 
634934.272,4394972.802,-207.58 
634934.272,4394872.891,-206.06 
634934.272,4394772.981,-204.87 
634934.272,4394673.070,-204.12 
634934.272,4394573.159,-204.13 
634934.272,4394473.248,-204.72 
634934.272,4394373.337,-204.18 
634934.272,4394273.426,-202.15 
634934.272,4394173.515,-199.16 
634934.272,4394073.605,-196.08 
634934.272,4393973.694,-195.2 
634934.272,4393873.783,-196.62 
634934.272,4393773.872,-198.81 
634934.272,4393673.961,-200.58 
634934.272,4393574.050,-201.9 
634934.272,4393474.139,-202.18 
634934.272,4393374.229,-200.34 
634934.272,4393274.318,-196.81 
634934.272,4393174.407,-192.66 
634934.272,4393074.496,-188.66 
634934.272,4392974.585,-182.96 
634934.272,4392874.674,-177.94 
635034.030,4409759.610,-131.74 
635034.030,4409659.699,-133.5 
635034.030,4409559.788,-136.54 
635034.030,4409459.877,-139.72 
635034.030,4409359.966,-142.9 
635034.030,4409260.055,-146.22 
