659916.646,4431204.883,-736.94 
659916.646,4431005.400,-735.98 
659916.646,4430805.917,-734.13 
659916.646,4430606.434,-732.55 
659916.646,4430406.951,-734.24 
659916.646,4430207.468,-739.54 
659916.646,4430007.985,-743.4 
659916.646,4429808.502,-745.81 
659916.646,4429609.019,-751.17 
659916.646,4429409.536,-755.79 
659916.646,4429210.053,-753.1 
659916.646,4429010.570,-750.71 
659916.646,4428811.087,-751.62 
659916.646,4428611.604,-754.07 
659916.646,4428412.120,-756.63 
659916.646,4428212.637,-756.4 
659916.646,4428013.154,-757.33 
659916.646,4427813.671,-759.63 
659916.646,4427614.188,-762.98 
659916.646,4427414.705,-765.69 
659916.646,4427215.222,-767.14 
659916.646,4427015.739,-769.59 
659916.646,4426816.256,-771.52 
659916.646,4426616.773,-773.76 
659916.646,4426417.290,-776.61 
659916.646,4426217.807,-778.12 
659916.646,4426018.324,-778.22 
659916.646,4425818.841,-778.35 
659916.646,4425619.358,-778.16 
659916.646,4425419.875,-777.38 
659916.646,4425220.392,-779.47 
659916.646,4425020.909,-780.87 
659916.646,4424821.426,-781.04 
659916.646,4424621.943,-778.7 
659916.646,4424422.460,-776.04 
659916.646,4424222.977,-775.24 
659916.646,4424023.494,-774.59 
659916.646,4423824.011,-773.5 
659916.646,4423624.528,-773.47 
659916.646,4423425.045,-772.66 
659916.646,4423225.561,-770.18 
659916.646,4423026.078,-767.51 
659916.646,4422826.595,-764.99 
659916.646,4422627.112,-762.32 
659916.646,4422427.629,-761.08 
659916.646,4422228.146,-759.23 
659916.646,4422028.663,-756.38 
659916.646,4421829.180,-755.01 
659916.646,4421629.697,-754.65 
659916.646,4421430.214,-753.62 
659916.646,4421230.731,-753.45 
659916.646,4421031.248,-754.64 
659916.646,4420831.765,-754.29 
659916.646,4420632.282,-752.63 
659916.646,4420432.799,-751.52 
659916.646,4420233.316,-751.24 
659916.646,4420033.833,-750.64 
659916.646,4419834.350,-749.36 
659916.646,4419634.867,-746.75 
659916.646,4419435.384,-744.06 
659916.646,4419235.901,-741.53 
659916.646,4419036.418,-738.26 
659916.646,4418836.935,-734.9 
659916.646,4418637.452,-732.09 
659916.646,4418437.969,-728.8 
659916.646,4418238.485,-726.13 
659916.646,4418039.002,-724 
659916.646,4417839.519,-720.1 
659916.646,4417640.036,-714.7 
659916.646,4417440.553,-707.86 
659916.646,4417241.070,-699.08 
659916.646,4417041.587,-688.93 
659916.646,4416842.104,-679.45 
659916.646,4416642.621,-670.73 
659916.646,4416443.138,-662.41 
659916.646,4416243.655,-654.22 
659916.646,4416044.172,-646.16 
659916.646,4415844.689,-638.16 
659916.646,4415645.206,-631.63 
659916.646,4415445.723,-617.38 
659916.646,4415246.240,-601.66 
659916.646,4393901.555,-582.44 
659916.646,4393702.072,-587.01 
659916.646,4393502.589,-593.98 
659916.646,4393303.106,-603.41 
659916.646,4393103.622,-611.66 
659916.646,4392904.139,-622.41 
659916.646,4392704.656,-630.14 
659916.646,4392505.173,-635.27 
659916.646,4392305.690,-644.3 
659916.646,4392106.207,-646.2 
659916.646,4391906.724,-643.69 
659916.646,4391707.241,-636.58 
659916.646,4391507.758,-629.98 
659916.646,4391308.275,-620.05 
659916.646,4391108.792,-613.49 
659916.646,4390909.309,-609.35 
659916.646,4390709.826,-607.48 
659916.646,4390510.343,-601.36 
659916.646,4390310.860,-596.06 
659916.646,4390111.377,-588.87 
660116.530,4437787.823,-589.84 
660116.530,4437588.340,-605.45 
660116.530,4437388.857,-627.66 
660116.530,4437189.374,-653.18 
660116.530,4436989.891,-677.37 
660116.530,4436790.408,-694.47 
660116.530,4436590.925,-704.77 
660116.530,4436391.442,-710.49 
660116.530,4436191.959,-713.31 
660116.530,4435992.476,-715.5 
660116.530,4435792.993,-716.91 
660116.530,4435593.510,-717.81 
660116.530,4435394.027,-719.79 
660116.530,4435194.544,-721.92 
660116.530,4434995.061,-723.66 
660116.530,4434795.578,-723.57 
660116.530,4434596.095,-724.24 
660116.530,4434396.612,-726.36 
660116.530,4434197.129,-727.71 
660116.530,4433997.646,-729.33 
660116.530,4433798.163,-731.05 
660116.530,4433598.680,-732.08 
660116.530,4433399.196,-733.26 
660116.530,4433199.713,-733.72 
660116.530,4433000.230,-733.82 
660116.530,4432800.747,-734.12 
660116.530,4432601.264,-733.94 
660116.530,4432401.781,-732.95 
660116.530,4432202.298,-732.89 
660116.530,4432002.815,-733.29 
660116.530,4431803.332,-735.67 
660116.530,4431603.849,-738.42 
660116.530,4431404.366,-739.23 
660116.530,4431204.883,-740.17 
660116.530,4431005.400,-739.28 
660116.530,4430805.917,-737.5 
660116.530,4430606.434,-738.06 
660116.530,4430406.951,-740.83 
660116.530,4430207.468,-744.82 
660116.530,4430007.985,-748.39 
660116.530,4429808.502,-750.98 
660116.530,4429609.019,-755.18 
660116.530,4429409.536,-758.74 
660116.530,4429210.053,-756.86 
660116.530,4429010.570,-754.1 
660116.530,4428811.087,-752.8 
660116.530,4428611.604,-756.46 
660116.530,4428412.120,-761.25 
660116.530,4428212.637,-760.68 
660116.530,4428013.154,-761.4 
660116.530,4427813.671,-763.12 
660116.530,4427614.188,-765.67 
660116.530,4427414.705,-768.5 
660116.530,4427215.222,-770.46 
660116.530,4427015.739,-773.16 
660116.530,4426816.256,-775.15 
660116.530,4426616.773,-777.29 
660116.530,4426417.290,-780.69 
660116.530,4426217.807,-782.82 
660116.530,4426018.324,-783.36 
660116.530,4425818.841,-782.7 
660116.530,4425619.358,-782.51 
660116.530,4425419.875,-783.23 
660116.530,4425220.392,-784.02 
660116.530,4425020.909,-784.1 
660116.530,4424821.426,-783.84 
660116.530,4424621.943,-782.25 
660116.530,4424422.460,-780.15 
660116.530,4424222.977,-779.17 
660116.530,4424023.494,-778.03 
660116.530,4423824.011,-776.45 
660116.530,4423624.528,-776.87 
660116.530,4423425.045,-776.02 
660116.530,4423225.561,-773.98 
660116.530,4423026.078,-771.69 
660116.530,4422826.595,-768.55 
660116.530,4422627.112,-766.33 
660116.530,4422427.629,-765.42 
660116.530,4422228.146,-763.2 
660116.530,4422028.663,-760.63 
660116.530,4421829.180,-759.62 
660116.530,4421629.697,-758.72 
660116.530,4421430.214,-757.39 
660116.530,4421230.731,-757.14 
660116.530,4421031.248,-757.71 
660116.530,4420831.765,-757.5 
660116.530,4420632.282,-755.88 
660116.530,4420432.799,-754.31 
660116.530,4420233.316,-754.18 
660116.530,4420033.833,-754.19 
660116.530,4419834.350,-753.21 
660116.530,4419634.867,-750.31 
660116.530,4419435.384,-746.92 
660116.530,4419235.901,-743.72 
660116.530,4419036.418,-740.46 
660116.530,4418836.935,-737.7 
660116.530,4418637.452,-735.4 
660116.530,4418437.969,-732.43 
660116.530,4418238.485,-729.94 
660116.530,4418039.002,-727.7 
660116.530,4417839.519,-724.65 
660116.530,4417640.036,-720.02 
660116.530,4417440.553,-712.57 
660116.530,4417241.070,-701.82 
660116.530,4417041.587,-690.19 
660116.530,4416842.104,-679.79 
660116.530,4416642.621,-670.24 
660116.530,4416443.138,-660.57 
660116.530,4416243.655,-650.5 
660116.530,4416044.172,-641.1 
660116.530,4415844.689,-633.43 
660116.530,4415645.206,-627.51 
660116.530,4415246.240,-593.97 
660116.530,4393901.555,-580.43 
660116.530,4393702.072,-583.08 
660116.530,4393502.589,-587.92 
660116.530,4393303.106,-594.86 
660116.530,4393103.622,-603.27 
660116.530,4392904.139,-615.84 
660116.530,4392704.656,-626.83 
660116.530,4392505.173,-635.81 
660116.530,4392305.690,-644.83 
660116.530,4392106.207,-650.34 
660116.530,4391906.724,-646.97 
660116.530,4391707.241,-641.38 
660116.530,4391507.758,-634.89 
660116.530,4391308.275,-629.62 
660116.530,4391108.792,-625.44 
660116.530,4390909.309,-620.25 
660116.530,4390709.826,-615.72 
660116.530,4390510.343,-609.93 
660116.530,4390310.860,-603.69 
660116.530,4390111.377,-593.81 
660116.530,4389911.894,-587.2 
660316.415,4437787.823,-586.12 
660316.415,4437588.340,-598.53 
660316.415,4437388.857,-615.99 
660316.415,4437189.374,-644.05 
660316.415,4436989.891,-673.59 
660316.415,4436790.408,-695.74 
660316.415,4436590.925,-709.32 
660316.415,4436391.442,-713.88 
660316.415,4436191.959,-715.97 
660316.415,4435992.476,-719.18 
660316.415,4435792.993,-721.07 
660316.415,4435593.510,-722.04 
660316.415,4435394.027,-723.87 
660316.415,4435194.544,-725.78 
660316.415,4434995.061,-727.73 
660316.415,4434795.578,-727.74 
660316.415,4434596.095,-728.35 
660316.415,4434396.612,-730.16 
660316.415,4434197.129,-731.59 
660316.415,4433997.646,-733.56 
660316.415,4433798.163,-735.46 
660316.415,4433598.680,-736.36 
660316.415,4433399.196,-737.05 
660316.415,4433199.713,-737.1 
660316.415,4433000.230,-736.96 
660316.415,4432800.747,-738.17 
660316.415,4432601.264,-738.95 
660316.415,4432401.781,-738.22 
660316.415,4432202.298,-737.76 
660316.415,4432002.815,-738.74 
660316.415,4431803.332,-741.22 
660316.415,4431603.849,-743.02 
660316.415,4431404.366,-742.86 
660316.415,4431204.883,-742.48 
660316.415,4431005.400,-742.37 
660316.415,4430805.917,-743.37 
660316.415,4430606.434,-744.62 
660316.415,4430406.951,-746.57 
660316.415,4430207.468,-749.02 
660316.415,4430007.985,-750.84 
660316.415,4429808.502,-752.52 
660316.415,4429609.019,-756.22 
660316.415,4429409.536,-760.25 
660316.415,4429210.053,-759.6 
660316.415,4429010.570,-756.87 
660316.415,4428811.087,-755.17 
660316.415,4428611.604,-760.12 
660316.415,4428412.120,-765.37 
660316.415,4428212.637,-764.54 
660316.415,4428013.154,-765.01 
660316.415,4427813.671,-766.38 
660316.415,4427614.188,-768.02 
660316.415,4427414.705,-771.08 
660316.415,4427215.222,-773.96 
660316.415,4427015.739,-775.9 
660316.415,4426816.256,-778.11 
660316.415,4426616.773,-780.18 
660316.415,4426417.290,-783.36 
660316.415,4426217.807,-786.73 
660316.415,4426018.324,-789.09 
660316.415,4425818.841,-789.14 
660316.415,4425619.358,-788.56 
660316.415,4425419.875,-788.88 
660316.415,4425220.392,-788.17 
660316.415,4425020.909,-787.08 
660316.415,4424821.426,-786.25 
660316.415,4424621.943,-785.81 
660316.415,4424422.460,-784.48 
660316.415,4424222.977,-783.96 
660316.415,4424023.494,-782.49 
660316.415,4423824.011,-779.82 
660316.415,4423624.528,-779.49 
660316.415,4423425.045,-778.46 
660316.415,4423225.561,-776.66 
660316.415,4423026.078,-775.06 
660316.415,4422826.595,-772.96 
660316.415,4422627.112,-771.87 
660316.415,4422427.629,-770.09 
660316.415,4422228.146,-767.8 
660316.415,4422028.663,-766 
660316.415,4421829.180,-764.97 
660316.415,4421629.697,-763.33 
660316.415,4421430.214,-762.18 
660316.415,4421230.731,-761.89 
660316.415,4421031.248,-761.43 
660316.415,4420831.765,-760.9 
660316.415,4420632.282,-759.43 
660316.415,4420432.799,-757.61 
660316.415,4420233.316,-756.95 
660316.415,4420033.833,-756.35 
660316.415,4419834.350,-754.9 
660316.415,4419634.867,-752.58 
660316.415,4419435.384,-749.45 
660316.415,4419235.901,-746.2 
660316.415,4419036.418,-743.67 
660316.415,4418836.935,-742.12 
660316.415,4418637.452,-739.56 
660316.415,4418437.969,-736.46 
660316.415,4418238.485,-734.29 
660316.415,4418039.002,-731.7 
660316.415,4417839.519,-729.2 
660316.415,4417640.036,-725.23 
660316.415,4417440.553,-716.77 
660316.415,4417241.070,-704.77 
660316.415,4417041.587,-693.06 
660316.415,4416842.104,-682.56 
660316.415,4416642.621,-672.2 
660316.415,4416443.138,-660.64 
660316.415,4416243.655,-649.47 
660316.415,4416044.172,-639.77 
660316.415,4415844.689,-631.74 
660316.415,4415645.206,-622.9 
660316.415,4415445.723,-607.86 
660316.415,4415246.240,-595.17 
660316.415,4415046.757,-589.38 
660316.415,4393702.072,-580.44 
660316.415,4393502.589,-581.69 
660316.415,4393303.106,-584.94 
660316.415,4393103.622,-593.26 
660316.415,4392904.139,-604.23 
660316.415,4392704.656,-617.13 
660316.415,4392505.173,-629.7 
660316.415,4392305.690,-644.58 
660316.415,4392106.207,-654.14 
660316.415,4391906.724,-652.99 
660316.415,4391707.241,-648.35 
660316.415,4391507.758,-642.4 
660316.415,4391308.275,-637.66 
660316.415,4391108.792,-635.88 
660316.415,4390909.309,-632.78 
660316.415,4390709.826,-625.24 
660316.415,4390510.343,-618.04 
660316.415,4390310.860,-609.23 
660316.415,4390111.377,-600 
660316.415,4389911.894,-593.82 
660316.415,4389712.411,-586.56 
660516.299,4437987.306,-582.76 
660516.299,4437787.823,-590.94 
660516.299,4437588.340,-606.79 
660516.299,4437388.857,-626.93 
660516.299,4437189.374,-655.95 
660516.299,4436989.891,-685.04 
660516.299,4436790.408,-705.21 
660516.299,4436590.925,-715.86 
660516.299,4436391.442,-718.13 
660516.299,4436191.959,-718.76 
660516.299,4435992.476,-720.89 
660516.299,4435792.993,-723.25 
660516.299,4435593.510,-724.69 
660516.299,4435394.027,-726.09 
660516.299,4435194.544,-729.01 
660516.299,4434995.061,-731.34 
660516.299,4434795.578,-732.81 
660516.299,4434596.095,-733.72 
660516.299,4434396.612,-733.89 
660516.299,4434197.129,-735.15 
660516.299,4433997.646,-737.65 
660516.299,4433798.163,-739.63 
660516.299,4433598.680,-739.84 
660516.299,4433399.196,-740.18 
660516.299,4433199.713,-740.9 
660516.299,4433000.230,-741.73 
660516.299,4432800.747,-744.38 
660516.299,4432601.264,-745.82 
660516.299,4432401.781,-745.08 
660516.299,4432202.298,-744.85 
660516.299,4432002.815,-745.72 
660516.299,4431803.332,-746.31 
660516.299,4431603.849,-747.66 
660516.299,4431404.366,-748.77 
660516.299,4431204.883,-747.48 
660516.299,4431005.400,-747.41 
660516.299,4430805.917,-750.01 
660516.299,4430606.434,-751.28 
660516.299,4430406.951,-752.17 
660516.299,4430207.468,-753.64 
660516.299,4430007.985,-753.25 
660516.299,4429808.502,-753.11 
660516.299,4429609.019,-756.28 
660516.299,4429409.536,-760.52 
660516.299,4429210.053,-761.55 
660516.299,4429010.570,-759.85 
660516.299,4428811.087,-760.11 
660516.299,4428611.604,-765.07 
660516.299,4428412.120,-768.61 
660516.299,4428212.637,-768.78 
660516.299,4428013.154,-769.22 
660516.299,4427813.671,-769.78 
660516.299,4427614.188,-770.9 
660516.299,4427414.705,-773.72 
660516.299,4427215.222,-777.16 
660516.299,4427015.739,-778.8 
660516.299,4426816.256,-780.2 
660516.299,4426616.773,-782.5 
660516.299,4426417.290,-786.02 
660516.299,4426217.807,-789.84 
660516.299,4426018.324,-792.81 
660516.299,4425818.841,-793.75 
660516.299,4425619.358,-793.63 
660516.299,4425419.875,-793.64 
660516.299,4425220.392,-793.46 
660516.299,4425020.909,-793.16 
660516.299,4424821.426,-791.75 
660516.299,4424621.943,-790.42 
660516.299,4424422.460,-789.07 
660516.299,4424222.977,-788.43 
660516.299,4424023.494,-787.06 
660516.299,4423824.011,-784.81 
660516.299,4423624.528,-783.68 
660516.299,4423425.045,-781.31 
660516.299,4423225.561,-779.38 
660516.299,4423026.078,-777.81 
660516.299,4422826.595,-776.55 
660516.299,4422627.112,-776.07 
660516.299,4422427.629,-773.87 
660516.299,4422228.146,-772.35 
660516.299,4422028.663,-771.3 
660516.299,4421829.180,-769.88 
660516.299,4421629.697,-767.56 
660516.299,4421430.214,-766.19 
660516.299,4421230.731,-765.73 
660516.299,4421031.248,-764.57 
660516.299,4420831.765,-763.71 
660516.299,4420632.282,-762.41 
660516.299,4420432.799,-760.89 
660516.299,4420233.316,-759.92 
660516.299,4420033.833,-758.61 
660516.299,4419834.350,-756.54 
660516.299,4419634.867,-754.11 
660516.299,4419435.384,-751.02 
660516.299,4419235.901,-748.51 
660516.299,4419036.418,-747.27 
660516.299,4418836.935,-745.87 
660516.299,4418637.452,-743.8 
660516.299,4418437.969,-740.41 
660516.299,4418238.485,-737.64 
660516.299,4418039.002,-735.52 
660516.299,4417839.519,-732.93 
660516.299,4417640.036,-729.32 
660516.299,4417440.553,-722.47 
660516.299,4417241.070,-712.05 
660516.299,4417041.587,-701.56 
660516.299,4416842.104,-691.4 
660516.299,4416642.621,-681.22 
660516.299,4416443.138,-669.81 
660516.299,4416243.655,-658.47 
660516.299,4416044.172,-648.24 
660516.299,4415844.689,-636.6 
660516.299,4415645.206,-624.43 
660516.299,4415445.723,-610.93 
660516.299,4415246.240,-598.38 
660516.299,4415046.757,-588.3 
660516.299,4393303.106,-581.64 
660516.299,4393103.622,-588.42 
660516.299,4392904.139,-593.99 
660516.299,4392704.656,-602.27 
660516.299,4392505.173,-614.53 
660516.299,4392305.690,-634.62 
660516.299,4392106.207,-653.99 
660516.299,4391906.724,-656.92 
660516.299,4391707.241,-655.79 
660516.299,4391507.758,-650.1 
660516.299,4391308.275,-645.31 
660516.299,4391108.792,-643.88 
660516.299,4390909.309,-641.57 
660516.299,4390709.826,-635.32 
660516.299,4390510.343,-625.88 
660516.299,4390310.860,-613.68 
660516.299,4390111.377,-607.21 
660516.299,4389911.894,-599.55 
660516.299,4389712.411,-592.17 
660516.299,4389512.928,-586.06 
660716.184,4437987.306,-582.14 
660716.184,4437787.823,-591.06 
660716.184,4437588.340,-606.26 
660716.184,4437388.857,-625.2 
660716.184,4437189.374,-651.86 
660716.184,4436989.891,-683.49 
660716.184,4436790.408,-708.52 
660716.184,4436590.925,-720.98 
660716.184,4436391.442,-723.75 
660716.184,4436191.959,-723.62 
660716.184,4435992.476,-724.42 
660716.184,4435792.993,-726.29 
660716.184,4435593.510,-727.88 
660716.184,4435394.027,-729.45 
660716.184,4435194.544,-732.49 
660716.184,4434995.061,-734.9 
660716.184,4434795.578,-736.41 
660716.184,4434596.095,-736.98 
660716.184,4434396.612,-736.81 
660716.184,4434197.129,-738.9 
660716.184,4433997.646,-742.15 
660716.184,4433798.163,-745.17 
660716.184,4433598.680,-745.96 
660716.184,4433399.196,-746.57 
660716.184,4433199.713,-747.44 
660716.184,4433000.230,-747.32 
660716.184,4432800.747,-749.11 
660716.184,4432601.264,-751.32 
660716.184,4432401.781,-750.25 
660716.184,4432202.298,-749.6 
660716.184,4432002.815,-749.98 
660716.184,4431803.332,-750.1 
660716.184,4431603.849,-751.48 
660716.184,4431404.366,-751.6 
660716.184,4431204.883,-749.52 
660716.184,4431005.400,-749.44 
660716.184,4430805.917,-752.61 
660716.184,4430606.434,-755.16 
660716.184,4430406.951,-757.57 
660716.184,4430207.468,-759.22 
660716.184,4430007.985,-757.25 
660716.184,4429808.502,-756.96 
660716.184,4429609.019,-759.22 
660716.184,4429409.536,-761.68 
660716.184,4429210.053,-763.13 
660716.184,4429010.570,-763.12 
660716.184,4428811.087,-765.35 
660716.184,4428611.604,-768.56 
660716.184,4428412.120,-771.71 
660716.184,4428212.637,-773.87 
660716.184,4428013.154,-773.59 
660716.184,4427813.671,-773.62 
660716.184,4427614.188,-775.69 
660716.184,4427414.705,-778.69 
660716.184,4427215.222,-781.46 
660716.184,4427015.739,-782.23 
660716.184,4426816.256,-782.17 
660716.184,4426616.773,-784.77 
660716.184,4426417.290,-788.4 
660716.184,4426217.807,-791.84 
660716.184,4426018.324,-794.54 
660716.184,4425818.841,-796.35 
660716.184,4425619.358,-798.02 
660716.184,4425419.875,-798.79 
660716.184,4425220.392,-799.81 
660716.184,4425020.909,-800.2 
660716.184,4424821.426,-798.59 
660716.184,4424621.943,-796.46 
660716.184,4424422.460,-794.95 
660716.184,4424222.977,-793.81 
660716.184,4424023.494,-791.68 
660716.184,4423824.011,-789.24 
660716.184,4423624.528,-787.69 
660716.184,4423425.045,-784.84 
660716.184,4423225.561,-783.02 
660716.184,4423026.078,-781.15 
660716.184,4422826.595,-779.68 
660716.184,4422627.112,-778.93 
660716.184,4422427.629,-777.39 
660716.184,4422228.146,-776.37 
660716.184,4422028.663,-774.64 
660716.184,4421829.180,-773.02 
660716.184,4421629.697,-771.34 
660716.184,4421430.214,-770.04 
660716.184,4421230.731,-769.12 
660716.184,4421031.248,-768 
660716.184,4420831.765,-766.89 
660716.184,4420632.282,-765.32 
660716.184,4420432.799,-764.28 
660716.184,4420233.316,-763.09 
660716.184,4420033.833,-761.47 
660716.184,4419834.350,-759.49 
660716.184,4419634.867,-756.88 
660716.184,4419435.384,-753.69 
660716.184,4419235.901,-751.22 
660716.184,4419036.418,-749.88 
660716.184,4418836.935,-748.37 
660716.184,4418637.452,-747.53 
660716.184,4418437.969,-745.05 
660716.184,4418238.485,-741.98 
660716.184,4418039.002,-739.22 
660716.184,4417839.519,-736.31 
660716.184,4417640.036,-733.42 
660716.184,4417440.553,-728.92 
660716.184,4417241.070,-721.76 
660716.184,4417041.587,-713.32 
660716.184,4416842.104,-704.62 
660716.184,4416642.621,-696.1 
660716.184,4416443.138,-686.53 
660716.184,4416243.655,-674.78 
660716.184,4416044.172,-660.92 
660716.184,4415844.689,-644.69 
660716.184,4415645.206,-628.1 
660716.184,4415445.723,-611.23 
660716.184,4415246.240,-597.96 
660716.184,4415046.757,-584.65 
660716.184,4393103.622,-584.79 
660716.184,4392904.139,-589.68 
660716.184,4392704.656,-589.75 
660716.184,4392505.173,-597.55 
660716.184,4392305.690,-612.35 
660716.184,4392106.207,-637.7 
660716.184,4391906.724,-660.23 
660716.184,4391707.241,-659.91 
660716.184,4391507.758,-656.29 
660716.184,4391308.275,-652.84 
660716.184,4391108.792,-649.84 
660716.184,4390909.309,-646.68 
660716.184,4390709.826,-642.51 
660716.184,4390510.343,-634.62 
660716.184,4390310.860,-622.73 
660716.184,4390111.377,-612.22 
660716.184,4389911.894,-605.38 
660716.184,4389712.411,-600.22 
660716.184,4389512.928,-595.66 
660716.184,4389313.445,-589.04 
660916.068,4437987.306,-583.98 
660916.068,4437787.823,-589.71 
660916.068,4437588.340,-602.91 
660916.068,4437388.857,-623.07 
660916.068,4437189.374,-650.37 
660916.068,4436989.891,-685.3 
660916.068,4436790.408,-712.17 
660916.068,4436590.925,-726.77 
660916.068,4436391.442,-731.41 
660916.068,4436191.959,-730.25 
660916.068,4435992.476,-729.88 
660916.068,4435792.993,-730.55 
660916.068,4435593.510,-731.72 
660916.068,4435394.027,-734.03 
660916.068,4435194.544,-736.47 
660916.068,4434995.061,-738.19 
660916.068,4434795.578,-739.17 
660916.068,4434596.095,-740.32 
660916.068,4434396.612,-741.31 
660916.068,4434197.129,-743.38 
660916.068,4433997.646,-746.47 
660916.068,4433798.163,-749.62 
660916.068,4433598.680,-751.17 
660916.068,4433399.196,-752.03 
660916.068,4433199.713,-752.36 
660916.068,4433000.230,-750.88 
660916.068,4432800.747,-751.38 
660916.068,4432601.264,-752.96 
660916.068,4432401.781,-750.62 
660916.068,4432202.298,-749.7 
660916.068,4432002.815,-751 
660916.068,4431803.332,-752 
660916.068,4431603.849,-752.4 
660916.068,4431404.366,-751.28 
660916.068,4431204.883,-750.14 
660916.068,4431005.400,-751.04 
660916.068,4430805.917,-754.42 
660916.068,4430606.434,-757.55 
660916.068,4430406.951,-762.54 
660916.068,4430207.468,-765.48 
660916.068,4430007.985,-762.18 
660916.068,4429808.502,-761.39 
660916.068,4429609.019,-763.6 
660916.068,4429409.536,-764.87 
660916.068,4429210.053,-765.69 
660916.068,4429010.570,-766.36 
660916.068,4428811.087,-767.97 
660916.068,4428611.604,-769.58 
660916.068,4428412.120,-773.91 
660916.068,4428212.637,-777.55 
660916.068,4428013.154,-776.64 
660916.068,4427813.671,-777.17 
660916.068,4427614.188,-779.98 
660916.068,4427414.705,-782.98 
660916.068,4427215.222,-784.93 
660916.068,4427015.739,-785.21 
660916.068,4426816.256,-785.28 
660916.068,4426616.773,-787.82 
660916.068,4426417.290,-791.12 
660916.068,4426217.807,-794.55 
660916.068,4426018.324,-798.22 
660916.068,4425818.841,-801.15 
660916.068,4425619.358,-803.35 
660916.068,4425419.875,-804.37 
660916.068,4425220.392,-803.87 
660916.068,4425020.909,-803.27 
660916.068,4424821.426,-803.51 
660916.068,4424621.943,-802.82 
660916.068,4424422.460,-801.27 
660916.068,4424222.977,-800.19 
660916.068,4424023.494,-797.31 
660916.068,4423824.011,-793.59 
660916.068,4423624.528,-792.02 
660916.068,4423425.045,-789.42 
660916.068,4423225.561,-787.04 
660916.068,4423026.078,-784.7 
660916.068,4422826.595,-783.26 
660916.068,4422627.112,-782.53 
660916.068,4422427.629,-781.73 
660916.068,4422228.146,-780.08 
660916.068,4422028.663,-777.46 
660916.068,4421829.180,-775.56 
660916.068,4421629.697,-774.74 
660916.068,4421430.214,-773.99 
660916.068,4421230.731,-773.28 
660916.068,4421031.248,-772.61 
660916.068,4420831.765,-771.87 
660916.068,4420632.282,-769.86 
660916.068,4420432.799,-768.22 
660916.068,4420233.316,-766.86 
660916.068,4420033.833,-765.27 
660916.068,4419834.350,-762.96 
660916.068,4419634.867,-759.64 
660916.068,4419435.384,-756.6 
660916.068,4419235.901,-754.28 
660916.068,4419036.418,-752.24 
660916.068,4418836.935,-750.58 
660916.068,4418637.452,-749.56 
660916.068,4418437.969,-748.58 
660916.068,4418238.485,-746.88 
660916.068,4418039.002,-743.93 
660916.068,4417839.519,-740.54 
660916.068,4417640.036,-737.7 
660916.068,4417440.553,-733.37 
660916.068,4417241.070,-726.87 
660916.068,4417041.587,-718.93 
660916.068,4416842.104,-711.37 
660916.068,4416642.621,-704.45 
660916.068,4416443.138,-695.95 
660916.068,4416243.655,-683.05 
660916.068,4416044.172,-665.71 
660916.068,4415844.689,-647.88 
660916.068,4415645.206,-630.32 
660916.068,4415445.723,-611.23 
660916.068,4415246.240,-595.51 
660916.068,4392704.656,-582.71 
660916.068,4392505.173,-585.76 
660916.068,4392305.690,-598.31 
660916.068,4392106.207,-602.42 
660916.068,4391906.724,-644.39 
660916.068,4391707.241,-664.38 
660916.068,4391507.758,-661.24 
660916.068,4391308.275,-659.29 
660916.068,4391108.792,-654.87 
660916.068,4390909.309,-650.83 
660916.068,4390709.826,-649.68 
660916.068,4390510.343,-643.56 
660916.068,4390310.860,-634.06 
660916.068,4390111.377,-618.35 
660916.068,4389911.894,-612.98 
660916.068,4389712.411,-608.48 
660916.068,4389512.928,-605.62 
660916.068,4389313.445,-601.7 
660916.068,4389113.962,-594.45 
660916.068,4388914.479,-584.86 
661115.953,4437987.306,-584.44 
661115.953,4437787.823,-590.67 
661115.953,4437588.340,-603.8 
661115.953,4437388.857,-626.66 
661115.953,4437189.374,-655.24 
661115.953,4436989.891,-690.26 
661115.953,4436790.408,-716.61 
661115.953,4436590.925,-730.11 
661115.953,4436391.442,-735.13 
661115.953,4436191.959,-734.98 
661115.953,4435992.476,-734.84 
661115.953,4435792.993,-735.71 
661115.953,4435593.510,-736.87 
661115.953,4435394.027,-739.19 
661115.953,4435194.544,-741.1 
661115.953,4434995.061,-742.07 
661115.953,4434795.578,-743.07 
661115.953,4434596.095,-745.19 
661115.953,4434396.612,-747.06 
661115.953,4434197.129,-748.83 
661115.953,4433997.646,-750.71 
661115.953,4433798.163,-751.47 
661115.953,4433598.680,-752.56 
661115.953,4433399.196,-753.76 
661115.953,4433199.713,-754.13 
661115.953,4433000.230,-753.8 
661115.953,4432800.747,-754.71 
661115.953,4432601.264,-755.61 
661115.953,4432401.781,-751.96 
661115.953,4432202.298,-750.43 
661115.953,4432002.815,-752.61 
661115.953,4431803.332,-754.36 
661115.953,4431603.849,-754.82 
661115.953,4431404.366,-754.01 
661115.953,4431204.883,-754.29 
661115.953,4431005.400,-756.65 
661115.953,4430805.917,-759.54 
661115.953,4430606.434,-761.41 
661115.953,4430406.951,-765.93 
661115.953,4430207.468,-769.02 
661115.953,4430007.985,-765.23 
661115.953,4429808.502,-763.33 
661115.953,4429609.019,-765.9 
661115.953,4429409.536,-768.62 
661115.953,4429210.053,-770.47 
661115.953,4429010.570,-770.37 
661115.953,4428811.087,-770.87 
661115.953,4428611.604,-772.5 
661115.953,4428412.120,-776.14 
661115.953,4428212.637,-779.44 
661115.953,4428013.154,-779.49 
661115.953,4427813.671,-780.42 
661115.953,4427614.188,-782.48 
661115.953,4427414.705,-784.66 
661115.953,4427215.222,-786.45 
661115.953,4427015.739,-787.89 
661115.953,4426816.256,-788.7 
661115.953,4426616.773,-790.5 
661115.953,4426417.290,-793.14 
661115.953,4426217.807,-796.72 
661115.953,4426018.324,-801.86 
661115.953,4425818.841,-805.4 
661115.953,4425619.358,-806.57 
661115.953,4425419.875,-807.32 
661115.953,4425220.392,-806.27 
661115.953,4425020.909,-804.38 
661115.953,4424821.426,-805.52 
661115.953,4424621.943,-806.37 
661115.953,4424422.460,-805.77 
661115.953,4424222.977,-805.27 
661115.953,4424023.494,-803.57 
661115.953,4423824.011,-800.65 
661115.953,4423624.528,-797.92 
661115.953,4423425.045,-794.41 
661115.953,4423225.561,-790.98 
661115.953,4423026.078,-788.23 
661115.953,4422826.595,-786.5 
661115.953,4422627.112,-786.38 
661115.953,4422427.629,-785.78 
661115.953,4422228.146,-784.02 
661115.953,4422028.663,-781.37 
661115.953,4421829.180,-778.8 
661115.953,4421629.697,-776.92 
661115.953,4421430.214,-775.77 
661115.953,4421230.731,-775.48 
661115.953,4421031.248,-775.78 
661115.953,4420831.765,-776.01 
661115.953,4420632.282,-774.36 
661115.953,4420432.799,-771.99 
661115.953,4420233.316,-770.35 
661115.953,4420033.833,-768.67 
661115.953,4419834.350,-765.94 
661115.953,4419634.867,-762.33 
661115.953,4419435.384,-759.42 
661115.953,4419235.901,-757.69 
661115.953,4419036.418,-754.98 
661115.953,4418836.935,-752.86 
661115.953,4418637.452,-751.13 
661115.953,4418437.969,-750.26 
661115.953,4418238.485,-749.45 
661115.953,4418039.002,-747.42 
661115.953,4417839.519,-744.74 
661115.953,4417640.036,-741.53 
661115.953,4417440.553,-736.69 
661115.953,4417241.070,-729.92 
661115.953,4417041.587,-721.77 
661115.953,4416842.104,-713.08 
661115.953,4416642.621,-704.77 
661115.953,4416443.138,-694.21 
661115.953,4416243.655,-678.27 
661115.953,4416044.172,-659.09 
661115.953,4415844.689,-641.68 
661115.953,4415645.206,-626.57 
661115.953,4415445.723,-610.61 
661115.953,4415246.240,-596.84 
661115.953,4415046.757,-581.11 
661115.953,4392704.656,-583.77 
661115.953,4392505.173,-585.61 
661115.953,4392106.207,-581.19 
661115.953,4391906.724,-609.86 
661115.953,4391707.241,-660.39 
661115.953,4391507.758,-666.17 
661115.953,4391308.275,-663.9 
661115.953,4391108.792,-661.8 
661115.953,4390909.309,-658.09 
661115.953,4390709.826,-656.37 
661115.953,4390510.343,-650.54 
661115.953,4390310.860,-643.19 
661115.953,4390111.377,-631.46 
661115.953,4389911.894,-624.1 
661115.953,4389712.411,-618.68 
661115.953,4389512.928,-615.38 
661115.953,4389313.445,-611.09 
661115.953,4389113.962,-599.95 
661115.953,4388914.479,-587.46 
661315.837,4437987.306,-582.18 
661315.837,4437787.823,-589.08 
661315.837,4437588.340,-603.89 
661315.837,4437388.857,-627.64 
661315.837,4437189.374,-658.62 
661315.837,4436989.891,-691.82 
661315.837,4436790.408,-718.27 
661315.837,4436590.925,-731.11 
661315.837,4436391.442,-736.14 
661315.837,4436191.959,-738.42 
661315.837,4435992.476,-739.73 
661315.837,4435792.993,-741.34 
661315.837,4435593.510,-742.23 
661315.837,4435394.027,-743.54 
661315.837,4435194.544,-745.17 
661315.837,4434995.061,-746.51 
661315.837,4434795.578,-746.85 
661315.837,4434596.095,-748.74 
661315.837,4434396.612,-750.63 
661315.837,4434197.129,-751.68 
661315.837,4433997.646,-753.44 
661315.837,4433798.163,-754.71 
661315.837,4433598.680,-756.15 
661315.837,4433399.196,-757.25 
661315.837,4433199.713,-757.34 
661315.837,4433000.230,-756.8 
661315.837,4432800.747,-757.13 
661315.837,4432601.264,-757.53 
661315.837,4432401.781,-755.19 
661315.837,4432202.298,-753.83 
661315.837,4432002.815,-755.35 
661315.837,4431803.332,-755.86 
661315.837,4431603.849,-756.46 
661315.837,4431404.366,-757.85 
661315.837,4431204.883,-759.52 
661315.837,4431005.400,-762.06 
661315.837,4430805.917,-763.59 
661315.837,4430606.434,-763.75 
661315.837,4430406.951,-766.81 
661315.837,4430207.468,-769.52 
661315.837,4430007.985,-766.16 
661315.837,4429808.502,-764.67 
661315.837,4429609.019,-767.84 
661315.837,4429409.536,-772.19 
661315.837,4429210.053,-775.3 
661315.837,4429010.570,-775.29 
661315.837,4428811.087,-775.09 
661315.837,4428611.604,-775.65 
661315.837,4428412.120,-778.26 
661315.837,4428212.637,-781.4 
661315.837,4428013.154,-783.02 
661315.837,4427813.671,-784.8 
661315.837,4427614.188,-786.3 
661315.837,4427414.705,-787.25 
661315.837,4427215.222,-788.66 
661315.837,4427015.739,-790.39 
661315.837,4426816.256,-791.03 
661315.837,4426616.773,-792.06 
661315.837,4426417.290,-794 
661315.837,4426217.807,-797.58 
661315.837,4426018.324,-802.23 
661315.837,4425818.841,-805.13 
661315.837,4425619.358,-806.88 
661315.837,4425419.875,-808.04 
661315.837,4425220.392,-807.85 
661315.837,4425020.909,-806.66 
661315.837,4424821.426,-807.14 
661315.837,4424621.943,-808.01 
661315.837,4424422.460,-808.3 
661315.837,4424222.977,-807.69 
661315.837,4424023.494,-806.76 
661315.837,4423824.011,-806.01 
661315.837,4423624.528,-803.58 
661315.837,4423425.045,-799.81 
661315.837,4423225.561,-796.75 
661315.837,4423026.078,-794.57 
661315.837,4422826.595,-791.89 
661315.837,4422627.112,-790.94 
661315.837,4422427.629,-789.97 
661315.837,4422228.146,-788.34 
661315.837,4422028.663,-785.51 
661315.837,4421829.180,-782.44 
661315.837,4421629.697,-779.85 
661315.837,4421430.214,-778.09 
661315.837,4421230.731,-777.33 
661315.837,4421031.248,-777.32 
661315.837,4420831.765,-777.25 
661315.837,4420632.282,-776.31 
661315.837,4420432.799,-775.31 
661315.837,4420233.316,-774.01 
661315.837,4420033.833,-771.58 
661315.837,4419834.350,-768.57 
661315.837,4419634.867,-765.35 
661315.837,4419435.384,-762.65 
661315.837,4419235.901,-760.63 
661315.837,4419036.418,-758.4 
661315.837,4418836.935,-756.35 
661315.837,4418637.452,-754.76 
661315.837,4418437.969,-753.47 
661315.837,4418238.485,-752.04 
661315.837,4418039.002,-749.96 
661315.837,4417839.519,-747.86 
661315.837,4417640.036,-744.63 
661315.837,4417440.553,-739.71 
661315.837,4417241.070,-733.61 
661315.837,4417041.587,-725.92 
661315.837,4416842.104,-715.15 
661315.837,4416642.621,-702.09 
661315.837,4416443.138,-687.13 
661315.837,4416243.655,-668.88 
661315.837,4416044.172,-650.13 
661315.837,4415844.689,-634.09 
661315.837,4415645.206,-618.59 
661315.837,4415445.723,-602.42 
661315.837,4415246.240,-593 
661315.837,4392704.656,-597.48 
661315.837,4392505.173,-597.52 
661315.837,4391906.724,-593.34 
661315.837,4391707.241,-635.05 
661315.837,4391507.758,-669.27 
661315.837,4391308.275,-667.52 
661315.837,4391108.792,-666.67 
661315.837,4390909.309,-663.96 
661315.837,4390709.826,-660.41 
661315.837,4390510.343,-656.27 
661315.837,4390310.860,-651.72 
661315.837,4390111.377,-647.19 
661315.837,4389911.894,-639.74 
661315.837,4389712.411,-631.07 
661315.837,4389512.928,-623.48 
661315.837,4389313.445,-616.42 
661315.837,4389113.962,-604.7 
661315.837,4388914.479,-590.78 
661515.722,4437987.306,-581.44 
661515.722,4437787.823,-587.09 
661515.722,4437588.340,-603.63 
661515.722,4437388.857,-633.98 
661515.722,4437189.374,-670.63 
661515.722,4436989.891,-703.09 
661515.722,4436790.408,-723.04 
661515.722,4436590.925,-733.75 
661515.722,4436391.442,-740 
661515.722,4436191.959,-742.45 
661515.722,4435992.476,-743.91 
661515.722,4435792.993,-745.56 
661515.722,4435593.510,-746.5 
661515.722,4435394.027,-747.29 
661515.722,4435194.544,-749.24 
661515.722,4434995.061,-750.84 
661515.722,4434795.578,-750.75 
661515.722,4434596.095,-752.15 
661515.722,4434396.612,-753.88 
661515.722,4434197.129,-754.21 
661515.722,4433997.646,-756.27 
661515.722,4433798.163,-758.52 
661515.722,4433598.680,-759.66 
661515.722,4433399.196,-759.87 
661515.722,4433199.713,-759.36 
661515.722,4433000.230,-758.59 
661515.722,4432800.747,-758.91 
661515.722,4432601.264,-759.13 
661515.722,4432401.781,-758.11 
661515.722,4432202.298,-757.02 
661515.722,4432002.815,-757.3 
661515.722,4431803.332,-757.32 
661515.722,4431603.849,-757.88 
661515.722,4431404.366,-760.5 
661515.722,4431204.883,-762.65 
661515.722,4431005.400,-764.67 
661515.722,4430805.917,-765.91 
661515.722,4430606.434,-766.49 
661515.722,4430406.951,-769.38 
661515.722,4430207.468,-771.62 
661515.722,4430007.985,-768.87 
661515.722,4429808.502,-766.92 
661515.722,4429609.019,-769.77 
661515.722,4429409.536,-775.13 
661515.722,4429210.053,-778.61 
661515.722,4429010.570,-778.99 
661515.722,4428811.087,-779.14 
661515.722,4428611.604,-779.13 
661515.722,4428412.120,-781.54 
661515.722,4428212.637,-784.82 
661515.722,4428013.154,-787.2 
661515.722,4427813.671,-789.18 
661515.722,4427614.188,-789.52 
661515.722,4427414.705,-789.59 
661515.722,4427215.222,-790.51 
661515.722,4427015.739,-791.61 
661515.722,4426816.256,-792.26 
661515.722,4426616.773,-793.47 
661515.722,4426417.290,-795.44 
661515.722,4426217.807,-798.51 
661515.722,4426018.324,-800.9 
661515.722,4425818.841,-802.57 
661515.722,4425619.358,-805.22 
661515.722,4425419.875,-806.34 
661515.722,4425220.392,-807.05 
661515.722,4425020.909,-807.69 
661515.722,4424821.426,-808.32 
661515.722,4424621.943,-809.52 
661515.722,4424422.460,-809.84 
661515.722,4424222.977,-808.98 
661515.722,4424023.494,-808.12 
661515.722,4423824.011,-807.03 
661515.722,4423624.528,-806.21 
661515.722,4423425.045,-804.94 
661515.722,4423225.561,-804.09 
661515.722,4423026.078,-802.52 
661515.722,4422826.595,-799.04 
661515.722,4422627.112,-796.9 
661515.722,4422427.629,-794.75 
661515.722,4422228.146,-792.58 
661515.722,4422028.663,-789.45 
661515.722,4421829.180,-786.32 
661515.722,4421629.697,-783.21 
661515.722,4421430.214,-781.34 
661515.722,4421230.731,-780.53 
661515.722,4421031.248,-779.94 
661515.722,4420831.765,-778.99 
661515.722,4420632.282,-777.88 
661515.722,4420432.799,-777.37 
661515.722,4420233.316,-776.12 
661515.722,4420033.833,-773.89 
661515.722,4419834.350,-771.41 
661515.722,4419634.867,-768.75 
661515.722,4419435.384,-765.84 
661515.722,4419235.901,-763.3 
661515.722,4419036.418,-761.92 
661515.722,4418836.935,-760.62 
661515.722,4418637.452,-759.48 
661515.722,4418437.969,-758.13 
661515.722,4418238.485,-756.2 
661515.722,4418039.002,-754 
661515.722,4417839.519,-751.36 
661515.722,4417640.036,-747.05 
661515.722,4417440.553,-741.68 
661515.722,4417241.070,-735.91 
661515.722,4417041.587,-727.4 
661515.722,4416842.104,-714.37 
661515.722,4416642.621,-697.27 
661515.722,4416443.138,-680.08 
661515.722,4416243.655,-661.7 
661515.722,4416044.172,-641.02 
661515.722,4415844.689,-625.84 
661515.722,4415645.206,-609.86 
661515.722,4415445.723,-596.64 
661515.722,4415246.240,-585.67 
661515.722,4392904.139,-597.64 
661515.722,4392704.656,-612.38 
661515.722,4392505.173,-611 
661515.722,4392305.690,-604.96 
661515.722,4392106.207,-591.02 
661515.722,4391707.241,-603.33 
661515.722,4391507.758,-662.38 
661515.722,4391308.275,-669.34 
661515.722,4391108.792,-668.23 
661515.722,4390909.309,-665.44 
661515.722,4390709.826,-662.92 
661515.722,4390510.343,-660.66 
661515.722,4390310.860,-658.63 
661515.722,4390111.377,-657.38 
661515.722,4389911.894,-652.27 
661515.722,4389712.411,-641.27 
661515.722,4389512.928,-628.73 
661515.722,4389313.445,-619.53 
661515.722,4389113.962,-609.21 
661515.722,4388914.479,-594.8 
661715.606,4437987.306,-581.52 
661715.606,4437787.823,-584.29 
661715.606,4437588.340,-597.47 
661715.606,4437388.857,-633.49 
661715.606,4437189.374,-673.61 
661715.606,4436989.891,-703.98 
661715.606,4436790.408,-723.69 
661715.606,4436590.925,-735.77 
661715.606,4436391.442,-743.22 
661715.606,4436191.959,-746.32 
661715.606,4435992.476,-747.74 
661715.606,4435792.993,-749.1 
661715.606,4435593.510,-749.63 
661715.606,4435394.027,-750.59 
661715.606,4435194.544,-752.59 
661715.606,4434995.061,-754.05 
661715.606,4434795.578,-754.39 
661715.606,4434596.095,-755.22 
661715.606,4434396.612,-756.37 
661715.606,4434197.129,-756.64 
661715.606,4433997.646,-759.1 
661715.606,4433798.163,-761.51 
661715.606,4433598.680,-761.75 
661715.606,4433399.196,-760.91 
661715.606,4433199.713,-760.15 
661715.606,4433000.230,-760.07 
661715.606,4432800.747,-761.51 
661715.606,4432601.264,-762.34 
661715.606,4432401.781,-760.75 
661715.606,4432202.298,-759.67 
661715.606,4432002.815,-759.89 
661715.606,4431803.332,-760.77 
661715.606,4431603.849,-761.33 
661715.606,4431404.366,-762.43 
661715.606,4431204.883,-763.89 
661715.606,4431005.400,-765.46 
661715.606,4430805.917,-767.73 
661715.606,4430606.434,-770.31 
661715.606,4430406.951,-773.04 
661715.606,4430207.468,-774.22 
661715.606,4430007.985,-771.22 
661715.606,4429808.502,-768.45 
661715.606,4429609.019,-770.87 
661715.606,4429409.536,-776.07 
661715.606,4429210.053,-779.02 
661715.606,4429010.570,-779.36 
661715.606,4428811.087,-780.56 
661715.606,4428611.604,-781.56 
661715.606,4428412.120,-783.9 
661715.606,4428212.637,-787.42 
661715.606,4428013.154,-790.14 
661715.606,4427813.671,-791.91 
661715.606,4427614.188,-791.94 
661715.606,4427414.705,-791.5 
661715.606,4427215.222,-792.08 
661715.606,4427015.739,-793.25 
661715.606,4426816.256,-793.76 
661715.606,4426616.773,-794.64 
661715.606,4426417.290,-796.41 
661715.606,4426217.807,-798.7 
661715.606,4426018.324,-800.01 
661715.606,4425818.841,-801.01 
661715.606,4425619.358,-802.31 
661715.606,4425419.875,-803.01 
661715.606,4425220.392,-804.91 
661715.606,4425020.909,-806.83 
661715.606,4424821.426,-807.64 
661715.606,4424621.943,-809.17 
661715.606,4424422.460,-810.17 
661715.606,4424222.977,-810.56 
661715.606,4424023.494,-810.73 
661715.606,4423824.011,-809.13 
661715.606,4423624.528,-808.48 
661715.606,4423425.045,-808.8 
661715.606,4423225.561,-808.12 
661715.606,4423026.078,-806.46 
661715.606,4422826.595,-804.31 
661715.606,4422627.112,-802.01 
661715.606,4422427.629,-799.2 
661715.606,4422228.146,-796.74 
661715.606,4422028.663,-794.58 
661715.606,4421829.180,-791.81 
661715.606,4421629.697,-787.71 
661715.606,4421430.214,-784.92 
661715.606,4421230.731,-783.37 
661715.606,4421031.248,-782.69 
661715.606,4420831.765,-781.56 
661715.606,4420632.282,-780.15 
661715.606,4420432.799,-778.89 
661715.606,4420233.316,-777.19 
661715.606,4420033.833,-775.3 
661715.606,4419834.350,-773.25 
661715.606,4419634.867,-771.07 
661715.606,4419435.384,-769 
661715.606,4419235.901,-767.32 
661715.606,4419036.418,-765.75 
661715.606,4418836.935,-765.28 
661715.606,4418637.452,-764.18 
661715.606,4418437.969,-761.55 
661715.606,4418238.485,-759.34 
661715.606,4418039.002,-757.16 
661715.606,4417839.519,-754.52 
661715.606,4417640.036,-749.37 
661715.606,4417440.553,-743.94 
661715.606,4417241.070,-737.84 
661715.606,4417041.587,-727.31 
661715.606,4416842.104,-711.83 
661715.606,4416642.621,-694.34 
661715.606,4416443.138,-678.27 
661715.606,4416243.655,-659.93 
661715.606,4416044.172,-636.48 
661715.606,4415844.689,-618.46 
661715.606,4415645.206,-601.31 
661715.606,4415445.723,-590.47 
661715.606,4392904.139,-608.53 
661715.606,4392704.656,-615.29 
661715.606,4392505.173,-617.42 
661715.606,4392305.690,-615.15 
661715.606,4392106.207,-607.94 
661715.606,4391707.241,-589.17 
661715.606,4391507.758,-646.69 
661715.606,4391308.275,-670.07 
661715.606,4391108.792,-670.68 
661715.606,4390909.309,-668.78 
661715.606,4390709.826,-666.78 
661715.606,4390510.343,-664.62 
661715.606,4390310.860,-663.17 
661715.606,4390111.377,-661.43 
661715.606,4389911.894,-656.66 
661715.606,4389712.411,-648.67 
661715.606,4389512.928,-633.97 
661715.606,4389313.445,-623.57 
661715.606,4389113.962,-613.11 
661715.606,4388914.479,-599.83 
661715.606,4388714.996,-588.38 
661915.491,4437787.823,-582.58 
661915.491,4437588.340,-590.73 
661915.491,4437388.857,-621.7 
661915.491,4437189.374,-664.49 
661915.491,4436989.891,-699.22 
661915.491,4436790.408,-722.29 
661915.491,4436590.925,-735.98 
661915.491,4436391.442,-743.04 
661915.491,4436191.959,-747.7 
661915.491,4435992.476,-750.68 
661915.491,4435792.993,-752.42 
661915.491,4435593.510,-753.1 
661915.491,4435394.027,-753.75 
661915.491,4435194.544,-755.3 
661915.491,4434995.061,-757.35 
661915.491,4434795.578,-758.51 
661915.491,4434596.095,-757.81 
661915.491,4434396.612,-758 
661915.491,4434197.129,-758.73 
661915.491,4433997.646,-760.51 
661915.491,4433798.163,-762.78 
661915.491,4433598.680,-763.16 
661915.491,4433399.196,-762.35 
661915.491,4433199.713,-761.86 
661915.491,4433000.230,-761.24 
661915.491,4432800.747,-761.7 
661915.491,4432601.264,-763.04 
661915.491,4432401.781,-763.42 
661915.491,4432202.298,-763.82 
661915.491,4432002.815,-763.99 
661915.491,4431803.332,-764.38 
661915.491,4431603.849,-763.75 
661915.491,4431404.366,-763.14 
661915.491,4431204.883,-764.06 
661915.491,4431005.400,-766.02 
661915.491,4430805.917,-769.93 
661915.491,4430606.434,-773.22 
661915.491,4430406.951,-774.96 
661915.491,4430207.468,-775.64 
661915.491,4430007.985,-773.32 
661915.491,4429808.502,-771.38 
661915.491,4429609.019,-773 
661915.491,4429409.536,-776.08 
661915.491,4429210.053,-778.13 
661915.491,4429010.570,-778.53 
661915.491,4428811.087,-779.82 
661915.491,4428611.604,-781.47 
661915.491,4428412.120,-784.5 
661915.491,4428212.637,-788.27 
661915.491,4428013.154,-790.25 
661915.491,4427813.671,-792.1 
661915.491,4427614.188,-793.27 
661915.491,4427414.705,-794.16 
661915.491,4427215.222,-795.31 
661915.491,4427015.739,-795.96 
661915.491,4426816.256,-795.77 
661915.491,4426616.773,-795.84 
661915.491,4426417.290,-797.43 
661915.491,4426217.807,-799.05 
661915.491,4426018.324,-799.47 
661915.491,4425818.841,-800.37 
661915.491,4425619.358,-801.08 
661915.491,4425419.875,-801.66 
661915.491,4425220.392,-803.24 
661915.491,4425020.909,-805 
661915.491,4424821.426,-806.1 
661915.491,4424621.943,-807.79 
661915.491,4424422.460,-809.27 
661915.491,4424222.977,-810.87 
661915.491,4424023.494,-812.6 
661915.491,4423824.011,-812.73 
661915.491,4423624.528,-811.99 
661915.491,4423425.045,-811.68 
661915.491,4423225.561,-810.79 
661915.491,4423026.078,-808.76 
661915.491,4422826.595,-806.58 
661915.491,4422627.112,-804.28 
661915.491,4422427.629,-802 
661915.491,4422228.146,-799.9 
661915.491,4422028.663,-799.02 
661915.491,4421829.180,-796.67 
661915.491,4421629.697,-793.25 
661915.491,4421430.214,-790.76 
661915.491,4421230.731,-788.37 
661915.491,4421031.248,-786.77 
661915.491,4420831.765,-785.22 
661915.491,4420632.282,-783.61 
661915.491,4420432.799,-781.64 
661915.491,4420233.316,-779.37 
661915.491,4420033.833,-776.96 
661915.491,4419834.350,-774.91 
661915.491,4419634.867,-772.94 
661915.491,4419435.384,-771.46 
661915.491,4419235.901,-770.67 
661915.491,4419036.418,-769.71 
661915.491,4418836.935,-769.61 
661915.491,4418637.452,-767.72 
661915.491,4418437.969,-764.43 
661915.491,4418238.485,-762.07 
661915.491,4418039.002,-759.37 
661915.491,4417839.519,-756.25 
661915.491,4417640.036,-751.51 
661915.491,4417440.553,-746.14 
661915.491,4417241.070,-739.98 
661915.491,4417041.587,-730.55 
661915.491,4416842.104,-715.73 
661915.491,4416642.621,-698.38 
661915.491,4416443.138,-681.28 
661915.491,4416243.655,-662.76 
661915.491,4416044.172,-640.45 
661915.491,4415844.689,-620.53 
661915.491,4415645.206,-602.69 
661915.491,4415445.723,-589.55 
661915.491,4393103.622,-595.16 
661915.491,4392904.139,-608.01 
661915.491,4392704.656,-615.2 
661915.491,4392505.173,-621.2 
661915.491,4392305.690,-620.62 
661915.491,4392106.207,-619.36 
661915.491,4391906.724,-610.99 
661915.491,4391707.241,-600.18 
661915.491,4391507.758,-637.16 
661915.491,4391308.275,-668.31 
661915.491,4391108.792,-671.46 
661915.491,4390909.309,-671.59 
661915.491,4390709.826,-669.32 
661915.491,4390510.343,-667.31 
661915.491,4390310.860,-665.69 
661915.491,4390111.377,-664.14 
661915.491,4389911.894,-659.98 
661915.491,4389712.411,-653.17 
661915.491,4389512.928,-642.01 
661915.491,4389313.445,-630.31 
661915.491,4389113.962,-617.48 
661915.491,4388914.479,-610.66 
661915.491,4388714.996,-603.93 
661915.491,4388515.513,-592.33 
661915.491,4388316.030,-586.61 
662115.376,4437588.340,-590.6 
662115.376,4437388.857,-613.45 
662115.376,4437189.374,-658.84 
662115.376,4436989.891,-699.81 
662115.376,4436790.408,-722.48 
