642606.151,4418925.204,-77.76 
642606.151,4418875.245,-78.66 
642606.151,4418825.287,-79.52 
642606.151,4418775.329,-80.5 
642606.151,4418725.370,-81.65 
642606.151,4418675.412,-82.88 
642606.151,4418625.453,-84.33 
642606.151,4418575.495,-86.16 
642606.151,4418525.537,-88.49 
642606.151,4418475.578,-91.61 
642606.151,4418425.620,-96.17 
642606.151,4418375.661,-101.86 
642606.151,4418325.703,-106 
642606.151,4418275.745,-107.29 
642606.151,4418225.786,-107.72 
642606.151,4418175.828,-109.37 
642606.151,4418125.870,-112.46 
642606.151,4418075.911,-116.24 
642606.151,4418025.953,-120.34 
642606.151,4417975.994,-124.53 
642606.151,4417926.036,-128.6 
642606.151,4417876.078,-132.51 
642606.151,4417826.119,-136.43 
642606.151,4417776.161,-140.57 
642606.151,4417726.202,-144.95 
642606.151,4417676.244,-149.42 
642606.151,4417626.286,-153.72 
642606.151,4417576.327,-157.69 
642606.151,4417526.369,-159.68 
642656.151,4421523.040,-53.52 
642656.151,4421473.081,-53.15 
642656.151,4421423.123,-53.24 
642656.151,4421373.164,-53.68 
642656.151,4421323.206,-54.22 
642656.151,4421273.248,-54.75 
642656.151,4421223.289,-55.15 
642656.151,4421173.331,-55.49 
642656.151,4421123.373,-55.76 
642656.151,4421073.414,-56.01 
642656.151,4421023.456,-56.31 
642656.151,4420973.497,-56.6 
642656.151,4420923.539,-56.92 
642656.151,4420873.581,-57.31 
642656.151,4420823.622,-57.69 
642656.151,4420773.664,-57.97 
642656.151,4420723.705,-58.25 
642656.151,4420673.747,-58.63 
642656.151,4420623.789,-59.06 
642656.151,4420573.830,-59.54 
642656.151,4420523.872,-59.91 
642656.151,4420473.914,-60.26 
642656.151,4420423.955,-60.67 
642656.151,4420373.997,-61.07 
642656.151,4420324.038,-61.45 
642656.151,4420274.080,-61.9 
642656.151,4420224.122,-62.37 
642656.151,4420174.163,-62.76 
642656.151,4420124.205,-63.13 
642656.151,4420074.247,-63.53 
642656.151,4420024.288,-63.97 
642656.151,4419974.330,-64.44 
642656.151,4419924.371,-64.97 
642656.151,4419874.413,-65.55 
642656.151,4419824.455,-66.14 
642656.151,4419774.496,-66.76 
642656.151,4419724.538,-67.43 
642656.151,4419674.579,-68.07 
642656.151,4419624.621,-68.66 
642656.151,4419574.663,-69.24 
642656.151,4419524.704,-69.88 
642656.151,4419474.746,-70.51 
642656.151,4419424.788,-71.07 
642656.151,4419374.829,-71.71 
642656.151,4419324.871,-72.49 
642656.151,4419274.912,-73.26 
642656.151,4419224.954,-74 
642656.151,4419174.996,-74.76 
642656.151,4419125.037,-75.38 
642656.151,4419075.079,-75.99 
642656.151,4419025.120,-76.77 
642656.151,4418975.162,-77.8 
642656.151,4418925.204,-78.75 
642656.151,4418875.245,-79.52 
642656.151,4418825.287,-80.45 
642656.151,4418775.329,-81.48 
642656.151,4418725.370,-82.65 
642656.151,4418675.412,-84.03 
642656.151,4418625.453,-85.66 
642656.151,4418575.495,-87.84 
642656.151,4418525.537,-90.79 
642656.151,4418475.578,-94.84 
642656.151,4418425.620,-100.02 
642656.151,4418375.661,-104.92 
642656.151,4418325.703,-107.32 
642656.151,4418275.745,-107.84 
642656.151,4418225.786,-108.91 
642656.151,4418175.828,-111.4 
642656.151,4418125.870,-114.83 
642656.151,4418075.911,-118.68 
642656.151,4418025.953,-122.76 
642656.151,4417975.994,-126.85 
642656.151,4417926.036,-130.75 
642656.151,4417876.078,-134.58 
642656.151,4417826.119,-138.52 
642656.151,4417776.161,-142.5 
642656.151,4417726.202,-146.51 
642656.151,4417676.244,-150.47 
642656.151,4417626.286,-154.27 
642656.151,4417576.327,-157.59 
642656.151,4417526.369,-159.15 
642706.151,4421572.998,-53.75 
642706.151,4421523.040,-53.38 
642706.151,4421473.081,-53.43 
642706.151,4421423.123,-54.12 
642706.151,4421373.164,-54.62 
642706.151,4421323.206,-55.08 
642706.151,4421273.248,-55.53 
642706.151,4421223.289,-55.83 
642706.151,4421173.331,-56.13 
642706.151,4421123.373,-56.45 
642706.151,4421073.414,-56.7 
642706.151,4421023.456,-56.95 
642706.151,4420973.497,-57.3 
642706.151,4420923.539,-57.71 
642706.151,4420873.581,-58.06 
642706.151,4420823.622,-58.36 
642706.151,4420773.664,-58.68 
642706.151,4420723.705,-59.1 
642706.151,4420673.747,-59.54 
642706.151,4420623.789,-59.94 
642706.151,4420573.830,-60.23 
642706.151,4420523.872,-60.55 
642706.151,4420473.914,-60.98 
642706.151,4420423.955,-61.41 
642706.151,4420373.997,-61.85 
642706.151,4420324.038,-62.32 
642706.151,4420274.080,-62.82 
642706.151,4420224.122,-63.27 
642706.151,4420174.163,-63.62 
642706.151,4420124.205,-63.95 
642706.151,4420074.247,-64.36 
642706.151,4420024.288,-64.84 
642706.151,4419974.330,-65.35 
642706.151,4419924.371,-65.9 
642706.151,4419874.413,-66.5 
642706.151,4419824.455,-67.12 
642706.151,4419774.496,-67.68 
642706.151,4419724.538,-68.23 
642706.151,4419674.579,-68.86 
642706.151,4419624.621,-69.5 
642706.151,4419574.663,-70.14 
642706.151,4419524.704,-70.79 
642706.151,4419474.746,-71.41 
642706.151,4419424.788,-71.96 
642706.151,4419374.829,-72.57 
642706.151,4419324.871,-73.37 
642706.151,4419274.912,-74.18 
642706.151,4419224.954,-74.88 
642706.151,4419174.996,-75.43 
642706.151,4419125.037,-76.04 
642706.151,4419075.079,-76.94 
642706.151,4419025.120,-77.87 
642706.151,4418975.162,-78.76 
642706.151,4418925.204,-79.6 
642706.151,4418875.245,-80.49 
642706.151,4418825.287,-81.49 
642706.151,4418775.329,-82.57 
642706.151,4418725.370,-83.9 
642706.151,4418675.412,-85.52 
642706.151,4418625.453,-87.42 
642706.151,4418575.495,-89.87 
642706.151,4418525.537,-93.45 
642706.151,4418475.578,-98.26 
642706.151,4418425.620,-103.44 
642706.151,4418375.661,-106.9 
642706.151,4418325.703,-107.83 
642706.151,4418275.745,-108.51 
642706.151,4418225.786,-110.46 
642706.151,4418175.828,-113.56 
642706.151,4418125.870,-117.18 
642706.151,4418075.911,-121.14 
642706.151,4418025.953,-125.19 
642706.151,4417975.994,-129.11 
642706.151,4417926.036,-133.01 
642706.151,4417876.078,-136.84 
642706.151,4417826.119,-140.46 
642706.151,4417776.161,-143.93 
642706.151,4417726.202,-147.37 
642706.151,4417676.244,-150.72 
642706.151,4417626.286,-153.78 
642706.151,4417576.327,-156.22 
642706.151,4417526.369,-157.71 
642706.151,4417476.411,-158.22 
642756.151,4421622.956,-53.96 
642756.151,4421572.998,-53.7 
642756.151,4421523.040,-53.89 
642756.151,4421473.081,-54.55 
642756.151,4421423.123,-55.2 
642756.151,4421373.164,-55.59 
642756.151,4421323.206,-55.88 
642756.151,4421273.248,-56.25 
642756.151,4421223.289,-56.57 
642756.151,4421173.331,-56.76 
642756.151,4421123.373,-56.99 
642756.151,4421073.414,-57.27 
642756.151,4421023.456,-57.64 
642756.151,4420973.497,-58.03 
642756.151,4420923.539,-58.44 
642756.151,4420873.581,-58.8 
642756.151,4420823.622,-59.11 
642756.151,4420773.664,-59.52 
642756.151,4420723.705,-59.97 
642756.151,4420673.747,-60.36 
642756.151,4420623.789,-60.68 
642756.151,4420573.830,-60.97 
642756.151,4420523.872,-61.38 
642756.151,4420473.914,-61.86 
642756.151,4420423.955,-62.32 
642756.151,4420373.997,-62.8 
642756.151,4420324.038,-63.26 
642756.151,4420274.080,-63.68 
642756.151,4420224.122,-64.03 
642756.151,4420174.163,-64.39 
642756.151,4420124.205,-64.8 
642756.151,4420074.247,-65.27 
642756.151,4420024.288,-65.77 
642756.151,4419974.330,-66.26 
642756.151,4419924.371,-66.81 
642756.151,4419874.413,-67.35 
642756.151,4419824.455,-67.88 
642756.151,4419774.496,-68.45 
642756.151,4419724.538,-69.04 
642756.151,4419674.579,-69.7 
642756.151,4419624.621,-70.34 
642756.151,4419574.663,-70.94 
642756.151,4419524.704,-71.56 
642756.151,4419474.746,-72.22 
642756.151,4419424.788,-72.88 
642756.151,4419374.829,-73.57 
642756.151,4419324.871,-74.33 
642756.151,4419274.912,-75.09 
642756.151,4419224.954,-75.69 
642756.151,4419174.996,-76.24 
642756.151,4419125.037,-77.06 
642756.151,4419075.079,-78.03 
642756.151,4419025.120,-78.89 
642756.151,4418975.162,-79.66 
642756.151,4418925.204,-80.59 
642756.151,4418875.245,-81.61 
642756.151,4418825.287,-82.64 
642756.151,4418775.329,-83.87 
642756.151,4418725.370,-85.38 
642756.151,4418675.412,-87.13 
642756.151,4418625.453,-89.18 
642756.151,4418575.495,-92.19 
642756.151,4418525.537,-96.54 
642756.151,4418475.578,-101.83 
642756.151,4418425.620,-106.09 
642756.151,4418375.661,-107.7 
642756.151,4418325.703,-108.14 
642756.151,4418275.745,-109.51 
642756.151,4418225.786,-112.16 
642756.151,4418175.828,-115.63 
642756.151,4418125.870,-119.48 
642756.151,4418075.911,-123.44 
642756.151,4418025.953,-127.39 
642756.151,4417975.994,-131.24 
642756.151,4417926.036,-134.95 
642756.151,4417876.078,-138.38 
642756.151,4417826.119,-141.53 
642756.151,4417776.161,-144.61 
642756.151,4417726.202,-147.52 
642756.151,4417676.244,-150.15 
642756.151,4417626.286,-152.57 
642756.151,4417576.327,-154.73 
642756.151,4417526.369,-156.72 
642756.151,4417476.411,-157.78 
642806.151,4421672.915,-54.42 
642806.151,4421622.956,-54.14 
642806.151,4421572.998,-54.43 
642806.151,4421523.040,-55.04 
642806.151,4421473.081,-55.56 
642806.151,4421423.123,-56.01 
642806.151,4421373.164,-56.36 
642806.151,4421323.206,-56.66 
642806.151,4421273.248,-57.02 
642806.151,4421223.289,-57.3 
642806.151,4421173.331,-57.45 
642806.151,4421123.373,-57.66 
642806.151,4421073.414,-58 
642806.151,4421023.456,-58.41 
642806.151,4420973.497,-58.8 
642806.151,4420923.539,-59.17 
642806.151,4420873.581,-59.54 
642806.151,4420823.622,-59.95 
642806.151,4420773.664,-60.35 
642806.151,4420723.705,-60.7 
642806.151,4420673.747,-61.05 
642806.151,4420623.789,-61.43 
642806.151,4420573.830,-61.83 
642806.151,4420523.872,-62.25 
642806.151,4420473.914,-62.72 
642806.151,4420423.955,-63.15 
642806.151,4420373.997,-63.56 
642806.151,4420324.038,-63.99 
642806.151,4420274.080,-64.36 
642806.151,4420224.122,-64.76 
642806.151,4420174.163,-65.27 
642806.151,4420124.205,-65.75 
642806.151,4420074.247,-66.18 
642806.151,4420024.288,-66.65 
642806.151,4419974.330,-67.1 
642806.151,4419924.371,-67.58 
642806.151,4419874.413,-68.12 
642806.151,4419824.455,-68.68 
642806.151,4419774.496,-69.28 
642806.151,4419724.538,-69.89 
642806.151,4419674.579,-70.52 
642806.151,4419624.621,-71.16 
642806.151,4419574.663,-71.74 
642806.151,4419524.704,-72.35 
642806.151,4419474.746,-73.03 
642806.151,4419424.788,-73.73 
642806.151,4419374.829,-74.45 
642806.151,4419324.871,-75.19 
642806.151,4419274.912,-75.91 
642806.151,4419224.954,-76.53 
642806.151,4419174.996,-77.24 
642806.151,4419125.037,-78.18 
642806.151,4419075.079,-79.08 
642806.151,4419025.120,-79.87 
642806.151,4418975.162,-80.72 
642806.151,4418925.204,-81.66 
642806.151,4418875.245,-82.66 
642806.151,4418825.287,-83.9 
642806.151,4418775.329,-85.33 
642806.151,4418725.370,-86.87 
642806.151,4418675.412,-88.71 
642806.151,4418625.453,-91.25 
642806.151,4418575.495,-94.96 
642806.151,4418525.537,-99.93 
642806.151,4418475.578,-104.88 
642806.151,4418425.620,-107.4 
642806.151,4418375.661,-107.82 
642806.151,4418325.703,-108.54 
642806.151,4418275.745,-110.56 
642806.151,4418225.786,-113.81 
642806.151,4418175.828,-117.6 
642806.151,4418125.870,-121.53 
642806.151,4418075.911,-125.42 
642806.151,4418025.953,-129.21 
642806.151,4417975.994,-132.77 
642806.151,4417926.036,-136.07 
642806.151,4417876.078,-139.12 
642806.151,4417826.119,-141.99 
642806.151,4417776.161,-144.74 
642806.151,4417726.202,-147.13 
642806.151,4417676.244,-149.26 
642806.151,4417626.286,-151.44 
642806.151,4417576.327,-153.79 
642806.151,4417526.369,-156.18 
642806.151,4417476.411,-157.38 
642856.151,4421722.873,-54.78 
642856.151,4421672.915,-54.52 
642856.151,4421622.956,-54.84 
642856.151,4421572.998,-55.56 
642856.151,4421523.040,-56.05 
642856.151,4421473.081,-56.45 
642856.151,4421423.123,-56.79 
642856.151,4421373.164,-57.14 
642856.151,4421323.206,-57.44 
642856.151,4421273.248,-57.69 
642856.151,4421223.289,-57.85 
642856.151,4421173.331,-58.02 
642856.151,4421123.373,-58.4 
642856.151,4421073.414,-58.84 
642856.151,4421023.456,-59.22 
642856.151,4420973.497,-59.64 
642856.151,4420923.539,-60.02 
642856.151,4420873.581,-60.41 
642856.151,4420823.622,-60.78 
642856.151,4420773.664,-61.08 
642856.151,4420723.705,-61.4 
642856.151,4420673.747,-61.82 
642856.151,4420623.789,-62.28 
642856.151,4420573.830,-62.68 
642856.151,4420523.872,-63.03 
642856.151,4420473.914,-63.45 
642856.151,4420423.955,-63.85 
642856.151,4420373.997,-64.2 
642856.151,4420324.038,-64.55 
642856.151,4420274.080,-64.93 
642856.151,4420224.122,-65.5 
642856.151,4420174.163,-66.06 
642856.151,4420124.205,-66.55 
642856.151,4420074.247,-67 
642856.151,4420024.288,-67.39 
642856.151,4419974.330,-67.83 
642856.151,4419924.371,-68.31 
642856.151,4419874.413,-68.86 
642856.151,4419824.455,-69.44 
642856.151,4419774.496,-70.03 
642856.151,4419724.538,-70.66 
642856.151,4419674.579,-71.33 
642856.151,4419624.621,-71.97 
642856.151,4419574.663,-72.57 
642856.151,4419524.704,-73.15 
642856.151,4419474.746,-73.81 
642856.151,4419424.788,-74.58 
642856.151,4419374.829,-75.34 
642856.151,4419324.871,-76.07 
642856.151,4419274.912,-76.78 
642856.151,4419224.954,-77.51 
642856.151,4419174.996,-78.34 
642856.151,4419125.037,-79.28 
642856.151,4419075.079,-80.11 
642856.151,4419025.120,-80.89 
642856.151,4418975.162,-81.83 
642856.151,4418925.204,-82.85 
642856.151,4418875.245,-83.97 
642856.151,4418825.287,-85.31 
642856.151,4418775.329,-86.61 
642856.151,4418725.370,-88.22 
642856.151,4418675.412,-90.64 
642856.151,4418625.453,-93.84 
642856.151,4418575.495,-98.22 
642856.151,4418525.537,-103.34 
642856.151,4418475.578,-106.78 
642856.151,4418425.620,-107.59 
642856.151,4418375.661,-107.82 
642856.151,4418325.703,-109.15 
642856.151,4418275.745,-111.92 
642856.151,4418225.786,-115.55 
642856.151,4418175.828,-119.31 
642856.151,4418125.870,-123.06 
642856.151,4418075.911,-126.85 
642856.151,4418025.953,-130.41 
642856.151,4417975.994,-133.67 
642856.151,4417926.036,-136.6 
642856.151,4417876.078,-139.29 
642856.151,4417826.119,-141.88 
642856.151,4417776.161,-144.34 
642856.151,4417726.202,-146.56 
642856.151,4417676.244,-148.62 
642856.151,4417626.286,-150.85 
642856.151,4417576.327,-153.39 
642856.151,4417526.369,-155.97 
642856.151,4417476.411,-157.35 
642906.151,4421772.832,-55.16 
642906.151,4421722.873,-54.88 
642906.151,4421672.915,-55.17 
642906.151,4421622.956,-55.89 
642906.151,4421572.998,-56.47 
642906.151,4421523.040,-56.9 
642906.151,4421473.081,-57.25 
642906.151,4421423.123,-57.53 
642906.151,4421373.164,-57.84 
642906.151,4421323.206,-58.08 
642906.151,4421273.248,-58.24 
642906.151,4421223.289,-58.42 
642906.151,4421173.331,-58.75 
642906.151,4421123.373,-59.2 
642906.151,4421073.414,-59.63 
642906.151,4421023.456,-60.05 
642906.151,4420973.497,-60.46 
642906.151,4420923.539,-60.86 
642906.151,4420873.581,-61.23 
642906.151,4420823.622,-61.49 
642906.151,4420773.664,-61.8 
642906.151,4420723.705,-62.19 
642906.151,4420673.747,-62.58 
642906.151,4420623.789,-63.02 
642906.151,4420573.830,-63.48 
642906.151,4420523.872,-63.9 
642906.151,4420473.914,-64.25 
642906.151,4420423.955,-64.56 
642906.151,4420373.997,-64.87 
642906.151,4420324.038,-65.19 
642906.151,4420274.080,-65.61 
642906.151,4420224.122,-66.21 
642906.151,4420174.163,-66.75 
642906.151,4420124.205,-67.18 
642906.151,4420074.247,-67.61 
642906.151,4420024.288,-68.08 
642906.151,4419974.330,-68.6 
642906.151,4419924.371,-69.15 
642906.151,4419874.413,-69.7 
642906.151,4419824.455,-70.3 
642906.151,4419774.496,-70.93 
642906.151,4419724.538,-71.55 
642906.151,4419674.579,-72.21 
642906.151,4419624.621,-72.9 
642906.151,4419574.663,-73.51 
642906.151,4419524.704,-74.09 
642906.151,4419474.746,-74.77 
642906.151,4419424.788,-75.56 
642906.151,4419374.829,-76.37 
642906.151,4419324.871,-77.08 
642906.151,4419274.912,-77.77 
642906.151,4419224.954,-78.6 
642906.151,4419174.996,-79.47 
642906.151,4419125.037,-80.27 
642906.151,4419075.079,-81.05 
642906.151,4419025.120,-81.86 
642906.151,4418975.162,-82.82 
642906.151,4418925.204,-84 
642906.151,4418875.245,-85.29 
642906.151,4418825.287,-86.5 
642906.151,4418775.329,-87.82 
642906.151,4418725.370,-89.84 
642906.151,4418675.412,-92.83 
642906.151,4418625.453,-96.85 
642906.151,4418575.495,-101.72 
642906.151,4418525.537,-105.73 
642906.151,4418475.578,-107.23 
642906.151,4418425.620,-107.32 
642906.151,4418375.661,-107.98 
642906.151,4418325.703,-110.09 
642906.151,4418275.745,-113.29 
642906.151,4418225.786,-116.83 
642906.151,4418175.828,-120.42 
642906.151,4418125.870,-124.11 
642906.151,4418075.911,-127.73 
642906.151,4418025.953,-131.02 
642906.151,4417975.994,-134.01 
642906.151,4417926.036,-136.67 
642906.151,4417876.078,-139.13 
642906.151,4417826.119,-141.45 
642906.151,4417776.161,-143.68 
642906.151,4417726.202,-145.93 
642906.151,4417676.244,-148.25 
642906.151,4417626.286,-150.67 
642906.151,4417576.327,-153.3 
642906.151,4417526.369,-155.98 
642906.151,4417476.411,-157.36 
642956.151,4421822.790,-55.74 
642956.151,4421772.832,-55.49 
642956.151,4421722.873,-55.73 
642956.151,4421672.915,-56.33 
642956.151,4421622.956,-56.9 
642956.151,4421572.998,-57.29 
642956.151,4421523.040,-57.63 
642956.151,4421473.081,-57.94 
642956.151,4421423.123,-58.23 
642956.151,4421373.164,-58.52 
642956.151,4421323.206,-58.71 
642956.151,4421273.248,-58.85 
642956.151,4421223.289,-59.16 
642956.151,4421173.331,-59.59 
642956.151,4421123.373,-60.01 
642956.151,4421073.414,-60.41 
642956.151,4421023.456,-60.83 
642956.151,4420973.497,-61.26 
642956.151,4420923.539,-61.64 
642956.151,4420873.581,-61.89 
642956.151,4420823.622,-62.16 
642956.151,4420773.664,-62.58 
642956.151,4420723.705,-63.04 
642956.151,4420673.747,-63.44 
642956.151,4420623.789,-63.76 
642956.151,4420573.830,-64.17 
642956.151,4420523.872,-64.61 
642956.151,4420473.914,-64.95 
642956.151,4420423.955,-65.23 
642956.151,4420373.997,-65.48 
642956.151,4420324.038,-65.85 
642956.151,4420274.080,-66.39 
642956.151,4420224.122,-66.95 
642956.151,4420174.163,-67.48 
642956.151,4420124.205,-67.95 
642956.151,4420074.247,-68.44 
642956.151,4420024.288,-69.03 
642956.151,4419974.330,-69.59 
642956.151,4419924.371,-70.09 
642956.151,4419874.413,-70.59 
642956.151,4419824.455,-71.15 
642956.151,4419774.496,-71.79 
642956.151,4419724.538,-72.41 
642956.151,4419674.579,-73.05 
642956.151,4419624.621,-73.78 
642956.151,4419574.663,-74.47 
642956.151,4419524.704,-75.1 
642956.151,4419474.746,-75.77 
642956.151,4419424.788,-76.47 
642956.151,4419374.829,-77.22 
642956.151,4419324.871,-78 
642956.151,4419274.912,-78.82 
642956.151,4419224.954,-79.66 
642956.151,4419174.996,-80.42 
642956.151,4419125.037,-81.21 
642956.151,4419075.079,-82.04 
642956.151,4419025.120,-82.89 
642956.151,4418975.162,-83.93 
642956.151,4418925.204,-85.19 
642956.151,4418875.245,-86.42 
642956.151,4418825.287,-87.66 
642956.151,4418775.329,-89.39 
642956.151,4418725.370,-91.85 
642956.151,4418675.412,-95.23 
642956.151,4418625.453,-99.7 
642956.151,4418575.495,-104.31 
642956.151,4418525.537,-106.76 
642956.151,4418475.578,-107.01 
642956.151,4418425.620,-107.21 
642956.151,4418375.661,-108.68 
642956.151,4418325.703,-111.43 
642956.151,4418275.745,-114.65 
642956.151,4418225.786,-118 
642956.151,4418175.828,-121.46 
642956.151,4418125.870,-124.98 
642956.151,4418075.911,-128.24 
642956.151,4418025.953,-131.18 
642956.151,4417975.994,-133.95 
642956.151,4417926.036,-136.47 
642956.151,4417876.078,-138.78 
642956.151,4417826.119,-140.99 
642956.151,4417776.161,-143.17 
642956.151,4417726.202,-145.59 
642956.151,4417676.244,-148.18 
642956.151,4417626.286,-150.84 
642956.151,4417576.327,-153.77 
642956.151,4417526.369,-156.7 
642956.151,4417476.411,-158.2 
643006.151,4421872.748,-56.3 
643006.151,4421822.790,-55.94 
643006.151,4421772.832,-56.3 
643006.151,4421722.873,-56.88 
643006.151,4421672.915,-57.31 
643006.151,4421622.956,-57.76 
643006.151,4421572.998,-58.11 
643006.151,4421523.040,-58.46 
643006.151,4421473.081,-58.73 
643006.151,4421423.123,-58.91 
643006.151,4421373.164,-59.07 
643006.151,4421323.206,-59.26 
643006.151,4421273.248,-59.59 
643006.151,4421223.289,-60.04 
643006.151,4421173.331,-60.47 
643006.151,4421123.373,-60.82 
643006.151,4421073.414,-61.14 
643006.151,4421023.456,-61.55 
643006.151,4420973.497,-61.99 
643006.151,4420923.539,-62.34 
643006.151,4420873.581,-62.64 
643006.151,4420823.622,-62.97 
643006.151,4420773.664,-63.36 
643006.151,4420723.705,-63.75 
643006.151,4420673.747,-64.1 
643006.151,4420623.789,-64.45 
643006.151,4420573.830,-64.84 
643006.151,4420523.872,-65.22 
643006.151,4420473.914,-65.56 
643006.151,4420423.955,-65.87 
643006.151,4420373.997,-66.26 
643006.151,4420324.038,-66.75 
643006.151,4420274.080,-67.28 
643006.151,4420224.122,-67.83 
643006.151,4420174.163,-68.36 
643006.151,4420124.205,-68.82 
643006.151,4420074.247,-69.4 
643006.151,4420024.288,-70.02 
643006.151,4419974.330,-70.51 
643006.151,4419924.371,-70.95 
643006.151,4419874.413,-71.42 
643006.151,4419824.455,-71.96 
643006.151,4419774.496,-72.61 
643006.151,4419724.538,-73.28 
643006.151,4419674.579,-73.88 
643006.151,4419624.621,-74.51 
643006.151,4419574.663,-75.22 
643006.151,4419524.704,-75.91 
643006.151,4419474.746,-76.62 
643006.151,4419424.788,-77.37 
643006.151,4419374.829,-78.14 
643006.151,4419324.871,-78.94 
643006.151,4419274.912,-79.75 
643006.151,4419224.954,-80.5 
643006.151,4419174.996,-81.29 
643006.151,4419125.037,-82.17 
643006.151,4419075.079,-83.03 
643006.151,4419025.120,-84.03 
643006.151,4418975.162,-85.2 
643006.151,4418925.204,-86.45 
643006.151,4418875.245,-87.76 
643006.151,4418825.287,-89.3 
643006.151,4418775.329,-91.29 
643006.151,4418725.370,-93.94 
643006.151,4418675.412,-97.58 
643006.151,4418625.453,-102.11 
643006.151,4418575.495,-105.63 
643006.151,4418525.537,-106.67 
643006.151,4418475.578,-106.68 
643006.151,4418425.620,-107.63 
643006.151,4418375.661,-109.9 
643006.151,4418325.703,-112.81 
643006.151,4418275.745,-115.86 
643006.151,4418225.786,-119.05 
643006.151,4418175.828,-122.26 
643006.151,4418125.870,-125.39 
643006.151,4418075.911,-128.35 
643006.151,4418025.953,-131.09 
643006.151,4417975.994,-133.63 
643006.151,4417926.036,-135.97 
643006.151,4417876.078,-138.26 
643006.151,4417826.119,-140.6 
643006.151,4417776.161,-143.03 
643006.151,4417726.202,-145.78 
643006.151,4417676.244,-148.69 
643006.151,4417626.286,-151.71 
643006.151,4417576.327,-154.85 
643006.151,4417526.369,-156.46 
643056.151,4421872.748,-56.9 
643056.151,4421822.790,-56.91 
643056.151,4421772.832,-57.52 
643056.151,4421722.873,-57.96 
643056.151,4421672.915,-58.23 
643056.151,4421622.956,-58.51 
643056.151,4421572.998,-58.83 
643056.151,4421523.040,-59.14 
643056.151,4421473.081,-59.36 
643056.151,4421423.123,-59.46 
643056.151,4421373.164,-59.6 
643056.151,4421323.206,-59.97 
643056.151,4421273.248,-60.42 
643056.151,4421223.289,-60.81 
643056.151,4421173.331,-61.17 
643056.151,4421123.373,-61.53 
643056.151,4421073.414,-61.92 
643056.151,4421023.456,-62.34 
643056.151,4420973.497,-62.7 
643056.151,4420923.539,-62.97 
643056.151,4420873.581,-63.34 
643056.151,4420823.622,-63.77 
643056.151,4420773.664,-64.14 
643056.151,4420723.705,-64.46 
643056.151,4420673.747,-64.8 
643056.151,4420623.789,-65.17 
643056.151,4420573.830,-65.54 
643056.151,4420523.872,-65.94 
643056.151,4420473.914,-66.25 
643056.151,4420423.955,-66.6 
643056.151,4420373.997,-67.15 
643056.151,4420324.038,-67.72 
643056.151,4420274.080,-68.19 
643056.151,4420224.122,-68.68 
643056.151,4420174.163,-69.19 
643056.151,4420124.205,-69.71 
643056.151,4420074.247,-70.3 
643056.151,4420024.288,-70.86 
643056.151,4419974.330,-71.29 
643056.151,4419924.371,-71.76 
643056.151,4419874.413,-72.32 
643056.151,4419824.455,-72.89 
643056.151,4419774.496,-73.48 
643056.151,4419724.538,-74.12 
643056.151,4419674.579,-74.77 
643056.151,4419624.621,-75.39 
643056.151,4419574.663,-75.99 
643056.151,4419524.704,-76.63 
643056.151,4419474.746,-77.41 
643056.151,4419424.788,-78.23 
643056.151,4419374.829,-78.97 
643056.151,4419324.871,-79.77 
643056.151,4419274.912,-80.63 
643056.151,4419224.954,-81.46 
643056.151,4419174.996,-82.3 
643056.151,4419125.037,-83.14 
643056.151,4419075.079,-84.06 
643056.151,4419025.120,-85.19 
643056.151,4418975.162,-86.45 
643056.151,4418925.204,-87.75 
643056.151,4418875.245,-89.24 
643056.151,4418825.287,-91.03 
643056.151,4418775.329,-93.22 
643056.151,4418725.370,-96.15 
643056.151,4418675.412,-99.99 
643056.151,4418625.453,-103.85 
643056.151,4418575.495,-105.97 
643056.151,4418525.537,-106.3 
643056.151,4418475.578,-106.84 
643056.151,4418425.620,-108.6 
643056.151,4418375.661,-111.24 
643056.151,4418325.703,-114.09 
643056.151,4418275.745,-116.96 
643056.151,4418225.786,-119.87 
643056.151,4418175.828,-122.68 
643056.151,4418125.870,-125.35 
643056.151,4418075.911,-128 
643056.151,4418025.953,-130.69 
643056.151,4417975.994,-133.16 
643056.151,4417926.036,-135.51 
643056.151,4417876.078,-137.96 
643056.151,4417826.119,-140.55 
643056.151,4417776.161,-143.37 
643056.151,4417726.202,-146.49 
643056.151,4417676.244,-150.06 
643056.151,4417626.286,-153.56 
643056.151,4417576.327,-155.27 
643106.151,4421922.707,-57.44 
643106.151,4421872.748,-57.45 
643106.151,4421822.790,-57.98 
643106.151,4421772.832,-58.47 
643106.151,4421722.873,-58.77 
643106.151,4421672.915,-58.99 
643106.151,4421622.956,-59.26 
643106.151,4421572.998,-59.54 
643106.151,4421523.040,-59.74 
643106.151,4421473.081,-59.89 
643106.151,4421423.123,-60.01 
643106.151,4421373.164,-60.29 
643106.151,4421323.206,-60.77 
643106.151,4421273.248,-61.18 
643106.151,4421223.289,-61.54 
643106.151,4421173.331,-61.92 
643106.151,4421123.373,-62.37 
643106.151,4421073.414,-62.8 
643106.151,4421023.456,-63.14 
643106.151,4420973.497,-63.42 
643106.151,4420923.539,-63.72 
643106.151,4420873.581,-64.16 
643106.151,4420823.622,-64.56 
643106.151,4420773.664,-64.81 
643106.151,4420723.705,-65.17 
643106.151,4420673.747,-65.6 
643106.151,4420623.789,-65.95 
643106.151,4420573.830,-66.3 
643106.151,4420523.872,-66.64 
643106.151,4420473.914,-66.96 
643106.151,4420423.955,-67.43 
643106.151,4420373.997,-68.05 
643106.151,4420324.038,-68.59 
643106.151,4420274.080,-69.02 
643106.151,4420224.122,-69.48 
643106.151,4420174.163,-70.01 
643106.151,4420124.205,-70.53 
643106.151,4420074.247,-71.05 
643106.151,4420024.288,-71.53 
643106.151,4419974.330,-72 
643106.151,4419924.371,-72.58 
643106.151,4419874.413,-73.2 
643106.151,4419824.455,-73.82 
643106.151,4419774.496,-74.44 
643106.151,4419724.538,-75.02 
643106.151,4419674.579,-75.61 
643106.151,4419624.621,-76.25 
643106.151,4419574.663,-76.93 
643106.151,4419524.704,-77.6 
643106.151,4419474.746,-78.26 
643106.151,4419424.788,-79.02 
643106.151,4419374.829,-79.91 
643106.151,4419324.871,-80.76 
643106.151,4419274.912,-81.56 
643106.151,4419224.954,-82.42 
643106.151,4419174.996,-83.24 
643106.151,4419125.037,-84.1 
643106.151,4419075.079,-85.19 
643106.151,4419025.120,-86.45 
643106.151,4418975.162,-87.74 
643106.151,4418925.204,-89.11 
643106.151,4418875.245,-90.7 
643106.151,4418825.287,-92.64 
643106.151,4418775.329,-95.06 
643106.151,4418725.370,-98.21 
643106.151,4418675.412,-102.03 
643106.151,4418625.453,-104.93 
643106.151,4418575.495,-105.85 
643106.151,4418525.537,-106.26 
643106.151,4418475.578,-107.62 
643106.151,4418425.620,-109.79 
643106.151,4418375.661,-112.36 
643106.151,4418325.703,-115.06 
643106.151,4418275.745,-117.73 
643106.151,4418225.786,-120.25 
643106.151,4418175.828,-122.62 
643106.151,4418125.870,-125.02 
643106.151,4418075.911,-127.51 
643106.151,4418025.953,-130.19 
643106.151,4417975.994,-132.84 
643106.151,4417926.036,-135.44 
643106.151,4417876.078,-138.13 
643106.151,4417826.119,-141.15 
643106.151,4417776.161,-144.7 
643106.151,4417726.202,-148.57 
643106.151,4417676.244,-152.75 
643106.151,4417626.286,-156.46 
643106.151,4417576.327,-158.04 
643106.151,4413929.365,-160 
643156.151,4421972.665,-57.87 
643156.151,4421922.707,-57.85 
643156.151,4421872.748,-58.33 
643156.151,4421822.790,-58.86 
643156.151,4421772.832,-59.28 
643156.151,4421722.873,-59.57 
643156.151,4421672.915,-59.8 
643156.151,4421622.956,-60.03 
643156.151,4421572.998,-60.2 
643156.151,4421523.040,-60.29 
643156.151,4421473.081,-60.41 
643156.151,4421423.123,-60.71 
643156.151,4421373.164,-61.19 
643156.151,4421323.206,-61.66 
643156.151,4421273.248,-62.02 
643156.151,4421223.289,-62.38 
643156.151,4421173.331,-62.82 
643156.151,4421123.373,-63.23 
643156.151,4421073.414,-63.54 
643156.151,4421023.456,-63.81 
643156.151,4420973.497,-64.1 
643156.151,4420923.539,-64.45 
643156.151,4420873.581,-64.87 
643156.151,4420823.622,-65.19 
643156.151,4420773.664,-65.5 
643156.151,4420723.705,-65.95 
643156.151,4420673.747,-66.41 
643156.151,4420623.789,-66.78 
643156.151,4420573.830,-67.12 
643156.151,4420523.872,-67.39 
643156.151,4420473.914,-67.73 
643156.151,4420423.955,-68.28 
643156.151,4420373.997,-68.88 
643156.151,4420324.038,-69.42 
643156.151,4420274.080,-69.88 
643156.151,4420224.122,-70.34 
643156.151,4420174.163,-70.85 
643156.151,4420124.205,-71.3 
643156.151,4420074.247,-71.72 
643156.151,4420024.288,-72.22 
643156.151,4419974.330,-72.84 
643156.151,4419924.371,-73.52 
643156.151,4419874.413,-74.15 
643156.151,4419824.455,-74.72 
643156.151,4419774.496,-75.32 
643156.151,4419724.538,-75.91 
643156.151,4419674.579,-76.46 
643156.151,4419624.621,-77.14 
643156.151,4419574.663,-77.9 
643156.151,4419524.704,-78.53 
643156.151,4419474.746,-79.13 
643156.151,4419424.788,-79.96 
643156.151,4419374.829,-80.92 
643156.151,4419324.871,-81.72 
643156.151,4419274.912,-82.43 
643156.151,4419224.954,-83.19 
643156.151,4419174.996,-84.09 
643156.151,4419125.037,-85.16 
643156.151,4419075.079,-86.36 
643156.151,4419025.120,-87.62 
643156.151,4418975.162,-88.93 
643156.151,4418925.204,-90.39 
643156.151,4418875.245,-92.11 
643156.151,4418825.287,-94.27 
643156.151,4418775.329,-96.98 
643156.151,4418725.370,-100.31 
643156.151,4418675.412,-103.78 
643156.151,4418625.453,-105.66 
643156.151,4418575.495,-105.88 
643156.151,4418525.537,-106.61 
643156.151,4418475.578,-108.46 
643156.151,4418425.620,-110.8 
643156.151,4418375.661,-113.19 
643156.151,4418325.703,-115.52 
643156.151,4418275.745,-117.88 
643156.151,4418225.786,-120.2 
643156.151,4418175.828,-122.51 
643156.151,4418125.870,-124.8 
643156.151,4418075.911,-127.19 
643156.151,4418025.953,-129.88 
643156.151,4417975.994,-132.79 
643156.151,4417926.036,-135.94 
643156.151,4417876.078,-139.36 
643156.151,4417826.119,-143.36 
643156.151,4417776.161,-147.78 
643156.151,4417726.202,-152.07 
643156.151,4417676.244,-155.66 
643156.151,4417626.286,-157.28 
643156.151,4417426.452,-159.53 
643156.151,4417376.494,-159.45 
643156.151,4417326.535,-159.61 
643156.151,4414079.240,-159.74 
643156.151,4414029.282,-159.36 
643156.151,4413979.324,-159.11 
643156.151,4413929.365,-159.07 
643156.151,4413879.407,-158.99 
643156.151,4413829.449,-159.19 
643156.151,4413779.490,-159.44 
643156.151,4413729.532,-159.72 
643156.151,4413679.573,-159.9 
643206.151,4422022.623,-58.46 
643206.151,4421972.665,-58.24 
643206.151,4421922.707,-58.75 
643206.151,4421872.748,-59.34 
643206.151,4421822.790,-59.75 
643206.151,4421772.832,-60.02 
643206.151,4421722.873,-60.26 
643206.151,4421672.915,-60.49 
643206.151,4421622.956,-60.69 
643206.151,4421572.998,-60.86 
643206.151,4421523.040,-60.96 
643206.151,4421473.081,-61.19 
643206.151,4421423.123,-61.66 
643206.151,4421373.164,-62.18 
643206.151,4421323.206,-62.52 
643206.151,4421273.248,-62.84 
643206.151,4421223.289,-63.26 
643206.151,4421173.331,-63.68 
643206.151,4421123.373,-64 
643206.151,4421073.414,-64.25 
643206.151,4421023.456,-64.51 
643206.151,4420973.497,-64.82 
643206.151,4420923.539,-65.19 
643206.151,4420873.581,-65.53 
643206.151,4420823.622,-65.89 
643206.151,4420773.664,-66.37 
643206.151,4420723.705,-66.82 
643206.151,4420673.747,-67.19 
643206.151,4420623.789,-67.52 
643206.151,4420573.830,-67.81 
643206.151,4420523.872,-68.15 
643206.151,4420473.914,-68.6 
643206.151,4420423.955,-69.14 
643206.151,4420373.997,-69.64 
643206.151,4420324.038,-70.14 
643206.151,4420274.080,-70.58 
643206.151,4420224.122,-71.04 
643206.151,4420174.163,-71.52 
643206.151,4420124.205,-71.92 
643206.151,4420074.247,-72.43 
643206.151,4420024.288,-73.11 
643206.151,4419974.330,-73.81 
643206.151,4419924.371,-74.43 
643206.151,4419874.413,-75 
643206.151,4419824.455,-75.6 
643206.151,4419774.496,-76.17 
643206.151,4419724.538,-76.76 
643206.151,4419674.579,-77.42 
643206.151,4419624.621,-78.1 
643206.151,4419574.663,-78.77 
643206.151,4419524.704,-79.39 
643206.151,4419474.746,-80.08 
643206.151,4419424.788,-80.92 
643206.151,4419374.829,-81.73 
643206.151,4419324.871,-82.54 
643206.151,4419274.912,-83.33 
643206.151,4419224.954,-84.15 
643206.151,4419174.996,-85.12 
643206.151,4419125.037,-86.22 
643206.151,4419075.079,-87.42 
643206.151,4419025.120,-88.72 
643206.151,4418975.162,-90.13 
643206.151,4418925.204,-91.67 
643206.151,4418875.245,-93.56 
643206.151,4418825.287,-95.98 
643206.151,4418775.329,-99.02 
643206.151,4418725.370,-102.47 
643206.151,4418675.412,-105.01 
643206.151,4418625.453,-105.74 
643206.151,4418575.495,-105.98 
643206.151,4418525.537,-107.16 
643206.151,4418475.578,-109.17 
643206.151,4418425.620,-111.45 
643206.151,4418375.661,-113.66 
643206.151,4418325.703,-115.68 
643206.151,4418275.745,-117.66 
643206.151,4418225.786,-119.75 
643206.151,4418175.828,-122.19 
643206.151,4418125.870,-124.75 
643206.151,4418075.911,-127.26 
643206.151,4418025.953,-130.16 
643206.151,4417975.994,-133.69 
643206.151,4417926.036,-137.92 
643206.151,4417876.078,-142.5 
643206.151,4417826.119,-147.13 
643206.151,4417776.161,-151.5 
643206.151,4417726.202,-155.23 
643206.151,4417676.244,-158.01 
643206.151,4417626.286,-159.44 
643206.151,4417576.327,-159.33 
643206.151,4417526.369,-158.44 
643206.151,4417476.411,-158.02 
643206.151,4417426.452,-158.06 
643206.151,4417376.494,-158.41 
643206.151,4417326.535,-159.24 
643206.151,4417276.577,-159.71 
643206.151,4414129.199,-159.5 
643206.151,4414079.240,-159 
643206.151,4414029.282,-158.42 
643206.151,4413979.324,-157.97 
643206.151,4413929.365,-157.77 
643206.151,4413879.407,-157.91 
643206.151,4413829.449,-158.09 
643206.151,4413779.490,-158.27 
643206.151,4413729.532,-158.42 
643206.151,4413679.573,-158.4 
643206.151,4413629.615,-158.4 
643206.151,4413579.657,-158.87 
643206.151,4413529.698,-159.42 
643206.151,4413479.740,-159.87 
643256.151,4422072.582,-59.51 
643256.151,4422022.623,-58.91 
643256.151,4421972.665,-59.17 
643256.151,4421922.707,-59.66 
643256.151,4421872.748,-60.13 
643256.151,4421822.790,-60.41 
643256.151,4421772.832,-60.66 
643256.151,4421722.873,-60.91 
643256.151,4421672.915,-61.13 
643256.151,4421622.956,-61.33 
643256.151,4421572.998,-61.52 
643256.151,4421523.040,-61.75 
643256.151,4421473.081,-62.14 
643256.151,4421423.123,-62.63 
643256.151,4421373.164,-63.07 
643256.151,4421323.206,-63.37 
643256.151,4421273.248,-63.67 
643256.151,4421223.289,-64.05 
643256.151,4421173.331,-64.38 
643256.151,4421123.373,-64.64 
643256.151,4421073.414,-64.91 
643256.151,4421023.456,-65.19 
643256.151,4420973.497,-65.5 
643256.151,4420923.539,-65.87 
643256.151,4420873.581,-66.25 
643256.151,4420823.622,-66.68 
643256.151,4420773.664,-67.18 
643256.151,4420723.705,-67.57 
643256.151,4420673.747,-67.86 
643256.151,4420623.789,-68.16 
643256.151,4420573.830,-68.52 
643256.151,4420523.872,-68.91 
643256.151,4420473.914,-69.35 
643256.151,4420423.955,-69.81 
643256.151,4420373.997,-70.33 
643256.151,4420324.038,-70.88 
643256.151,4420274.080,-71.34 
643256.151,4420224.122,-71.8 
643256.151,4420174.163,-72.26 
643256.151,4420124.205,-72.73 
643256.151,4420074.247,-73.3 
643256.151,4420024.288,-73.98 
643256.151,4419974.330,-74.62 
643256.151,4419924.371,-75.15 
643256.151,4419874.413,-75.71 
643256.151,4419824.455,-76.41 
643256.151,4419774.496,-77.09 
643256.151,4419724.538,-77.71 
643256.151,4419674.579,-78.36 
643256.151,4419624.621,-78.98 
643256.151,4419574.663,-79.58 
643256.151,4419524.704,-80.27 
643256.151,4419474.746,-81.04 
643256.151,4419424.788,-81.78 
643256.151,4419374.829,-82.53 
643256.151,4419324.871,-83.35 
643256.151,4419274.912,-84.19 
643256.151,4419224.954,-85.09 
643256.151,4419174.996,-86.05 
643256.151,4419125.037,-87.05 
643256.151,4419075.079,-88.35 
643256.151,4419025.120,-89.77 
643256.151,4418975.162,-91.26 
643256.151,4418925.204,-92.97 
643256.151,4418875.245,-94.96 
643256.151,4418825.287,-97.6 
643256.151,4418775.329,-100.95 
643256.151,4418725.370,-104.11 
643256.151,4418675.412,-105.54 
643256.151,4418625.453,-105.63 
643256.151,4418575.495,-106.25 
643256.151,4418525.537,-107.83 
643256.151,4418475.578,-109.75 
643256.151,4418425.620,-111.78 
643256.151,4418375.661,-113.76 
643256.151,4418325.703,-115.62 
643256.151,4418275.745,-117.51 
643256.151,4418225.786,-119.61 
643256.151,4418175.828,-122.23 
643256.151,4418125.870,-125.19 
643256.151,4418075.911,-128.21 
643256.151,4418025.953,-131.98 
643256.151,4417975.994,-136.66 
643256.151,4417926.036,-141.67 
643256.151,4417876.078,-146.58 
643256.151,4417826.119,-150.84 
643256.151,4417776.161,-154.34 
643256.151,4417726.202,-156.91 
643256.151,4417676.244,-158.18 
643256.151,4417626.286,-158.09 
643256.151,4417576.327,-157.24 
643256.151,4417526.369,-156.36 
643256.151,4417476.411,-155.87 
643256.151,4417426.452,-156.12 
643256.151,4417376.494,-157.11 
643256.151,4417326.535,-158.52 
643256.151,4417276.577,-159.33 
643256.151,4414378.991,-159.8 
643256.151,4414229.116,-159.55 
643256.151,4414179.157,-159.11 
643256.151,4414129.199,-158.61 
643256.151,4414079.240,-157.87 
643256.151,4414029.282,-157.22 
643256.151,4413979.324,-156.79 
643256.151,4413929.365,-156.56 
643256.151,4413879.407,-156.73 
643256.151,4413829.449,-156.78 
643256.151,4413779.490,-156.68 
643256.151,4413729.532,-156.68 
643256.151,4413679.573,-156.85 
643256.151,4413629.615,-157.21 
643256.151,4413579.657,-157.55 
643256.151,4413529.698,-158 
643256.151,4413479.740,-158.41 
643256.151,4413429.781,-158.85 
643256.151,4413379.823,-159.44 
643306.151,4422122.540,-60.28 
643306.151,4422072.582,-59.98 
643306.151,4422022.623,-59.81 
643306.151,4421972.665,-60.09 
643306.151,4421922.707,-60.42 
643306.151,4421872.748,-60.74 
643306.151,4421822.790,-61.09 
643306.151,4421772.832,-61.39 
643306.151,4421722.873,-61.66 
643306.151,4421672.915,-61.91 
643306.151,4421622.956,-62.1 
643306.151,4421572.998,-62.26 
643306.151,4421523.040,-62.56 
643306.151,4421473.081,-62.96 
643306.151,4421423.123,-63.37 
643306.151,4421373.164,-63.76 
643306.151,4421323.206,-64.09 
643306.151,4421273.248,-64.4 
643306.151,4421223.289,-64.7 
643306.151,4421173.331,-64.93 
643306.151,4421123.373,-65.19 
643306.151,4421073.414,-65.51 
643306.151,4421023.456,-65.83 
643306.151,4420973.497,-66.24 
643306.151,4420923.539,-66.68 
643306.151,4420873.581,-67.08 
643306.151,4420823.622,-67.5 
643306.151,4420773.664,-67.91 
643306.151,4420723.705,-68.22 
643306.151,4420673.747,-68.42 
643306.151,4420623.789,-68.75 
643306.151,4420573.830,-69.22 
643306.151,4420523.872,-69.68 
643306.151,4420473.914,-70.11 
643306.151,4420423.955,-70.57 
643306.151,4420373.997,-71.16 
643306.151,4420324.038,-71.74 
643306.151,4420274.080,-72.22 
643306.151,4420224.122,-72.65 
643306.151,4420174.163,-73.13 
643306.151,4420124.205,-73.61 
643306.151,4420074.247,-74.14 
643306.151,4420024.288,-74.75 
643306.151,4419974.330,-75.32 
643306.151,4419924.371,-75.97 
643306.151,4419874.413,-76.63 
643306.151,4419824.455,-77.26 
643306.151,4419774.496,-77.96 
643306.151,4419724.538,-78.67 
643306.151,4419674.579,-79.27 
643306.151,4419624.621,-79.84 
643306.151,4419574.663,-80.44 
643306.151,4419524.704,-81.1 
643306.151,4419474.746,-81.81 
643306.151,4419424.788,-82.56 
643306.151,4419374.829,-83.32 
643306.151,4419324.871,-84.09 
643306.151,4419274.912,-84.98 
643306.151,4419224.954,-85.91 
643306.151,4419174.996,-86.8 
643306.151,4419125.037,-87.81 
643306.151,4419075.079,-89.05 
643306.151,4419025.120,-90.57 
643306.151,4418975.162,-92.23 
643306.151,4418925.204,-94.06 
643306.151,4418875.245,-96.3 
643306.151,4418825.287,-99.25 
643306.151,4418775.329,-102.64 
643306.151,4418725.370,-104.97 
643306.151,4418675.412,-105.5 
643306.151,4418625.453,-105.73 
643306.151,4418575.495,-106.86 
643306.151,4418525.537,-108.52 
643306.151,4418475.578,-110.21 
643306.151,4418425.620,-111.95 
643306.151,4418375.661,-113.76 
643306.151,4418325.703,-115.61 
643306.151,4418275.745,-117.73 
643306.151,4418225.786,-120.1 
643306.151,4418175.828,-122.92 
643306.151,4418125.870,-126.4 
643306.151,4418075.911,-130.67 
643306.151,4418025.953,-135.67 
643306.151,4417975.994,-140.77 
643306.151,4417926.036,-145.62 
643306.151,4417876.078,-149.9 
643306.151,4417826.119,-153.38 
643306.151,4417776.161,-155.74 
643306.151,4417726.202,-156.55 
643306.151,4417676.244,-156.08 
643306.151,4417626.286,-155.12 
643306.151,4417576.327,-154.16 
643306.151,4417526.369,-153.59 
643306.151,4417476.411,-153.72 
643306.151,4417426.452,-154.73 
643306.151,4417376.494,-156.25 
643306.151,4417326.535,-157.88 
643306.151,4417276.577,-158.75 
643306.151,4414378.991,-159.6 
643306.151,4414329.032,-159.34 
643306.151,4414279.074,-159.2 
643306.151,4414229.116,-158.84 
643306.151,4414179.157,-158.19 
643306.151,4414129.199,-157.52 
643306.151,4414079.240,-156.84 
643306.151,4414029.282,-156.17 
643306.151,4413979.324,-155.73 
643306.151,4413929.365,-155.56 
643306.151,4413879.407,-155.63 
643306.151,4413829.449,-155.62 
643306.151,4413779.490,-155.42 
643306.151,4413729.532,-155.37 
643306.151,4413679.573,-155.35 
643306.151,4413629.615,-155.46 
643306.151,4413579.657,-155.67 
643306.151,4413529.698,-156.01 
643306.151,4413479.740,-156.62 
643306.151,4413429.781,-157.38 
643306.151,4413379.823,-158.05 
643306.151,4413329.865,-158.55 
643306.151,4413279.906,-159.39 
643306.151,4413229.948,-159.8 
643356.151,4422172.499,-60.53 
643356.151,4422122.540,-60.41 
643356.151,4422072.582,-60.54 
643356.151,4422022.623,-60.66 
643356.151,4421972.665,-60.93 
643356.151,4421922.707,-61.2 
643356.151,4421872.748,-61.53 
643356.151,4421822.790,-61.88 
643356.151,4421772.832,-62.15 
643356.151,4421722.873,-62.35 
643356.151,4421672.915,-62.53 
643356.151,4421622.956,-62.73 
643356.151,4421572.998,-62.99 
643356.151,4421523.040,-63.37 
643356.151,4421473.081,-63.78 
643356.151,4421423.123,-64.09 
643356.151,4421373.164,-64.4 
643356.151,4421323.206,-64.71 
643356.151,4421273.248,-65 
643356.151,4421223.289,-65.27 
643356.151,4421173.331,-65.51 
643356.151,4421123.373,-65.84 
643356.151,4421073.414,-66.22 
643356.151,4421023.456,-66.6 
643356.151,4420973.497,-67.03 
643356.151,4420923.539,-67.52 
643356.151,4420873.581,-67.93 
643356.151,4420823.622,-68.27 
643356.151,4420773.664,-68.57 
643356.151,4420723.705,-68.75 
643356.151,4420673.747,-68.89 
643356.151,4420623.789,-69.34 
643356.151,4420573.830,-69.98 
643356.151,4420523.872,-70.51 
643356.151,4420473.914,-71.03 
643356.151,4420423.955,-71.54 
643356.151,4420373.997,-72.07 
643356.151,4420324.038,-72.59 
643356.151,4420274.080,-73.02 
643356.151,4420224.122,-73.47 
643356.151,4420174.163,-73.98 
643356.151,4420124.205,-74.54 
643356.151,4420074.247,-75.13 
643356.151,4420024.288,-75.69 
643356.151,4419974.330,-76.25 
643356.151,4419924.371,-76.89 
643356.151,4419874.413,-77.54 
643356.151,4419824.455,-78.17 
643356.151,4419774.496,-78.83 
643356.151,4419724.538,-79.51 
643356.151,4419674.579,-80.14 
643356.151,4419624.621,-80.75 
643356.151,4419574.663,-81.32 
643356.151,4419524.704,-81.93 
643356.151,4419474.746,-82.65 
643356.151,4419424.788,-83.4 
643356.151,4419374.829,-84.13 
643356.151,4419324.871,-84.88 
643356.151,4419274.912,-85.74 
643356.151,4419224.954,-86.67 
643356.151,4419174.996,-87.64 
643356.151,4419125.037,-88.68 
643356.151,4419075.079,-89.95 
643356.151,4419025.120,-91.47 
643356.151,4418975.162,-93.11 
643356.151,4418925.204,-95.1 
643356.151,4418875.245,-97.65 
643356.151,4418825.287,-100.88 
643356.151,4418775.329,-103.91 
643356.151,4418725.370,-105.27 
643356.151,4418675.412,-105.5 
643356.151,4418625.453,-106.21 
643356.151,4418575.495,-107.62 
643356.151,4418525.537,-109.1 
643356.151,4418475.578,-110.61 
643356.151,4418425.620,-112.24 
643356.151,4418375.661,-113.91 
643356.151,4418325.703,-115.89 
643356.151,4418275.745,-118.36 
643356.151,4418225.786,-121.32 
643356.151,4418175.828,-124.86 
643356.151,4418125.870,-129.31 
643356.151,4418075.911,-134.57 
643356.151,4418025.953,-139.76 
643356.151,4417975.994,-144.38 
643356.151,4417926.036,-148.59 
643356.151,4417876.078,-152.08 
643356.151,4417826.119,-154.44 
643356.151,4417776.161,-155.06 
643356.151,4417726.202,-154.25 
643356.151,4417676.244,-153.07 
643356.151,4417626.286,-151.98 
643356.151,4417576.327,-151.31 
643356.151,4417526.369,-151.38 
643356.151,4417476.411,-152.27 
643356.151,4417426.452,-153.75 
643356.151,4417376.494,-155.48 
643356.151,4417326.535,-157.24 
643356.151,4417276.577,-158.65 
643356.151,4417226.619,-159.23 
643356.151,4414528.866,-159.7 
643356.151,4414478.907,-159.23 
643356.151,4414428.949,-158.94 
643356.151,4414378.991,-158.88 
643356.151,4414329.032,-158.61 
643356.151,4414279.074,-158.25 
643356.151,4414229.116,-157.7 
643356.151,4414179.157,-157.04 
643356.151,4414129.199,-156.4 
643356.151,4414079.240,-155.73 
643356.151,4414029.282,-155.07 
643356.151,4413979.324,-154.66 
643356.151,4413929.365,-154.58 
643356.151,4413879.407,-154.64 
643356.151,4413829.449,-154.64 
643356.151,4413779.490,-154.52 
643356.151,4413729.532,-154.4 
643356.151,4413679.573,-154.27 
643356.151,4413629.615,-154.17 
643356.151,4413579.657,-154.17 
643356.151,4413529.698,-154.36 
643356.151,4413479.740,-154.81 
643356.151,4413429.781,-155.41 
643356.151,4413379.823,-156.17 
643356.151,4413329.865,-157.01 
643356.151,4413279.906,-157.92 
643356.151,4413229.948,-158.65 
643356.151,4413179.990,-158.94 
643406.151,4422322.374,-61.63 
643406.151,4422272.415,-61.41 
643406.151,4422222.457,-61.07 
643406.151,4422172.499,-60.71 
643406.151,4422122.540,-60.78 
643406.151,4422072.582,-61.12 
643406.151,4422022.623,-61.44 
643406.151,4421972.665,-61.71 
643406.151,4421922.707,-61.99 
643406.151,4421872.748,-62.27 
643406.151,4421822.790,-62.52 
643406.151,4421772.832,-62.76 
643406.151,4421722.873,-62.95 
643406.151,4421672.915,-63.14 
643406.151,4421622.956,-63.45 
643406.151,4421572.998,-63.74 
643406.151,4421523.040,-64.04 
643406.151,4421473.081,-64.47 
643406.151,4421423.123,-64.78 
643406.151,4421373.164,-65.05 
643406.151,4421323.206,-65.37 
643406.151,4421273.248,-65.66 
643406.151,4421223.289,-65.93 
643406.151,4421173.331,-66.26 
643406.151,4421123.373,-66.61 
643406.151,4421073.414,-66.99 
643406.151,4421023.456,-67.43 
