767630.597,4535601.520,-586.180
767630.597,4535501.520,-584.410
767630.597,4535401.520,-582.900
767630.597,4535301.520,-580.490
767630.597,4535201.520,-576.010
767630.597,4535101.520,-570.960
767630.597,4535001.520,-566.220
767630.597,4534901.520,-560.730
767630.597,4534801.520,-555.360
767630.597,4534701.520,-551.150
767630.597,4534601.520,-544.720
767630.597,4534501.520,-538.690
767630.597,4534401.520,-532.080
767630.597,4534301.520,-525.380
767630.597,4534201.520,-518.900
767630.597,4534101.520,-513.160
767630.597,4534001.520,-507.550
767630.597,4533901.520,-502.680
767630.597,4533801.520,-498.230
767630.597,4533701.520,-494.050
767630.597,4533601.520,-488.840
767630.597,4533501.520,-485.050
767630.597,4533401.520,-480.640
767630.597,4533301.520,-476.340
767630.597,4533201.520,-472.170
767630.597,4533101.520,-467.340
767630.597,4533001.520,-464.950
767630.597,4532901.520,-459.640
767630.597,4532801.520,-454.520
767630.597,4532701.520,-450.020
767630.597,4532601.520,-442.670
767630.597,4532501.520,-438.040
767630.597,4532401.520,-432.960
767630.597,4532301.520,-428.230
767630.597,4532201.520,-422.130
767630.597,4532101.520,-417.480
767630.597,4532001.520,-412.980
767630.597,4531901.520,-407.870
767630.597,4531801.520,-403.020
767630.597,4531701.520,-398.720
767630.597,4531601.520,-392.960
767630.597,4531501.520,-388.290
767630.597,4531401.520,-384.740
767630.597,4531301.520,-381.170
767630.597,4531201.520,-379.030
767630.597,4531101.520,-377.010
767630.597,4531001.520,-375.010
767630.597,4530901.520,-373.020
767630.597,4530801.520,-370.820
767630.597,4530701.520,-372.010
767630.597,4530601.520,-375.130
767630.597,4530501.520,-377.090
767630.597,4530401.520,-377.370
767630.597,4530301.520,-376.800
767630.597,4530201.520,-376.860
767630.597,4530101.520,-376.040
767630.597,4530001.520,-375.940
767630.597,4529901.520,-375.860
767630.597,4529801.520,-375.180
767630.597,4529701.520,-374.270
767630.597,4529601.520,-373.900
767630.597,4529501.520,-374.510
767630.597,4529401.520,-377.610
767630.597,4529301.520,-380.030
767630.597,4529201.520,-381.730
767630.597,4529101.520,-382.840
767630.597,4529001.520,-383.650
767630.597,4528901.520,-383.410
767630.597,4528801.520,-382.710
767630.597,4528701.520,-382.240
767630.597,4528601.520,-382.290
767630.597,4528501.520,-382.020
767630.597,4528401.520,-379.670
767630.597,4528301.520,-375.720
767630.597,4528201.520,-372.420
767630.597,4528101.520,-368.510
767630.597,4528001.520,-364.570
767630.597,4527901.520,-360.410
767630.597,4527801.520,-356.450
767630.597,4527701.520,-352.370
767630.597,4527601.520,-349.020
767630.597,4527501.520,-346.170
767630.597,4527401.520,-343.720
767630.597,4527301.520,-341.470
767630.597,4527201.520,-338.610
767630.597,4527101.520,-335.060
767630.597,4527001.520,-331.970
767630.597,4526901.520,-328.720
767630.597,4526801.520,-325.870
767630.597,4526701.520,-322.810
767630.597,4526601.520,-319.490
767630.597,4526501.520,-317.070
767630.597,4526401.520,-315.010
767630.597,4526301.520,-313.480
767630.597,4526201.520,-312.540
767630.597,4526101.520,-312.640
767630.597,4526001.520,-310.530
767630.597,4525901.520,-309.870
767630.597,4525801.520,-306.230
767630.597,4525701.520,-302.990
767630.597,4525601.520,-300.410
767630.597,4525501.520,-295.200
767630.597,4525401.520,-285.260
767630.597,4525301.520,-282.980
767630.597,4525201.520,-285.650
767630.597,4525101.520,-283.330
767630.597,4525001.520,-283.790
767630.597,4524901.520,-291.480
767630.597,4524801.520,-295.070
767630.597,4524701.520,-293.430
767630.597,4524601.520,-291.730
767630.597,4524501.520,-287.120
767630.597,4524401.520,-287.370
767630.597,4524301.520,-272.710
767630.597,4524201.520,-274.170
767630.597,4524101.520,-269.810
767630.597,4524001.520,-263.510
767630.597,4523901.520,-266.200
767630.597,4523801.520,-261.530
767630.597,4523701.520,-256.100
767630.597,4523601.520,-250.730
767630.597,4523501.520,-243.260
767630.597,4523401.520,-234.810
767630.597,4523301.520,-224.330
767630.597,4523201.520,-211.710
767630.597,4523101.520,-201.820
767630.597,4523001.520,-190.550
767630.597,4522901.520,-177.700
767630.597,4522801.520,-176.350
767630.597,4522701.520,-168.880
767630.597,4522601.520,-158.270
767730.597,4540001.520,-711.820
767730.597,4539901.520,-711.780
767730.597,4539801.520,-711.490
767730.597,4539701.520,-709.560
767730.597,4539601.520,-707.340
767730.597,4539501.520,-705.490
767730.597,4539401.520,-702.870
767730.597,4539301.520,-701.110
767730.597,4539201.520,-698.830
767730.597,4539101.520,-695.390
767730.597,4539001.520,-692.940
767730.597,4538901.520,-690.180
767730.597,4538801.520,-688.100
767730.597,4538701.520,-685.730
767730.597,4538601.520,-683.050
767730.597,4538501.520,-681.250
767730.597,4538401.520,-679.310
767730.597,4538301.520,-676.590
767730.597,4538201.520,-673.410
767730.597,4538101.520,-671.990
767730.597,4538001.520,-669.940
767730.597,4537901.520,-668.030
767730.597,4537801.520,-664.930
767730.597,4537701.520,-661.730
767730.597,4537601.520,-659.360
767730.597,4537501.520,-655.470
767730.597,4537401.520,-651.370
767730.597,4537301.520,-647.710
767730.597,4537201.520,-643.390
767730.597,4537101.520,-640.610
767730.597,4537001.520,-637.600
767730.597,4536901.520,-634.760
767730.597,4536801.520,-631.240
767730.597,4536701.520,-628.280
767730.597,4536601.520,-624.600
767730.597,4536501.520,-620.000
767730.597,4536401.520,-617.010
767730.597,4536301.520,-611.520
767730.597,4536201.520,-607.850
767730.597,4536101.520,-604.580
767730.597,4536001.520,-600.440
767730.597,4535901.520,-596.940
767730.597,4535801.520,-593.740
767730.597,4535701.520,-591.240
767730.597,4535601.520,-590.980
767730.597,4535501.520,-589.110
767730.597,4535401.520,-587.740
767730.597,4535301.520,-584.070
767730.597,4535201.520,-579.080
767730.597,4535101.520,-574.290
767730.597,4535001.520,-568.810
767730.597,4534901.520,-563.300
767730.597,4534801.520,-558.980
767730.597,4534701.520,-554.470
767730.597,4534601.520,-549.590
767730.597,4534501.520,-544.340
767730.597,4534401.520,-538.830
767730.597,4534301.520,-532.720
767730.597,4534201.520,-526.720
767730.597,4534101.520,-520.350
767730.597,4534001.520,-515.450
767730.597,4533901.520,-508.860
767730.597,4533801.520,-503.580
767730.597,4533701.520,-499.390
767730.597,4533601.520,-494.070
767730.597,4533501.520,-492.430
767730.597,4533401.520,-487.940
767730.597,4533301.520,-483.680
767730.597,4533201.520,-479.200
767730.597,4533101.520,-474.940
767730.597,4533001.520,-471.320
767730.597,4532901.520,-467.440
767730.597,4532801.520,-462.320
767730.597,4532701.520,-458.180
767730.597,4532601.520,-452.630
767730.597,4532501.520,-447.180
767730.597,4532401.520,-441.770
767730.597,4532301.520,-436.610
767730.597,4532201.520,-430.940
767730.597,4532101.520,-425.400
767730.597,4532001.520,-420.080
767730.597,4531901.520,-415.090
767730.597,4531801.520,-410.210
767730.597,4531701.520,-405.000
767730.597,4531601.520,-400.450
767730.597,4531501.520,-395.270
767730.597,4531401.520,-391.190
767730.597,4531301.520,-387.830
767730.597,4531201.520,-383.900
767730.597,4531101.520,-381.760
767730.597,4531001.520,-379.450
767730.597,4530901.520,-378.300
767730.597,4530801.520,-377.760
767730.597,4530701.520,-378.810
767730.597,4530601.520,-379.910
767730.597,4530501.520,-380.880
767730.597,4530401.520,-380.530
767730.597,4530301.520,-379.970
767730.597,4530201.520,-380.220
767730.597,4530101.520,-379.060
767730.597,4530001.520,-378.780
767730.597,4529901.520,-377.950
767730.597,4529801.520,-378.040
767730.597,4529701.520,-377.070
767730.597,4529601.520,-376.740
767730.597,4529501.520,-378.910
767730.597,4529401.520,-380.630
767730.597,4529301.520,-382.580
767730.597,4529201.520,-384.220
767730.597,4529101.520,-384.950
767730.597,4529001.520,-385.480
767730.597,4528901.520,-385.660
767730.597,4528801.520,-385.700
767730.597,4528701.520,-384.730
767730.597,4528601.520,-383.760
767730.597,4528501.520,-384.160
767730.597,4528401.520,-382.880
767730.597,4528301.520,-379.330
767730.597,4528201.520,-375.640
767730.597,4528101.520,-372.140
767730.597,4528001.520,-367.790
767730.597,4527901.520,-364.530
767730.597,4527801.520,-360.720
767730.597,4527701.520,-357.450
767730.597,4527601.520,-354.120
767730.597,4527501.520,-351.100
767730.597,4527401.520,-348.360
767730.597,4527301.520,-346.880
767730.597,4527201.520,-344.210
767730.597,4527101.520,-341.080
767730.597,4527001.520,-338.400
767730.597,4526901.520,-336.100
767730.597,4526801.520,-333.250
767730.597,4526701.520,-330.170
767730.597,4526601.520,-327.360
767730.597,4526501.520,-324.350
767730.597,4526401.520,-322.830
767730.597,4526301.520,-321.620
767730.597,4526201.520,-320.840
767730.597,4526101.520,-321.170
767730.597,4526001.520,-321.400
767730.597,4525901.520,-321.550
767730.597,4525801.520,-319.520
767730.597,4525701.520,-313.740
767730.597,4525601.520,-309.420
767730.597,4525501.520,-305.730
767730.597,4525401.520,-297.850
767730.597,4525301.520,-289.000
767730.597,4525201.520,-288.460
767730.597,4525101.520,-295.730
767730.597,4525001.520,-298.850
767730.597,4524901.520,-306.040
767730.597,4524801.520,-307.730
767730.597,4524701.520,-312.180
767730.597,4524601.520,-308.260
767730.597,4524501.520,-305.120
767730.597,4524401.520,-310.920
767730.597,4524301.520,-298.400
767730.597,4524201.520,-286.740
767730.597,4524101.520,-279.110
767730.597,4524001.520,-275.840
767730.597,4523901.520,-275.650
767730.597,4523801.520,-274.470
767730.597,4523701.520,-269.740
767730.597,4523601.520,-263.910
767730.597,4523501.520,-255.780
767730.597,4523401.520,-244.550
767730.597,4523301.520,-231.440
767730.597,4523201.520,-218.830
767730.597,4523101.520,-209.930
767730.597,4523001.520,-200.140
767730.597,4522901.520,-186.850
767730.597,4522801.520,-181.730
767730.597,4522701.520,-174.590
767730.597,4522601.520,-170.260
767730.597,4522501.520,-158.730
767730.597,4522401.520,-150.220
767830.597,4540001.520,-716.040
767830.597,4539901.520,-715.670
767830.597,4539801.520,-715.090
767830.597,4539701.520,-713.810
767830.597,4539601.520,-712.800
767830.597,4539501.520,-709.300
767830.597,4539401.520,-707.410
767830.597,4539301.520,-704.510
767830.597,4539201.520,-703.050
767830.597,4539101.520,-700.670
767830.597,4539001.520,-698.230
767830.597,4538901.520,-696.430
767830.597,4538801.520,-693.770
767830.597,4538701.520,-690.900
767830.597,4538601.520,-689.540
767830.597,4538501.520,-687.380
767830.597,4538401.520,-684.310
767830.597,4538301.520,-681.600
767830.597,4538201.520,-678.580
767830.597,4538101.520,-676.460
767830.597,4538001.520,-674.330
767830.597,4537901.520,-672.320
767830.597,4537801.520,-670.100
767830.597,4537701.520,-666.980
767830.597,4537601.520,-663.280
767830.597,4537501.520,-658.920
767830.597,4537401.520,-655.450
767830.597,4537301.520,-652.480
767830.597,4537201.520,-648.440
767830.597,4537101.520,-644.940
767830.597,4537001.520,-642.010
767830.597,4536901.520,-639.620
767830.597,4536801.520,-635.240
767830.597,4536701.520,-632.500
767830.597,4536601.520,-627.320
767830.597,4536501.520,-622.470
767830.597,4536401.520,-618.440
767830.597,4536301.520,-614.180
767830.597,4536201.520,-610.120
767830.597,4536101.520,-606.690
767830.597,4536001.520,-602.320
767830.597,4535901.520,-599.010
767830.597,4535801.520,-596.370
767830.597,4535701.520,-595.180
767830.597,4535601.520,-594.150
767830.597,4535501.520,-593.080
767830.597,4535401.520,-591.090
767830.597,4535301.520,-586.340
767830.597,4535201.520,-582.530
767830.597,4535101.520,-577.370
767830.597,4535001.520,-572.840
767830.597,4534901.520,-567.630
767830.597,4534801.520,-562.160
767830.597,4534701.520,-557.640
767830.597,4534601.520,-553.200
767830.597,4534501.520,-548.520
767830.597,4534401.520,-543.910
767830.597,4534301.520,-539.130
767830.597,4534201.520,-532.830
767830.597,4534101.520,-525.820
767830.597,4534001.520,-519.410
767830.597,4533901.520,-514.130
767830.597,4533801.520,-507.970
767830.597,4533701.520,-503.420
767830.597,4533601.520,-503.170
767830.597,4533501.520,-499.330
767830.597,4533401.520,-495.730
767830.597,4533301.520,-490.500
767830.597,4533201.520,-486.420
767830.597,4533101.520,-483.060
767830.597,4533001.520,-478.330
767830.597,4532901.520,-474.760
767830.597,4532801.520,-470.770
767830.597,4532701.520,-465.520
767830.597,4532601.520,-461.280
767830.597,4532501.520,-456.710
767830.597,4532401.520,-451.670
767830.597,4532301.520,-446.270
767830.597,4532201.520,-440.850
767830.597,4532101.520,-435.520
767830.597,4532001.520,-429.020
767830.597,4531901.520,-423.500
767830.597,4531801.520,-418.050
767830.597,4531701.520,-412.490
767830.597,4531601.520,-407.580
767830.597,4531501.520,-403.030
767830.597,4531401.520,-398.700
767830.597,4531301.520,-394.570
767830.597,4531201.520,-389.930
767830.597,4531101.520,-387.150
767830.597,4531001.520,-384.910
767830.597,4530901.520,-383.770
767830.597,4530801.520,-383.430
767830.597,4530701.520,-384.420
767830.597,4530601.520,-384.880
767830.597,4530501.520,-384.310
767830.597,4530401.520,-384.180
767830.597,4530301.520,-384.380
767830.597,4530201.520,-383.890
767830.597,4530101.520,-382.260
767830.597,4530001.520,-381.510
767830.597,4529901.520,-381.300
767830.597,4529801.520,-380.840
767830.597,4529701.520,-380.230
767830.597,4529601.520,-380.210
767830.597,4529501.520,-381.600
767830.597,4529401.520,-383.730
767830.597,4529301.520,-384.840
767830.597,4529201.520,-386.280
767830.597,4529101.520,-387.160
767830.597,4529001.520,-387.820
767830.597,4528901.520,-387.640
767830.597,4528801.520,-387.160
767830.597,4528701.520,-387.050
767830.597,4528601.520,-386.630
767830.597,4528501.520,-387.500
767830.597,4528401.520,-385.560
767830.597,4528301.520,-382.620
767830.597,4528201.520,-379.110
767830.597,4528101.520,-375.620
767830.597,4528001.520,-371.990
767830.597,4527901.520,-368.870
767830.597,4527801.520,-365.940
767830.597,4527701.520,-362.930
767830.597,4527601.520,-359.640
767830.597,4527501.520,-356.930
767830.597,4527401.520,-354.190
767830.597,4527301.520,-352.130
767830.597,4527201.520,-350.010
767830.597,4527101.520,-347.020
767830.597,4527001.520,-345.350
767830.597,4526901.520,-342.970
767830.597,4526801.520,-341.740
767830.597,4526701.520,-339.160
767830.597,4526601.520,-337.000
767830.597,4526501.520,-333.840
767830.597,4526401.520,-331.500
767830.597,4526301.520,-330.290
767830.597,4526201.520,-330.340
767830.597,4526101.520,-330.660
767830.597,4526001.520,-331.690
767830.597,4525901.520,-332.470
767830.597,4525801.520,-331.700
767830.597,4525701.520,-325.970
767830.597,4525601.520,-320.590
767830.597,4525501.520,-315.120
767830.597,4525401.520,-305.340
767830.597,4525301.520,-298.020
767830.597,4525201.520,-293.030
767830.597,4525101.520,-300.270
767830.597,4525001.520,-310.700
767830.597,4524901.520,-315.870
767830.597,4524801.520,-318.520
767830.597,4524701.520,-324.020
767830.597,4524601.520,-329.830
767830.597,4524501.520,-329.830
767830.597,4524401.520,-327.070
767830.597,4524301.520,-322.830
767830.597,4524201.520,-302.590
767830.597,4524101.520,-290.120
767830.597,4524001.520,-283.680
767830.597,4523901.520,-281.550
767830.597,4523801.520,-285.800
767830.597,4523701.520,-283.430
767830.597,4523601.520,-277.210
767830.597,4523501.520,-269.450
767830.597,4523401.520,-255.470
767830.597,4523301.520,-240.520
767830.597,4523201.520,-228.130
767830.597,4523101.520,-216.000
767830.597,4523001.520,-204.160
767830.597,4522901.520,-194.350
767830.597,4522801.520,-188.670
767830.597,4522701.520,-183.930
767830.597,4522601.520,-177.610
767830.597,4522501.520,-167.980
767830.597,4522401.520,-160.500
767830.597,4522301.520,-153.300
767930.597,4540001.520,-717.590
767930.597,4539901.520,-718.570
767930.597,4539801.520,-717.870
767930.597,4539701.520,-716.320
767930.597,4539601.520,-714.910
767930.597,4539501.520,-713.050
767930.597,4539401.520,-710.730
767930.597,4539301.520,-708.550
767930.597,4539201.520,-706.590
767930.597,4539101.520,-704.260
767930.597,4539001.520,-701.950
767930.597,4538901.520,-700.290
767930.597,4538801.520,-698.700
767930.597,4538701.520,-696.610
767930.597,4538601.520,-693.880
767930.597,4538501.520,-691.910
767930.597,4538401.520,-688.690
767930.597,4538301.520,-685.740
767930.597,4538201.520,-682.740
767930.597,4538101.520,-680.750
767930.597,4538001.520,-677.480
767930.597,4537901.520,-676.800
767930.597,4537801.520,-674.730
767930.597,4537701.520,-670.860
767930.597,4537601.520,-666.850
767930.597,4537501.520,-663.240
767930.597,4537401.520,-659.760
767930.597,4537301.520,-655.420
767930.597,4537201.520,-652.340
767930.597,4537101.520,-649.550
767930.597,4537001.520,-646.400
767930.597,4536901.520,-643.040
767930.597,4536801.520,-638.960
767930.597,4536701.520,-635.010
767930.597,4536601.520,-630.050
767930.597,4536501.520,-624.920
767930.597,4536401.520,-620.830
767930.597,4536301.520,-616.480
767930.597,4536201.520,-611.770
767930.597,4536101.520,-608.070
767930.597,4536001.520,-604.420
767930.597,4535901.520,-602.380
767930.597,4535801.520,-600.130
767930.597,4535701.520,-598.830
767930.597,4535601.520,-598.750
767930.597,4535501.520,-595.760
767930.597,4535401.520,-592.610
767930.597,4535301.520,-588.860
767930.597,4535201.520,-584.640
767930.597,4535101.520,-580.610
767930.597,4535001.520,-576.060
767930.597,4534901.520,-571.540
767930.597,4534801.520,-566.650
767930.597,4534701.520,-562.190
767930.597,4534601.520,-557.400
767930.597,4534501.520,-552.610
767930.597,4534401.520,-548.410
767930.597,4534301.520,-542.430
767930.597,4534201.520,-536.450
767930.597,4534101.520,-528.770
767930.597,4534001.520,-523.900
767930.597,4533901.520,-519.040
767930.597,4533801.520,-514.120
767930.597,4533701.520,-512.460
767930.597,4533601.520,-509.750
767930.597,4533501.520,-506.570
767930.597,4533401.520,-501.830
767930.597,4533301.520,-497.260
767930.597,4533201.520,-493.600
767930.597,4533101.520,-490.110
767930.597,4533001.520,-486.210
767930.597,4532901.520,-482.000
767930.597,4532801.520,-479.120
767930.597,4532701.520,-474.330
767930.597,4532601.520,-469.610
767930.597,4532501.520,-465.790
767930.597,4532401.520,-461.390
767930.597,4532301.520,-454.920
767930.597,4532201.520,-450.470
767930.597,4532101.520,-446.410
767930.597,4532001.520,-440.670
767930.597,4531901.520,-433.660
767930.597,4531801.520,-426.200
767930.597,4531701.520,-420.690
767930.597,4531601.520,-415.700
767930.597,4531501.520,-411.000
767930.597,4531401.520,-405.710
767930.597,4531301.520,-400.770
767930.597,4531201.520,-396.070
767930.597,4531101.520,-393.750
767930.597,4531001.520,-392.570
767930.597,4530901.520,-389.750
767930.597,4530801.520,-388.870
767930.597,4530701.520,-389.040
767930.597,4530601.520,-388.850
767930.597,4530501.520,-388.230
767930.597,4530401.520,-387.190
767930.597,4530301.520,-387.720
767930.597,4530201.520,-387.520
767930.597,4530101.520,-385.630
767930.597,4530001.520,-384.620
767930.597,4529901.520,-383.650
767930.597,4529801.520,-383.880
767930.597,4529701.520,-382.430
767930.597,4529601.520,-383.160
767930.597,4529501.520,-384.470
767930.597,4529401.520,-386.000
767930.597,4529301.520,-387.740
767930.597,4529201.520,-389.360
767930.597,4529101.520,-389.800
767930.597,4529001.520,-390.040
767930.597,4528901.520,-390.020
767930.597,4528801.520,-389.150
767930.597,4528701.520,-388.890
767930.597,4528601.520,-389.010
767930.597,4528501.520,-389.210
767930.597,4528401.520,-388.570
767930.597,4528301.520,-385.620
767930.597,4528201.520,-383.020
767930.597,4528101.520,-379.350
767930.597,4528001.520,-376.500
767930.597,4527901.520,-373.950
767930.597,4527801.520,-371.140
767930.597,4527701.520,-368.650
767930.597,4527601.520,-366.060
767930.597,4527501.520,-362.590
767930.597,4527401.520,-359.940
767930.597,4527301.520,-357.040
767930.597,4527201.520,-355.040
767930.597,4527101.520,-353.470
767930.597,4527001.520,-352.530
767930.597,4526901.520,-351.490
767930.597,4526801.520,-350.430
767930.597,4526701.520,-349.480
767930.597,4526601.520,-347.970
767930.597,4526501.520,-346.010
767930.597,4526401.520,-342.240
767930.597,4526301.520,-340.410
767930.597,4526201.520,-340.020
767930.597,4526101.520,-340.290
767930.597,4526001.520,-342.870
767930.597,4525901.520,-343.770
767930.597,4525801.520,-343.700
767930.597,4525701.520,-339.310
767930.597,4525601.520,-333.140
767930.597,4525501.520,-325.250
767930.597,4525401.520,-316.810
767930.597,4525301.520,-306.520
767930.597,4525201.520,-301.480
767930.597,4525101.520,-303.760
767930.597,4525001.520,-316.750
767930.597,4524901.520,-320.030
767930.597,4524801.520,-325.890
767930.597,4524701.520,-329.240
767930.597,4524601.520,-342.190
767930.597,4524501.520,-342.390
767930.597,4524401.520,-337.750
767930.597,4524301.520,-333.370
767930.597,4524201.520,-325.520
767930.597,4524101.520,-308.700
767930.597,4524001.520,-293.300
767930.597,4523901.520,-288.970
767930.597,4523801.520,-294.960
767930.597,4523701.520,-295.730
767930.597,4523601.520,-289.580
767930.597,4523501.520,-279.860
767930.597,4523401.520,-265.930
767930.597,4523301.520,-252.350
767930.597,4523201.520,-239.440
767930.597,4523101.520,-225.130
767930.597,4523001.520,-211.450
767930.597,4522901.520,-201.350
767930.597,4522801.520,-196.390
767930.597,4522701.520,-193.740
767930.597,4522601.520,-185.790
767930.597,4522501.520,-174.290
767930.597,4522401.520,-166.140
767930.597,4522301.520,-159.730
767930.597,4522201.520,-150.750
768030.597,4540001.520,-721.710
768030.597,4539901.520,-720.600
768030.597,4539801.520,-720.100
768030.597,4539701.520,-717.630
768030.597,4539601.520,-716.600
768030.597,4539501.520,-714.430
768030.597,4539401.520,-713.070
768030.597,4539301.520,-712.640
768030.597,4539201.520,-708.800
768030.597,4539101.520,-706.270
768030.597,4539001.520,-704.590
768030.597,4538901.520,-703.530
768030.597,4538801.520,-701.220
768030.597,4538701.520,-700.170
768030.597,4538601.520,-697.090
768030.597,4538501.520,-694.150
768030.597,4538401.520,-691.700
768030.597,4538301.520,-688.170
768030.597,4538201.520,-685.710
768030.597,4538101.520,-683.860
768030.597,4538001.520,-681.580
768030.597,4537901.520,-679.760
768030.597,4537801.520,-677.430
768030.597,4537701.520,-674.720
768030.597,4537601.520,-672.220
768030.597,4537501.520,-667.520
768030.597,4537401.520,-662.800
768030.597,4537301.520,-659.870
768030.597,4537201.520,-656.220
768030.597,4537101.520,-652.680
768030.597,4537001.520,-648.990
768030.597,4536901.520,-644.970
768030.597,4536801.520,-640.750
768030.597,4536701.520,-635.980
768030.597,4536601.520,-633.110
768030.597,4536501.520,-627.440
768030.597,4536401.520,-623.540
768030.597,4536301.520,-618.790
768030.597,4536201.520,-614.090
768030.597,4536101.520,-609.890
768030.597,4536001.520,-607.580
768030.597,4535901.520,-605.700
768030.597,4535801.520,-604.520
768030.597,4535701.520,-603.100
768030.597,4535601.520,-601.300
768030.597,4535501.520,-597.560
768030.597,4535401.520,-594.290
768030.597,4535301.520,-591.530
768030.597,4535201.520,-587.160
768030.597,4535101.520,-583.610
768030.597,4535001.520,-580.150
768030.597,4534901.520,-576.000
768030.597,4534801.520,-571.930
768030.597,4534701.520,-566.240
768030.597,4534601.520,-562.020
768030.597,4534501.520,-558.020
768030.597,4534401.520,-553.210
768030.597,4534301.520,-546.840
768030.597,4534201.520,-539.560
768030.597,4534101.520,-533.210
768030.597,4534001.520,-529.680
768030.597,4533901.520,-525.600
768030.597,4533801.520,-520.920
768030.597,4533701.520,-519.410
768030.597,4533601.520,-516.880
768030.597,4533501.520,-512.360
768030.597,4533401.520,-508.000
768030.597,4533301.520,-503.870
768030.597,4533201.520,-499.940
768030.597,4533101.520,-496.080
768030.597,4533001.520,-492.210
768030.597,4532901.520,-489.180
768030.597,4532801.520,-485.490
768030.597,4532701.520,-481.540
768030.597,4532601.520,-476.610
768030.597,4532501.520,-474.090
768030.597,4532401.520,-469.200
768030.597,4532301.520,-463.560
768030.597,4532201.520,-459.110
768030.597,4532101.520,-455.150
768030.597,4532001.520,-449.520
768030.597,4531901.520,-443.630
768030.597,4531801.520,-437.250
768030.597,4531701.520,-429.770
768030.597,4531601.520,-423.080
768030.597,4531501.520,-417.950
768030.597,4531401.520,-412.510
768030.597,4531301.520,-407.040
768030.597,4531201.520,-402.770
768030.597,4531101.520,-399.810
768030.597,4531001.520,-397.290
768030.597,4530901.520,-395.650
768030.597,4530801.520,-394.250
768030.597,4530701.520,-393.740
768030.597,4530601.520,-393.260
768030.597,4530501.520,-391.850
768030.597,4530401.520,-391.980
768030.597,4530301.520,-391.750
768030.597,4530201.520,-391.200
768030.597,4530101.520,-389.140
768030.597,4530001.520,-387.260
768030.597,4529901.520,-387.760
768030.597,4529801.520,-386.440
768030.597,4529701.520,-386.620
768030.597,4529601.520,-386.980
768030.597,4529501.520,-388.120
768030.597,4529401.520,-389.560
768030.597,4529301.520,-390.880
768030.597,4529201.520,-391.640
768030.597,4529101.520,-392.260
768030.597,4529001.520,-392.480
768030.597,4528901.520,-392.140
768030.597,4528801.520,-391.010
768030.597,4528701.520,-390.930
768030.597,4528601.520,-391.270
768030.597,4528501.520,-391.680
768030.597,4528401.520,-391.900
768030.597,4528301.520,-389.130
768030.597,4528201.520,-386.240
768030.597,4528101.520,-383.770
768030.597,4528001.520,-380.940
768030.597,4527901.520,-378.680
768030.597,4527801.520,-376.230
768030.597,4527701.520,-374.270
768030.597,4527601.520,-372.070
768030.597,4527501.520,-368.450
768030.597,4527401.520,-365.490
768030.597,4527301.520,-362.550
768030.597,4527201.520,-360.030
768030.597,4527101.520,-358.800
768030.597,4527001.520,-359.380
768030.597,4526901.520,-360.160
768030.597,4526801.520,-360.310
768030.597,4526701.520,-360.420
768030.597,4526601.520,-360.460
768030.597,4526501.520,-358.970
768030.597,4526401.520,-355.390
768030.597,4526301.520,-352.300
768030.597,4526201.520,-350.910
768030.597,4526101.520,-351.510
768030.597,4526001.520,-354.040
768030.597,4525901.520,-355.550
768030.597,4525801.520,-354.920
768030.597,4525701.520,-352.550
768030.597,4525601.520,-346.840
768030.597,4525501.520,-337.060
768030.597,4525401.520,-330.280
768030.597,4525301.520,-319.640
768030.597,4525201.520,-314.130
768030.597,4525101.520,-311.660
768030.597,4525001.520,-320.900
768030.597,4524901.520,-326.940
768030.597,4524801.520,-331.240
768030.597,4524701.520,-334.560
768030.597,4524601.520,-342.590
768030.597,4524501.520,-353.750
768030.597,4524401.520,-355.110
768030.597,4524301.520,-341.980
768030.597,4524201.520,-338.800
768030.597,4524101.520,-332.670
768030.597,4524001.520,-308.860
768030.597,4523901.520,-302.340
768030.597,4523801.520,-302.470
768030.597,4523701.520,-307.800
768030.597,4523601.520,-300.850
768030.597,4523501.520,-288.280
768030.597,4523401.520,-274.820
768030.597,4523301.520,-264.180
768030.597,4523201.520,-251.400
768030.597,4523101.520,-233.990
768030.597,4523001.520,-220.230
768030.597,4522901.520,-210.700
768030.597,4522801.520,-205.300
768030.597,4522701.520,-200.670
768030.597,4522601.520,-192.350
768030.597,4522501.520,-179.930
768030.597,4522401.520,-172.010
768030.597,4522301.520,-162.620
768030.597,4522201.520,-158.220
768130.597,4540001.520,-723.780
768130.597,4539901.520,-722.590
768130.597,4539801.520,-721.340
768130.597,4539701.520,-719.930
768130.597,4539601.520,-717.840
768130.597,4539501.520,-716.090
768130.597,4539401.520,-712.510
768130.597,4539301.520,-711.940
768130.597,4539201.520,-710.120
768130.597,4539101.520,-708.650
768130.597,4539001.520,-706.570
768130.597,4538901.520,-705.950
768130.597,4538801.520,-703.310
768130.597,4538701.520,-701.380
768130.597,4538601.520,-700.030
768130.597,4538501.520,-695.460
768130.597,4538401.520,-692.660
768130.597,4538301.520,-690.150
768130.597,4538201.520,-687.600
768130.597,4538101.520,-685.080
768130.597,4538001.520,-683.570
768130.597,4537901.520,-682.040
768130.597,4537801.520,-679.550
768130.597,4537701.520,-676.960
768130.597,4537601.520,-673.710
768130.597,4537501.520,-670.490
768130.597,4537401.520,-667.820
768130.597,4537301.520,-663.630
768130.597,4537201.520,-659.080
768130.597,4537101.520,-654.700
768130.597,4537001.520,-649.830
768130.597,4536901.520,-646.280
768130.597,4536801.520,-642.680
768130.597,4536701.520,-639.130
768130.597,4536601.520,-634.210
768130.597,4536501.520,-630.670
768130.597,4536401.520,-625.640
768130.597,4536301.520,-620.580
768130.597,4536201.520,-616.010
768130.597,4536101.520,-613.300
768130.597,4536001.520,-611.040
768130.597,4535901.520,-608.910
768130.597,4535801.520,-606.870
768130.597,4535701.520,-605.950
768130.597,4535601.520,-602.870
768130.597,4535501.520,-598.840
768130.597,4535401.520,-595.540
768130.597,4535301.520,-593.230
768130.597,4535201.520,-589.530
768130.597,4535101.520,-587.020
768130.597,4535001.520,-582.590
768130.597,4534901.520,-579.610
768130.597,4534801.520,-575.480
768130.597,4534701.520,-570.880
768130.597,4534601.520,-565.950
768130.597,4534501.520,-563.550
768130.597,4534401.520,-556.880
768130.597,4534301.520,-550.540
768130.597,4534201.520,-544.690
768130.597,4534101.520,-538.730
768130.597,4534001.520,-535.860
768130.597,4533901.520,-532.050
768130.597,4533801.520,-529.560
768130.597,4533701.520,-527.110
768130.597,4533601.520,-523.040
768130.597,4533501.520,-518.480
768130.597,4533401.520,-515.440
768130.597,4533301.520,-510.740
768130.597,4533201.520,-506.890
768130.597,4533101.520,-503.050
768130.597,4533001.520,-499.280
768130.597,4532901.520,-496.140
768130.597,4532801.520,-492.370
768130.597,4532701.520,-488.780
768130.597,4532601.520,-484.360
768130.597,4532501.520,-481.550
768130.597,4532401.520,-477.030
768130.597,4532301.520,-472.520
768130.597,4532201.520,-467.970
768130.597,4532101.520,-464.010
768130.597,4532001.520,-458.240
768130.597,4531901.520,-453.280
768130.597,4531801.520,-447.300
768130.597,4531701.520,-440.310
768130.597,4531601.520,-432.280
768130.597,4531501.520,-425.510
768130.597,4531401.520,-419.280
768130.597,4531301.520,-414.640
768130.597,4531201.520,-408.930
768130.597,4531101.520,-405.080
768130.597,4531001.520,-402.230
768130.597,4530901.520,-400.820
768130.597,4530801.520,-399.700
768130.597,4530701.520,-399.300
768130.597,4530601.520,-398.120
768130.597,4530501.520,-396.590
768130.597,4530401.520,-396.340
768130.597,4530301.520,-395.950
768130.597,4530201.520,-396.140
768130.597,4530101.520,-393.500
768130.597,4530001.520,-391.000
768130.597,4529901.520,-390.890
768130.597,4529801.520,-390.240
768130.597,4529701.520,-389.050
768130.597,4529601.520,-389.580
768130.597,4529501.520,-391.760
768130.597,4529401.520,-393.120
768130.597,4529301.520,-394.890
768130.597,4529201.520,-395.170
768130.597,4529101.520,-395.180
768130.597,4529001.520,-394.970
768130.597,4528901.520,-394.050
768130.597,4528801.520,-393.510
768130.597,4528701.520,-392.940
768130.597,4528601.520,-392.510
768130.597,4528501.520,-394.160
768130.597,4528401.520,-393.790
768130.597,4528301.520,-392.370
768130.597,4528201.520,-390.180
768130.597,4528101.520,-388.100
768130.597,4528001.520,-385.500
768130.597,4527901.520,-383.440
768130.597,4527801.520,-381.510
768130.597,4527701.520,-379.510
768130.597,4527601.520,-377.180
768130.597,4527501.520,-374.200
768130.597,4527401.520,-371.310
768130.597,4527301.520,-368.450
768130.597,4527201.520,-366.340
768130.597,4527101.520,-365.710
768130.597,4527001.520,-366.990
768130.597,4526901.520,-368.300
768130.597,4526801.520,-370.050
768130.597,4526701.520,-370.960
768130.597,4526601.520,-372.040
768130.597,4526501.520,-371.280
768130.597,4526401.520,-369.780
768130.597,4526301.520,-365.840
768130.597,4526201.520,-364.380
768130.597,4526101.520,-364.590
768130.597,4526001.520,-366.960
768130.597,4525901.520,-369.190
768130.597,4525801.520,-369.210
768130.597,4525701.520,-368.300
768130.597,4525601.520,-363.140
768130.597,4525501.520,-353.180
768130.597,4525401.520,-349.200
768130.597,4525301.520,-339.850
768130.597,4525201.520,-328.330
768130.597,4525101.520,-325.530
768130.597,4525001.520,-328.590
768130.597,4524901.520,-334.580
768130.597,4524801.520,-338.180
768130.597,4524701.520,-342.610
768130.597,4524601.520,-346.650
768130.597,4524501.520,-361.030
768130.597,4524401.520,-366.570
768130.597,4524301.520,-356.890
768130.597,4524201.520,-348.070
768130.597,4524101.520,-343.860
768130.597,4524001.520,-333.090
768130.597,4523901.520,-319.350
768130.597,4523801.520,-316.550
768130.597,4523701.520,-318.020
768130.597,4523601.520,-309.010
768130.597,4523501.520,-296.000
768130.597,4523401.520,-284.500
768130.597,4523301.520,-272.480
768130.597,4523201.520,-257.920
768130.597,4523101.520,-239.400
768130.597,4523001.520,-227.810
768130.597,4522901.520,-217.510
768130.597,4522801.520,-210.730
768130.597,4522701.520,-202.630
768130.597,4522601.520,-195.950
768130.597,4522501.520,-185.160
768130.597,4522401.520,-175.880
768130.597,4522301.520,-166.650
768130.597,4522201.520,-162.020
768130.597,4522101.520,-155.820
768230.597,4540001.520,-725.530
768230.597,4539901.520,-724.220
768230.597,4539801.520,-722.850
768230.597,4539701.520,-720.730
768230.597,4539601.520,-719.050
768230.597,4539501.520,-717.240
768230.597,4539401.520,-714.890
768230.597,4539301.520,-713.610
768230.597,4539201.520,-711.340
768230.597,4539101.520,-710.260
768230.597,4539001.520,-708.110
768230.597,4538901.520,-706.450
768230.597,4538801.520,-703.540
768230.597,4538701.520,-700.230
768230.597,4538601.520,-699.310
768230.597,4538501.520,-696.800
768230.597,4538401.520,-694.120
768230.597,4538301.520,-691.070
768230.597,4538201.520,-688.560
768230.597,4538101.520,-686.580
768230.597,4538001.520,-684.410
768230.597,4537901.520,-682.910
768230.597,4537801.520,-680.030
768230.597,4537701.520,-677.950
768230.597,4537601.520,-675.020
768230.597,4537501.520,-672.710
768230.597,4537401.520,-669.670
768230.597,4537301.520,-665.900
768230.597,4537201.520,-661.150
768230.597,4537101.520,-655.950
768230.597,4537001.520,-651.270
768230.597,4536901.520,-648.260
768230.597,4536801.520,-644.630
768230.597,4536701.520,-640.980
768230.597,4536601.520,-636.130
768230.597,4536501.520,-631.800
768230.597,4536401.520,-628.360
768230.597,4536301.520,-623.050
768230.597,4536201.520,-619.290
768230.597,4536101.520,-616.780
768230.597,4536001.520,-613.310
768230.597,4535901.520,-611.550
768230.597,4535801.520,-610.190
768230.597,4535701.520,-607.850
768230.597,4535601.520,-604.130
768230.597,4535501.520,-601.720
768230.597,4535401.520,-597.960
768230.597,4535301.520,-595.240
768230.597,4535201.520,-592.970
768230.597,4535101.520,-589.570
768230.597,4535001.520,-587.600
768230.597,4534901.520,-584.030
768230.597,4534801.520,-579.540
768230.597,4534701.520,-573.600
768230.597,4534601.520,-567.600
768230.597,4534501.520,-563.370
768230.597,4534401.520,-560.070
768230.597,4534301.520,-555.400
768230.597,4534201.520,-551.150
768230.597,4534101.520,-546.280
768230.597,4534001.520,-542.020
768230.597,4533901.520,-539.730
768230.597,4533801.520,-538.070
768230.597,4533701.520,-535.660
768230.597,4533601.520,-530.370
768230.597,4533501.520,-525.970
768230.597,4533401.520,-521.940
768230.597,4533301.520,-518.030
768230.597,4533201.520,-513.240
768230.597,4533101.520,-510.410
768230.597,4533001.520,-506.510
768230.597,4532901.520,-502.880
768230.597,4532801.520,-499.080
768230.597,4532701.520,-495.840
768230.597,4532601.520,-492.810
768230.597,4532501.520,-488.250
768230.597,4532401.520,-483.530
768230.597,4532301.520,-480.010
768230.597,4532201.520,-475.700
768230.597,4532101.520,-471.340
768230.597,4532001.520,-465.930
768230.597,4531901.520,-461.010
768230.597,4531801.520,-454.620
768230.597,4531701.520,-448.580
768230.597,4531601.520,-441.580
768230.597,4531501.520,-433.510
768230.597,4531401.520,-426.870
768230.597,4531301.520,-421.020
768230.597,4531201.520,-415.820
768230.597,4531101.520,-411.800
768230.597,4531001.520,-408.680
768230.597,4530901.520,-406.740
768230.597,4530801.520,-405.110
768230.597,4530701.520,-404.680
768230.597,4530601.520,-403.670
768230.597,4530501.520,-401.430
768230.597,4530401.520,-401.170
768230.597,4530301.520,-400.770
768230.597,4530201.520,-399.310
768230.597,4530101.520,-396.810
768230.597,4530001.520,-394.670
768230.597,4529901.520,-393.830
768230.597,4529801.520,-394.070
768230.597,4529701.520,-394.100
768230.597,4529601.520,-394.800
768230.597,4529501.520,-395.230
768230.597,4529401.520,-397.610
768230.597,4529301.520,-399.000
768230.597,4529201.520,-399.010
768230.597,4529101.520,-398.310
768230.597,4529001.520,-397.500
768230.597,4528901.520,-396.420
768230.597,4528801.520,-395.630
768230.597,4528701.520,-395.450
768230.597,4528601.520,-395.310
768230.597,4528501.520,-396.190
768230.597,4528401.520,-396.140
768230.597,4528301.520,-395.500
768230.597,4528201.520,-394.340
768230.597,4528101.520,-392.230
768230.597,4528001.520,-390.020
768230.597,4527901.520,-388.410
768230.597,4527801.520,-386.550
768230.597,4527701.520,-384.140
768230.597,4527601.520,-381.760
768230.597,4527501.520,-379.390
768230.597,4527401.520,-376.950
768230.597,4527301.520,-374.790
768230.597,4527201.520,-373.510
768230.597,4527101.520,-373.600
768230.597,4527001.520,-375.520
768230.597,4526901.520,-376.200
768230.597,4526801.520,-378.750
768230.597,4526701.520,-380.590
768230.597,4526601.520,-381.360
768230.597,4526501.520,-382.490
768230.597,4526401.520,-382.740
768230.597,4526301.520,-380.770
768230.597,4526201.520,-379.950
768230.597,4526101.520,-382.530
768230.597,4526001.520,-384.100
768230.597,4525901.520,-388.450
768230.597,4525801.520,-388.350
768230.597,4525701.520,-388.960
768230.597,4525601.520,-382.610
768230.597,4525501.520,-374.950
768230.597,4525401.520,-370.980
768230.597,4525301.520,-368.250
768230.597,4525201.520,-359.600
768230.597,4525101.520,-342.120
768230.597,4525001.520,-342.320
768230.597,4524901.520,-344.050
768230.597,4524801.520,-349.000
768230.597,4524701.520,-355.160
768230.597,4524601.520,-358.550
768230.597,4524501.520,-363.040
768230.597,4524401.520,-370.680
768230.597,4524301.520,-369.400
768230.597,4524201.520,-360.930
768230.597,4524101.520,-351.880
768230.597,4524001.520,-346.580
768230.597,4523901.520,-337.850
768230.597,4523801.520,-332.380
768230.597,4523701.520,-328.560
768230.597,4523601.520,-313.850
768230.597,4523501.520,-299.470
768230.597,4523401.520,-289.780
768230.597,4523301.520,-275.680
768230.597,4523201.520,-263.080
768230.597,4523101.520,-242.990
768230.597,4523001.520,-228.600
768230.597,4522901.520,-216.680
768230.597,4522801.520,-209.050
768230.597,4522701.520,-201.660
768230.597,4522601.520,-195.380
768230.597,4522501.520,-187.790
768230.597,4522401.520,-177.610
768230.597,4522301.520,-169.860
768230.597,4522201.520,-162.660
768230.597,4522101.520,-160.490
768230.597,4522001.520,-155.390
768330.597,4540001.520,-726.750
768330.597,4539901.520,-725.460
768330.597,4539801.520,-723.780
768330.597,4539701.520,-722.330
768330.597,4539601.520,-720.270
768330.597,4539501.520,-719.080
768330.597,4539401.520,-715.990
768330.597,4539301.520,-714.990
768330.597,4539201.520,-713.180
768330.597,4539101.520,-709.900
768330.597,4539001.520,-710.230
768330.597,4538901.520,-706.520
768330.597,4538801.520,-704.710
768330.597,4538701.520,-701.920
768330.597,4538601.520,-699.060
768330.597,4538501.520,-698.420
768330.597,4538401.520,-695.020
768330.597,4538301.520,-692.900
768330.597,4538201.520,-689.940
768330.597,4538101.520,-687.210
768330.597,4538001.520,-685.390
768330.597,4537901.520,-682.850
768330.597,4537801.520,-681.050
768330.597,4537701.520,-678.840
768330.597,4537601.520,-677.470
768330.597,4537501.520,-674.930
768330.597,4537401.520,-670.610
768330.597,4537301.520,-666.340
768330.597,4537201.520,-662.280
768330.597,4537101.520,-656.480
768330.597,4537001.520,-653.300
768330.597,4536901.520,-649.050
768330.597,4536801.520,-645.320
768330.597,4536701.520,-641.820
768330.597,4536601.520,-637.490
768330.597,4536501.520,-632.670
768330.597,4536401.520,-629.930
768330.597,4536301.520,-625.550
768330.597,4536201.520,-622.370
768330.597,4536101.520,-619.090
768330.597,4536001.520,-615.630
768330.597,4535901.520,-614.140
768330.597,4535801.520,-611.480
768330.597,4535701.520,-608.450
768330.597,4535601.520,-606.770
768330.597,4535501.520,-604.240
768330.597,4535401.520,-601.600
768330.597,4535301.520,-598.280
768330.597,4535201.520,-595.890
768330.597,4535101.520,-593.520
768330.597,4535001.520,-589.920
768330.597,4534901.520,-586.040
768330.597,4534801.520,-581.520
768330.597,4534701.520,-575.320
768330.597,4534601.520,-572.180
768330.597,4534501.520,-569.100
768330.597,4534401.520,-564.660
768330.597,4534301.520,-561.180
768330.597,4534201.520,-557.080
768330.597,4534101.520,-552.470
768330.597,4534001.520,-548.340
768330.597,4533901.520,-546.740
768330.597,4533801.520,-546.000
768330.597,4533701.520,-543.550
768330.597,4533601.520,-537.500
768330.597,4533501.520,-532.660
768330.597,4533401.520,-528.300
768330.597,4533301.520,-525.110
768330.597,4533201.520,-521.200
768330.597,4533101.520,-517.220
768330.597,4533001.520,-513.220
768330.597,4532901.520,-509.390
768330.597,4532801.520,-505.940
768330.597,4532701.520,-502.440
768330.597,4532601.520,-499.380
768330.597,4532501.520,-494.890
768330.597,4532401.520,-490.540
768330.597,4532301.520,-486.730
768330.597,4532201.520,-482.200
768330.597,4532101.520,-477.200
768330.597,4532001.520,-472.570
768330.597,4531901.520,-467.200
768330.597,4531801.520,-462.810
768330.597,4531701.520,-456.840
768330.597,4531601.520,-450.440
768330.597,4531501.520,-443.300
768330.597,4531401.520,-435.820
768330.597,4531301.520,-428.780
768330.597,4531201.520,-423.180
768330.597,4531101.520,-418.980
768330.597,4531001.520,-415.260
768330.597,4530901.520,-412.470
768330.597,4530801.520,-411.320
768330.597,4530701.520,-409.830
768330.597,4530601.520,-409.180
768330.597,4530501.520,-408.310
768330.597,4530401.520,-407.290
768330.597,4530301.520,-406.100
768330.597,4530201.520,-404.090
768330.597,4530101.520,-401.880
768330.597,4530001.520,-398.930
768330.597,4529901.520,-397.370
768330.597,4529801.520,-398.270
768330.597,4529701.520,-398.830
768330.597,4529601.520,-399.250
768330.597,4529501.520,-400.020
768330.597,4529401.520,-401.980
768330.597,4529301.520,-402.820
768330.597,4529201.520,-402.180
768330.597,4529101.520,-401.580
768330.597,4529001.520,-400.300
768330.597,4528901.520,-399.570
768330.597,4528801.520,-398.810
768330.597,4528701.520,-398.100
768330.597,4528601.520,-397.700
768330.597,4528501.520,-397.820
768330.597,4528401.520,-400.140
768330.597,4528301.520,-399.690
768330.597,4528201.520,-398.940
768330.597,4528101.520,-396.870
768330.597,4528001.520,-394.490
768330.597,4527901.520,-392.960
768330.597,4527801.520,-391.260
768330.597,4527701.520,-389.600
768330.597,4527601.520,-387.060
768330.597,4527501.520,-385.070
768330.597,4527401.520,-383.200
768330.597,4527301.520,-381.410
768330.597,4527201.520,-381.870
768330.597,4527101.520,-382.650
768330.597,4527001.520,-383.830
768330.597,4526901.520,-385.720
768330.597,4526801.520,-387.760
768330.597,4526701.520,-389.240
768330.597,4526601.520,-391.100
768330.597,4526501.520,-392.630
768330.597,4526401.520,-395.060
768330.597,4526301.520,-396.950
768330.597,4526201.520,-398.310
768330.597,4526101.520,-403.260
768330.597,4526001.520,-403.860
768330.597,4525901.520,-405.590
768330.597,4525801.520,-405.720
768330.597,4525701.520,-403.210
768330.597,4525601.520,-396.520
768330.597,4525501.520,-390.170
768330.597,4525401.520,-392.130
768330.597,4525301.520,-390.150
768330.597,4525201.520,-385.000
768330.597,4525101.520,-370.130
768330.597,4525001.520,-361.120
768330.597,4524901.520,-363.690
768330.597,4524801.520,-361.350
768330.597,4524701.520,-369.460
768330.597,4524601.520,-374.560
768330.597,4524501.520,-370.930
768330.597,4524401.520,-373.150
768330.597,4524301.520,-371.800
768330.597,4524201.520,-369.170
768330.597,4524101.520,-359.300
768330.597,4524001.520,-352.300
768330.597,4523901.520,-348.520
768330.597,4523801.520,-342.070
768330.597,4523701.520,-335.370
768330.597,4523601.520,-313.010
768330.597,4523501.520,-298.670
768330.597,4523401.520,-291.010
768330.597,4523301.520,-280.910
768330.597,4523201.520,-268.890
768330.597,4523101.520,-248.090
768330.597,4523001.520,-228.380
768330.597,4522901.520,-213.910
768330.597,4522801.520,-206.010
768330.597,4522701.520,-199.040
768330.597,4522601.520,-194.260
768330.597,4522501.520,-187.720
768330.597,4522401.520,-179.730
768330.597,4522301.520,-170.250
768330.597,4522201.520,-163.790
768330.597,4522101.520,-160.010
768330.597,4522001.520,-158.560
768330.597,4521901.520,-153.530
768430.597,4540001.520,-726.960
768430.597,4539901.520,-725.740
768430.597,4539801.520,-724.360
768430.597,4539701.520,-722.730
768430.597,4539601.520,-721.000
768430.597,4539501.520,-719.040
768430.597,4539401.520,-717.220
768430.597,4539301.520,-715.310
768430.597,4539201.520,-713.850
768430.597,4539101.520,-712.590
768430.597,4539001.520,-710.260
768430.597,4538901.520,-707.500
768430.597,4538801.520,-705.200
768430.597,4538701.520,-702.570
768430.597,4538601.520,-699.910
768430.597,4538501.520,-697.410
768430.597,4538401.520,-695.540
768430.597,4538301.520,-692.410
768430.597,4538201.520,-689.840
768430.597,4538101.520,-688.180
768430.597,4538001.520,-686.330
768430.597,4537901.520,-684.790
768430.597,4537801.520,-681.880
768430.597,4537701.520,-680.450
768430.597,4537601.520,-676.410
768430.597,4537501.520,-673.490
768430.597,4537401.520,-669.920
768430.597,4537301.520,-665.880
768430.597,4537201.520,-662.770
768430.597,4537101.520,-658.340
768430.597,4537001.520,-654.090
768430.597,4536901.520,-650.450
768430.597,4536801.520,-645.720
768430.597,4536701.520,-642.130
768430.597,4536601.520,-637.090
768430.597,4536501.520,-634.570
768430.597,4536401.520,-629.400
768430.597,4536301.520,-626.650
768430.597,4536201.520,-623.380
768430.597,4536101.520,-620.380
768430.597,4536001.520,-618.090
768430.597,4535901.520,-615.150
768430.597,4535801.520,-611.470
768430.597,4535701.520,-610.420
768430.597,4535601.520,-608.760
768430.597,4535501.520,-606.610
768430.597,4535401.520,-603.990
768430.597,4535301.520,-601.190
768430.597,4535201.520,-598.110
768430.597,4535101.520,-595.480
768430.597,4535001.520,-591.860
768430.597,4534901.520,-587.610
768430.597,4534801.520,-582.610
768430.597,4534701.520,-579.950
768430.597,4534601.520,-576.650
768430.597,4534501.520,-574.240
768430.597,4534401.520,-570.590
768430.597,4534301.520,-567.160
768430.597,4534201.520,-563.690
768430.597,4534101.520,-558.880
768430.597,4534001.520,-556.040
768430.597,4533901.520,-555.240
768430.597,4533801.520,-552.960
768430.597,4533701.520,-549.070
768430.597,4533601.520,-543.840
768430.597,4533501.520,-539.230
768430.597,4533401.520,-536.160
