334654.676,4288306.880,-853.269 
334654.676,4288206.880,-877.896 
334654.676,4287606.880,-875.118 
334654.676,4287506.880,-845.811 
334654.676,4287406.880,-821.584 
334654.676,4287306.880,-800.785 
334654.676,4287206.880,-782.265 
334654.676,4287106.880,-766.739 
334654.676,4287006.880,-752.746 
334654.676,4286906.880,-738.449 
334654.676,4286806.880,-729.31 
334654.676,4286706.880,-719.56 
334654.676,4286606.880,-703.981 
334654.676,4286506.880,-673.555 
334654.676,4286406.880,-644.839 
334654.676,4286306.880,-625.673 
334654.676,4286206.880,-605.381 
334654.676,4286106.880,-574.533 
334654.676,4286006.880,-545.628 
334654.676,4285906.880,-529.991 
334654.676,4285806.880,-509.265 
334654.676,4285706.880,-497.296 
334654.676,4285606.880,-490.354 
334654.676,4285506.880,-485.281 
334654.676,4285406.880,-481.147 
334654.676,4285306.880,-476.498 
334654.676,4285206.880,-479.651 
334654.676,4285106.880,-486.624 
334654.676,4285006.880,-488.822 
334654.676,4284906.880,-506.65 
334654.676,4284806.880,-517.701 
334654.676,4284706.880,-528.937 
334654.676,4284606.880,-525.821 
334654.676,4284506.880,-545.343 
334654.676,4284406.880,-529.771 
334654.676,4284306.880,-541.177 
334654.676,4284206.880,-549.515 
334654.676,4284106.880,-579.767 
334654.676,4284006.880,-588.902 
334654.676,4283906.880,-607.553 
334654.676,4283806.880,-634.275 
334654.676,4283706.880,-635.694 
334654.676,4283606.880,-635.485 
334654.676,4283506.880,-599.302 
334654.676,4283406.880,-605.406 
334654.676,4283306.880,-614.677 
334654.676,4283206.880,-633.212 
334654.676,4283106.880,-651.073 
334654.676,4283006.880,-674.856 
334654.676,4282906.880,-692.159 
334654.676,4282806.880,-695.144 
334654.676,4282706.880,-684.071 
334654.676,4282606.880,-627.461 
334654.676,4282506.880,-577.713 
334654.676,4282406.880,-721.856 
334654.676,4282306.880,-813.243 
334654.676,4282206.880,-885.953 
334754.676,4287706.880,-889.85 
334754.676,4287606.880,-859.448 
334754.676,4287506.880,-832.223 
334754.676,4287406.880,-806.363 
334754.676,4287306.880,-782.781 
334754.676,4287206.880,-763.336 
334754.676,4287106.880,-745.894 
334754.676,4287006.880,-731.943 
334754.676,4286906.880,-718.326 
334754.676,4286806.880,-710.725 
334754.676,4286706.880,-699.99 
334754.676,4286606.880,-676.592 
334754.676,4286506.880,-650.837 
334754.676,4286406.880,-621.708 
334754.676,4286306.880,-604.698 
334754.676,4286206.880,-591.876 
334754.676,4286106.880,-562.459 
334754.676,4286006.880,-535.123 
334754.676,4285906.880,-514.505 
334754.676,4285806.880,-492.672 
334754.676,4285706.880,-476.329 
334754.676,4285606.880,-472.325 
334754.676,4285506.880,-471.018 
334754.676,4285406.880,-464.204 
334754.676,4285306.880,-460.895 
334754.676,4285206.880,-470.292 
334754.676,4285106.880,-472.986 
334754.676,4285006.880,-479.999 
334754.676,4284906.880,-494.605 
334754.676,4284806.880,-518.674 
334754.676,4284706.880,-539.828 
334754.676,4284606.880,-545.321 
334754.676,4284506.880,-551.507 
334754.676,4284406.880,-545.557 
334754.676,4284306.880,-545.924 
334754.676,4284206.880,-568.289 
334754.676,4284106.880,-576.259 
334754.676,4284006.880,-573.303 
334754.676,4283906.880,-597.262 
334754.676,4283806.880,-625.578 
334754.676,4283706.880,-635.389 
334754.676,4283606.880,-633.249 
334754.676,4283506.880,-597.015 
334754.676,4283406.880,-598.078 
334754.676,4283306.880,-614.354 
334754.676,4283206.880,-628.58 
334754.676,4283106.880,-648.323 
334754.676,4283006.880,-666.649 
334754.676,4282906.880,-683.124 
334754.676,4282806.880,-681.261 
334754.676,4282706.880,-645.771 
334754.676,4282606.880,-619.531 
334754.676,4282506.880,-604.079 
334754.676,4282406.880,-718.787 
334754.676,4282306.880,-832.359 
334754.676,4282206.880,-894.941 
334854.676,4287706.880,-873.594 
334854.676,4287606.880,-845.88 
334854.676,4287506.880,-822.841 
334854.676,4287406.880,-794.384 
334854.676,4287306.880,-767.203 
334854.676,4287206.880,-743.513 
334854.676,4287106.880,-723.739 
334854.676,4287006.880,-708.855 
334854.676,4286906.880,-697.342 
334854.676,4286806.880,-687.819 
334854.676,4286706.880,-680.597 
334854.676,4286606.880,-651.694 
334854.676,4286506.880,-627.174 
334854.676,4286406.880,-604.949 
334854.676,4286306.880,-585.813 
334854.676,4286206.880,-571.63 
334854.676,4286106.880,-545.16 
334854.676,4286006.880,-519.896 
334854.676,4285906.880,-499.792 
334854.676,4285806.880,-479.319 
334854.676,4285706.880,-460.53 
334854.676,4285606.880,-455.709 
334854.676,4285506.880,-457.136 
334854.676,4285406.880,-453.164 
334854.676,4285306.880,-449.269 
334854.676,4285206.880,-449.723 
334854.676,4285106.880,-460.223 
334854.676,4285006.880,-473.331 
334854.676,4284906.880,-487.304 
334854.676,4284806.880,-509.643 
334854.676,4284706.880,-537.942 
334854.676,4284606.880,-547.224 
334854.676,4284506.880,-549.971 
334854.676,4284406.880,-549.821 
334854.676,4284306.880,-544.076 
334854.676,4284206.880,-549.059 
334854.676,4284106.880,-529.62 
334854.676,4284006.880,-556.671 
334854.676,4283906.880,-584.014 
334854.676,4283806.880,-600.602 
334854.676,4283706.880,-624.941 
334854.676,4283606.880,-626.155 
334854.676,4283506.880,-603.746 
334854.676,4283406.880,-591.58 
334854.676,4283306.880,-604.741 
334854.676,4283206.880,-622.772 
334854.676,4283106.880,-644.862 
334854.676,4283006.880,-663.274 
334854.676,4282906.880,-675.19 
334854.676,4282806.880,-676.261 
334854.676,4282706.880,-653.16 
334854.676,4282606.880,-580.492 
334854.676,4282506.880,-784.378 
334854.676,4282406.880,-837.475 
334854.676,4282306.880,-878.358 
334954.676,4287906.880,-897.87 
334954.676,4287806.880,-862.049 
334954.676,4287706.880,-845.527 
334954.676,4287606.880,-831.652 
334954.676,4287506.880,-810.634 
334954.676,4287406.880,-784.382 
334954.676,4287306.880,-757.795 
334954.676,4287206.880,-722.643 
334954.676,4287106.880,-704.271 
334954.676,4287006.880,-687.639 
334954.676,4286906.880,-674.855 
334954.676,4286806.880,-664.424 
334954.676,4286706.880,-654.371 
334954.676,4286606.880,-631.159 
334954.676,4286506.880,-606.708 
334954.676,4286406.880,-583.49 
334954.676,4286306.880,-565.699 
334954.676,4286206.880,-547.789 
334954.676,4286106.880,-523.407 
334954.676,4286006.880,-500.764 
334954.676,4285906.880,-481.536 
334954.676,4285806.880,-464.255 
334954.676,4285706.880,-451.782 
334954.676,4285606.880,-443.948 
334954.676,4285506.880,-448.007 
334954.676,4285406.880,-444.696 
334954.676,4285306.880,-437.671 
334954.676,4285206.880,-448.287 
334954.676,4285106.880,-456.253 
334954.676,4285006.880,-466.225 
334954.676,4284906.880,-475.289 
334954.676,4284806.880,-496.124 
334954.676,4284706.880,-520.153 
334954.676,4284606.880,-540.383 
334954.676,4284506.880,-541.867 
334954.676,4284406.880,-538.514 
334954.676,4284306.880,-543.999 
334954.676,4284206.880,-503.473 
334954.676,4284106.880,-505.923 
334954.676,4284006.880,-524.131 
334954.676,4283906.880,-563.558 
334954.676,4283806.880,-594.899 
334954.676,4283706.880,-608.413 
334954.676,4283606.880,-618.954 
334954.676,4283506.880,-591.009 
334954.676,4283406.880,-586.928 
334954.676,4283306.880,-602.15 
334954.676,4283206.880,-619.74 
334954.676,4283106.880,-640.055 
334954.676,4283006.880,-651.046 
334954.676,4282906.880,-664.232 
334954.676,4282806.880,-668.003 
334954.676,4282706.880,-628.557 
334954.676,4282606.880,-614.399 
334954.676,4282506.880,-819.995 
334954.676,4282406.880,-862.312 
335054.676,4287906.880,-858.565 
335054.676,4287806.880,-812.288 
335054.676,4287706.880,-803.254 
335054.676,4287606.880,-801.133 
335054.676,4287506.880,-787.896 
335054.676,4287406.880,-765.321 
335054.676,4287306.880,-746.329 
335054.676,4287206.880,-706.812 
335054.676,4287106.880,-686.19 
335054.676,4287006.880,-668.447 
335054.676,4286906.880,-654.449 
335054.676,4286806.880,-641.007 
335054.676,4286706.880,-619.525 
335054.676,4286606.880,-593.562 
335054.676,4286506.880,-580.643 
335054.676,4286406.880,-562.815 
335054.676,4286306.880,-543.568 
335054.676,4286206.880,-528.182 
335054.676,4286106.880,-506.498 
335054.676,4286006.880,-481.591 
335054.676,4285906.880,-461.993 
335054.676,4285806.880,-448.989 
335054.676,4285706.880,-439.441 
335054.676,4285606.880,-440.653 
335054.676,4285506.880,-439.848 
335054.676,4285406.880,-435.607 
335054.676,4285306.880,-431.671 
335054.676,4285206.880,-441.717 
335054.676,4285106.880,-445.739 
335054.676,4285006.880,-457.523 
335054.676,4284906.880,-467.487 
335054.676,4284806.880,-486.903 
335054.676,4284706.880,-504.619 
335054.676,4284606.880,-512.435 
335054.676,4284506.880,-520.99 
335054.676,4284406.880,-530.034 
335054.676,4284306.880,-527.014 
335054.676,4284206.880,-499.82 
335054.676,4284106.880,-501.402 
335054.676,4284006.880,-512.924 
335054.676,4283906.880,-532.291 
335054.676,4283806.880,-566.208 
335054.676,4283706.880,-596.794 
335054.676,4283606.880,-608.201 
335054.676,4283506.880,-585.59 
335054.676,4283406.880,-585.114 
335054.676,4283306.880,-600.278 
335054.676,4283206.880,-618.972 
335054.676,4283106.880,-633.537 
335054.676,4283006.880,-644.589 
335054.676,4282906.880,-657.07 
335054.676,4282806.880,-663.731 
335054.676,4282706.880,-599.144 
335054.676,4282606.880,-680.52 
335054.676,4282506.880,-825.196 
335054.676,4282406.880,-879.972 
335154.676,4288006.880,-861.531 
335154.676,4287906.880,-808.184 
335154.676,4287806.880,-764.654 
335154.676,4287706.880,-765.239 
335154.676,4287606.880,-763.961 
335154.676,4287506.880,-756.707 
335154.676,4287406.880,-739.717 
335154.676,4287306.880,-726.894 
335154.676,4287206.880,-694.846 
335154.676,4287106.880,-666.367 
335154.676,4287006.880,-651.437 
335154.676,4286906.880,-629.365 
335154.676,4286806.880,-614.594 
335154.676,4286706.880,-591.775 
335154.676,4286606.880,-567.348 
335154.676,4286506.880,-557.333 
335154.676,4286406.880,-541.024 
335154.676,4286306.880,-520.938 
335154.676,4286206.880,-505.97 
335154.676,4286106.880,-491.126 
335154.676,4286006.880,-467.663 
335154.676,4285906.880,-445.42 
335154.676,4285806.880,-432.427 
335154.676,4285706.880,-425.398 
335154.676,4285606.880,-430.004 
335154.676,4285506.880,-432.402 
335154.676,4285406.880,-427.775 
335154.676,4285306.880,-423.532 
335154.676,4285206.880,-427.553 
335154.676,4285106.880,-436.853 
335154.676,4285006.880,-446.337 
335154.676,4284906.880,-458.882 
335154.676,4284806.880,-472.719 
335154.676,4284706.880,-486.555 
335154.676,4284606.880,-493.897 
335154.676,4284506.880,-507.168 
335154.676,4284406.880,-513.95 
335154.676,4284306.880,-502.933 
335154.676,4284206.880,-503.81 
335154.676,4284106.880,-501.119 
335154.676,4284006.880,-507.851 
335154.676,4283906.880,-521.974 
335154.676,4283806.880,-562.589 
335154.676,4283706.880,-595.565 
335154.676,4283606.880,-602.888 
335154.676,4283506.880,-596.626 
335154.676,4283406.880,-583.261 
335154.676,4283306.880,-597.279 
335154.676,4283206.880,-613.912 
335154.676,4283106.880,-630.204 
335154.676,4283006.880,-637.327 
335154.676,4282906.880,-647.917 
335154.676,4282806.880,-649.864 
335154.676,4282706.880,-616.743 
335154.676,4282606.880,-758.85 
335154.676,4282506.880,-836.186 
335154.676,4282406.880,-895.169 
335254.676,4288106.880,-869.907 
335254.676,4288006.880,-816.076 
335254.676,4287906.880,-758.18 
335254.676,4287806.880,-719.445 
335254.676,4287706.880,-711.052 
335254.676,4287606.880,-729.041 
335254.676,4287506.880,-722.815 
335254.676,4287406.880,-703.947 
335254.676,4287306.880,-701.08 
335254.676,4287206.880,-684.926 
335254.676,4287106.880,-653.283 
335254.676,4287006.880,-628.453 
335254.676,4286906.880,-608.084 
335254.676,4286806.880,-590.778 
335254.676,4286706.880,-573.215 
335254.676,4286606.880,-553.854 
335254.676,4286506.880,-539.244 
335254.676,4286406.880,-521.624 
335254.676,4286306.880,-502.736 
335254.676,4286206.880,-488.979 
335254.676,4286106.880,-480.316 
335254.676,4286006.880,-448.56 
335254.676,4285906.880,-423.446 
335254.676,4285806.880,-413.207 
335254.676,4285706.880,-407.811 
335254.676,4285606.880,-420.051 
335254.676,4285506.880,-423.081 
335254.676,4285406.880,-419.31 
335254.676,4285306.880,-412.933 
335254.676,4285206.880,-418.228 
335254.676,4285106.880,-430.087 
335254.676,4285006.880,-437.265 
335254.676,4284906.880,-456.956 
335254.676,4284806.880,-468.815 
335254.676,4284706.880,-479.883 
335254.676,4284606.880,-490.83 
335254.676,4284506.880,-486.585 
335254.676,4284406.880,-495.55 
335254.676,4284306.880,-483.09 
335254.676,4284206.880,-503.254 
335254.676,4284106.880,-502.854 
335254.676,4284006.880,-504.856 
335254.676,4283906.880,-520.354 
335254.676,4283806.880,-569.215 
335254.676,4283706.880,-594.153 
335254.676,4283606.880,-596.786 
335254.676,4283506.880,-596.733 
335254.676,4283406.880,-586.663 
335254.676,4283306.880,-594.225 
335254.676,4283206.880,-608.161 
335254.676,4283106.880,-623.506 
335254.676,4283006.880,-628.118 
335254.676,4282906.880,-638.493 
335254.676,4282806.880,-633.098 
335254.676,4282706.880,-654.224 
335254.676,4282606.880,-778.788 
335254.676,4282506.880,-849.382 
335254.676,4282406.880,-892.636 
335354.676,4288606.880,-898.972 
335354.676,4288506.880,-883.267 
335354.676,4288406.880,-881.59 
335354.676,4288306.880,-883.999 
335354.676,4288206.880,-881.788 
335354.676,4288106.880,-836.982 
335354.676,4288006.880,-787.009 
335354.676,4287906.880,-730.036 
335354.676,4287806.880,-681.55 
335354.676,4287706.880,-658.286 
335354.676,4287606.880,-680.893 
335354.676,4287506.880,-683.666 
335354.676,4287406.880,-670.027 
335354.676,4287306.880,-667.26 
335354.676,4287206.880,-661.096 
335354.676,4287106.880,-645.987 
335354.676,4287006.880,-614.758 
335354.676,4286906.880,-587.919 
335354.676,4286806.880,-566.712 
335354.676,4286706.880,-549.142 
335354.676,4286606.880,-537.315 
335354.676,4286506.880,-526.549 
335354.676,4286406.880,-502.927 
335354.676,4286306.880,-483.357 
335354.676,4286206.880,-470.15 
335354.676,4286106.880,-460.538 
335354.676,4286006.880,-438.936 
335354.676,4285906.880,-418.874 
335354.676,4285806.880,-409.338 
335354.676,4285706.880,-411.541 
335354.676,4285606.880,-414.34 
335354.676,4285506.880,-413.737 
335354.676,4285406.880,-409.535 
335354.676,4285306.880,-406.629 
335354.676,4285206.880,-410.552 
335354.676,4285106.880,-421.35 
335354.676,4285006.880,-436.914 
335354.676,4284906.880,-457.388 
335354.676,4284806.880,-465.628 
335354.676,4284706.880,-467.045 
335354.676,4284606.880,-463.156 
335354.676,4284506.880,-477.9 
335354.676,4284406.880,-465.895 
335354.676,4284306.880,-480.89 
335354.676,4284206.880,-500.933 
335354.676,4284106.880,-502.578 
335354.676,4284006.880,-508.365 
335354.676,4283906.880,-529.351 
335354.676,4283806.880,-564.315 
335354.676,4283706.880,-578.715 
335354.676,4283606.880,-584.599 
335354.676,4283506.880,-587.294 
335354.676,4283406.880,-583.269 
335354.676,4283306.880,-589.853 
335354.676,4283206.880,-601.86 
335354.676,4283106.880,-615.622 
335354.676,4283006.880,-620.535 
335354.676,4282906.880,-630.368 
335354.676,4282806.880,-637.362 
335354.676,4282706.880,-706.719 
335354.676,4282606.880,-775.721 
335354.676,4282506.880,-826.21 
335354.676,4282406.880,-867.673 
335454.676,4288706.880,-898.639 
335454.676,4288606.880,-883.421 
335454.676,4288506.880,-872.427 
335454.676,4288406.880,-867.339 
335454.676,4288306.880,-870.3 
335454.676,4288206.880,-862.676 
335454.676,4288106.880,-835.697 
335454.676,4288006.880,-774.096 
335454.676,4287906.880,-722.749 
335454.676,4287806.880,-681.108 
335454.676,4287706.880,-624.737 
335454.676,4287606.880,-610.064 
335454.676,4287506.880,-635.591 
335454.676,4287406.880,-641.745 
335454.676,4287306.880,-644.115 
335454.676,4287206.880,-644.328 
335454.676,4287106.880,-631.997 
335454.676,4287006.880,-604.032 
335454.676,4286906.880,-570.467 
335454.676,4286806.880,-544.478 
335454.676,4286706.880,-524.446 
335454.676,4286606.880,-514.517 
335454.676,4286506.880,-499.562 
335454.676,4286406.880,-475.775 
335454.676,4286306.880,-457.204 
335454.676,4286206.880,-443.856 
335454.676,4286106.880,-434.071 
335454.676,4286006.880,-416.458 
335454.676,4285906.880,-401.929 
335454.676,4285806.880,-399.593 
335454.676,4285706.880,-401.473 
335454.676,4285606.880,-402.548 
335454.676,4285506.880,-399.705 
335454.676,4285406.880,-395.909 
335454.676,4285306.880,-394.417 
335454.676,4285206.880,-400.922 
335454.676,4285106.880,-415.591 
335454.676,4285006.880,-432.109 
335454.676,4284906.880,-443.955 
335454.676,4284806.880,-453.003 
335454.676,4284706.880,-446.778 
335454.676,4284606.880,-453.43 
335454.676,4284506.880,-458.363 
335454.676,4284406.880,-427.985 
335454.676,4284306.880,-480.556 
335454.676,4284206.880,-498.786 
335454.676,4284106.880,-503.575 
335454.676,4284006.880,-511.458 
335454.676,4283906.880,-527.865 
335454.676,4283806.880,-551.457 
335454.676,4283706.880,-570.371 
335454.676,4283606.880,-576.089 
335454.676,4283506.880,-577.085 
335454.676,4283406.880,-575.74 
335454.676,4283306.880,-584.614 
335454.676,4283206.880,-592.959 
335454.676,4283106.880,-605.846 
335454.676,4283006.880,-612.709 
335454.676,4282906.880,-627.084 
335454.676,4282806.880,-685.385 
335454.676,4282706.880,-746.17 
335454.676,4282606.880,-778.288 
335454.676,4282506.880,-796.433 
335454.676,4282406.880,-861.817 
335554.676,4288706.880,-892.81 
335554.676,4288606.880,-875.934 
335554.676,4288506.880,-859.724 
335554.676,4288406.880,-850.979 
335554.676,4288306.880,-847.631 
335554.676,4288206.880,-838.442 
335554.676,4288106.880,-818.561 
335554.676,4288006.880,-786.578 
335554.676,4287906.880,-744.326 
335554.676,4287806.880,-696.138 
335554.676,4287706.880,-643.848 
335554.676,4287606.880,-599.87 
335554.676,4287506.880,-606.171 
335554.676,4287406.880,-617.688 
335554.676,4287306.880,-624.206 
335554.676,4287206.880,-626.182 
335554.676,4287106.880,-615.368 
335554.676,4287006.880,-595.394 
335554.676,4286906.880,-562.308 
335554.676,4286806.880,-528.484 
335554.676,4286706.880,-504.911 
335554.676,4286606.880,-492.237 
335554.676,4286506.880,-469.486 
335554.676,4286406.880,-437.535 
335554.676,4286306.880,-419.656 
335554.676,4286206.880,-415.822 
335554.676,4286106.880,-404.69 
335554.676,4286006.880,-390.679 
335554.676,4285906.880,-381.031 
335554.676,4285806.880,-379.723 
335554.676,4285706.880,-381.504 
335554.676,4285606.880,-380.13 
335554.676,4285506.880,-378.558 
335554.676,4285406.880,-377.864 
335554.676,4285306.880,-381.565 
335554.676,4285206.880,-389.88 
335554.676,4285106.880,-406.191 
335554.676,4285006.880,-414.13 
335554.676,4284906.880,-398.38 
335554.676,4284806.880,-407.474 
335554.676,4284706.880,-429.473 
335554.676,4284606.880,-449.76 
335554.676,4284506.880,-442.716 
335554.676,4284406.880,-451.655 
335554.676,4284306.880,-481.509 
335554.676,4284206.880,-493.832 
335554.676,4284106.880,-500.948 
335554.676,4284006.880,-510.064 
335554.676,4283906.880,-525.814 
335554.676,4283806.880,-550.014 
335554.676,4283706.880,-572.269 
335554.676,4283606.880,-571.877 
335554.676,4283506.880,-572.437 
335554.676,4283406.880,-571.851 
335554.676,4283306.880,-579.105 
335554.676,4283206.880,-585.751 
335554.676,4283106.880,-596.868 
335554.676,4283006.880,-599.836 
335554.676,4282906.880,-620.651 
335554.676,4282806.880,-708.806 
335554.676,4282706.880,-740.502 
335554.676,4282606.880,-745.211 
335554.676,4282506.880,-780.031 
335554.676,4282406.880,-845.313 
335554.676,4282306.880,-891.393 
335554.676,4282106.880,-897.932 
335554.676,4282006.880,-890.909 
335554.676,4281906.880,-885.796 
335554.676,4281806.880,-886.551 
335654.676,4288706.880,-889.126 
335654.676,4288606.880,-867.657 
335654.676,4288506.880,-848.548 
335654.676,4288406.880,-834.746 
335654.676,4288306.880,-822.035 
335654.676,4288206.880,-813.176 
335654.676,4288106.880,-800.879 
335654.676,4288006.880,-769.744 
335654.676,4287906.880,-738.583 
335654.676,4287806.880,-701.324 
335654.676,4287706.880,-662.547 
335654.676,4287606.880,-637.712 
335654.676,4287506.880,-610.258 
335654.676,4287406.880,-601.486 
335654.676,4287306.880,-604.019 
335654.676,4287206.880,-603.685 
335654.676,4287106.880,-600.486 
335654.676,4287006.880,-587.348 
335654.676,4286906.880,-549.449 
335654.676,4286806.880,-513.497 
335654.676,4286706.880,-487.299 
335654.676,4286606.880,-468.186 
335654.676,4286506.880,-418.173 
335654.676,4286406.880,-385.757 
335654.676,4286306.880,-380.602 
335654.676,4286206.880,-385.175 
335654.676,4286106.880,-374.564 
335654.676,4286006.880,-362.777 
335654.676,4285906.880,-354.03 
335654.676,4285806.880,-352.882 
335654.676,4285706.880,-352.995 
335654.676,4285606.880,-351.171 
335654.676,4285506.880,-354.207 
335654.676,4285406.880,-359.496 
335654.676,4285306.880,-367.232 
335654.676,4285206.880,-380.13 
335654.676,4285106.880,-391.812 
335654.676,4285006.880,-389.963 
335654.676,4284906.880,-357.583 
335654.676,4284806.880,-382.354 
335654.676,4284706.880,-425.297 
335654.676,4284606.880,-431.566 
335654.676,4284506.880,-451.4 
335654.676,4284406.880,-468.964 
335654.676,4284306.880,-479.693 
335654.676,4284206.880,-486.871 
335654.676,4284106.880,-494.284 
335654.676,4284006.880,-505.162 
335654.676,4283906.880,-520.886 
335654.676,4283806.880,-545.355 
335654.676,4283706.880,-573.188 
335654.676,4283606.880,-566.765 
335654.676,4283506.880,-567.611 
335654.676,4283406.880,-567.935 
335654.676,4283306.880,-576.617 
335654.676,4283206.880,-579.164 
335654.676,4283106.880,-590.128 
335654.676,4283006.880,-586.592 
335654.676,4282906.880,-660.339 
335654.676,4282806.880,-729.799 
335654.676,4282706.880,-733.097 
335654.676,4282606.880,-739.058 
335654.676,4282506.880,-776.653 
335654.676,4282406.880,-829.415 
335654.676,4282306.880,-886.316 
335654.676,4282206.880,-886.702 
335654.676,4282106.880,-870.556 
335654.676,4282006.880,-867.995 
335654.676,4281906.880,-865.582 
335654.676,4281806.880,-887.458 
335754.676,4288706.880,-893.251 
335754.676,4288606.880,-865.077 
335754.676,4288506.880,-841.102 
335754.676,4288406.880,-821.754 
335754.676,4288306.880,-803.993 
335754.676,4288206.880,-789.654 
335754.676,4288106.880,-777.316 
335754.676,4288006.880,-756.009 
335754.676,4287906.880,-725.841 
335754.676,4287806.880,-696.968 
335754.676,4287706.880,-669.043 
335754.676,4287606.880,-642.207 
335754.676,4287506.880,-612.276 
335754.676,4287406.880,-588.734 
335754.676,4287306.880,-581.209 
335754.676,4287206.880,-579.225 
335754.676,4287106.880,-579.1 
335754.676,4287006.880,-564.745 
335754.676,4286906.880,-525.899 
335754.676,4286806.880,-490.974 
335754.676,4286706.880,-468.063 
335754.676,4286606.880,-449.305 
335754.676,4286506.880,-369.83 
335754.676,4286406.880,-358.083 
335754.676,4286306.880,-355.091 
335754.676,4286206.880,-355.612 
335754.676,4286106.880,-345.687 
335754.676,4286006.880,-333.033 
335754.676,4285906.880,-321.767 
335754.676,4285806.880,-317.543 
335754.676,4285706.880,-316.709 
335754.676,4285606.880,-317.787 
335754.676,4285506.880,-326.803 
335754.676,4285406.880,-342.693 
335754.676,4285306.880,-354.563 
335754.676,4285206.880,-363.744 
335754.676,4285106.880,-373.552 
335754.676,4285006.880,-373.429 
335754.676,4284906.880,-357.263 
335754.676,4284806.880,-377.041 
335754.676,4284706.880,-417.217 
335754.676,4284606.880,-424.191 
335754.676,4284506.880,-450.637 
335754.676,4284406.880,-463.898 
335754.676,4284306.880,-471.528 
335754.676,4284206.880,-475.495 
335754.676,4284106.880,-485.476 
335754.676,4284006.880,-498.733 
335754.676,4283906.880,-516.897 
335754.676,4283806.880,-540.235 
335754.676,4283706.880,-567.805 
335754.676,4283606.880,-563.368 
335754.676,4283506.880,-559.656 
335754.676,4283406.880,-557.95 
335754.676,4283306.880,-566.995 
335754.676,4283206.880,-575.31 
335754.676,4283106.880,-578.53 
335754.676,4283006.880,-573.62 
335754.676,4282906.880,-704.374 
335754.676,4282806.880,-722.367 
335754.676,4282706.880,-732.291 
335754.676,4282606.880,-750.56 
335754.676,4282506.880,-794.183 
335754.676,4282406.880,-840.782 
335754.676,4282306.880,-868.775 
335754.676,4282206.880,-857.562 
335754.676,4282106.880,-845.942 
335754.676,4282006.880,-849.76 
335754.676,4281906.880,-863.998 
335754.676,4281806.880,-894.63 
335854.676,4288706.880,-889.006 
335854.676,4288606.880,-859.637 
335854.676,4288506.880,-833.449 
335854.676,4288406.880,-812.559 
335854.676,4288306.880,-792.273 
335854.676,4288206.880,-775.951 
335854.676,4288106.880,-760.196 
335854.676,4288006.880,-738.177 
335854.676,4287906.880,-711.968 
335854.676,4287806.880,-690.592 
335854.676,4287706.880,-666.045 
335854.676,4287606.880,-638.716 
335854.676,4287506.880,-609.191 
335854.676,4287406.880,-579.498 
335854.676,4287306.880,-559.545 
335854.676,4287206.880,-551.94 
335854.676,4287106.880,-550.26 
335854.676,4287006.880,-527.423 
335854.676,4286906.880,-487.811 
335854.676,4286806.880,-456.97 
335854.676,4286706.880,-434.657 
335854.676,4286606.880,-426.476 
335854.676,4286506.880,-399.924 
335854.676,4286406.880,-362.85 
335854.676,4286306.880,-331.112 
335854.676,4286206.880,-328.362 
335854.676,4286106.880,-313.413 
335854.676,4286006.880,-297.906 
335854.676,4285906.880,-283.489 
335854.676,4285806.880,-276.744 
335854.676,4285706.880,-277.525 
335854.676,4285606.880,-283.491 
335854.676,4285506.880,-296.734 
335854.676,4285406.880,-318.644 
335854.676,4285306.880,-334.677 
335854.676,4285206.880,-346.76 
335854.676,4285106.880,-357.102 
335854.676,4285006.880,-352.246 
335854.676,4284906.880,-354.935 
335854.676,4284806.880,-382.363 
335854.676,4284706.880,-402.3 
335854.676,4284606.880,-423.395 
335854.676,4284506.880,-443.397 
335854.676,4284406.880,-456.682 
335854.676,4284306.880,-460.83 
335854.676,4284206.880,-467.897 
335854.676,4284106.880,-480.973 
335854.676,4284006.880,-499.576 
335854.676,4283906.880,-508.776 
335854.676,4283806.880,-529.669 
335854.676,4283706.880,-555.485 
335854.676,4283606.880,-556.07 
335854.676,4283506.880,-554.784 
335854.676,4283406.880,-545.835 
335854.676,4283306.880,-558.681 
335854.676,4283206.880,-565.137 
335854.676,4283106.880,-569.471 
335854.676,4283006.880,-610.414 
335854.676,4282906.880,-692.673 
335854.676,4282806.880,-723.366 
335854.676,4282706.880,-737.624 
335854.676,4282606.880,-771.341 
335854.676,4282506.880,-817.474 
335854.676,4282406.880,-845.19 
335854.676,4282306.880,-851.913 
335854.676,4282206.880,-834.181 
335854.676,4282106.880,-827.394 
335854.676,4282006.880,-846.499 
335854.676,4281906.880,-880.018 
335954.676,4288706.880,-869.535 
335954.676,4288606.880,-848.577 
335954.676,4288506.880,-823.674 
335954.676,4288406.880,-806.143 
335954.676,4288306.880,-789.375 
335954.676,4288206.880,-769.478 
335954.676,4288106.880,-749.168 
335954.676,4288006.880,-722.493 
335954.676,4287906.880,-700.158 
335954.676,4287806.880,-678.601 
335954.676,4287706.880,-657.639 
335954.676,4287606.880,-632.923 
335954.676,4287506.880,-601.195 
335954.676,4287406.880,-571.658 
335954.676,4287306.880,-548.609 
335954.676,4287206.880,-528.868 
335954.676,4287106.880,-521.129 
335954.676,4287006.880,-494.314 
335954.676,4286906.880,-440.507 
335954.676,4286806.880,-413.503 
335954.676,4286706.880,-403.743 
335954.676,4286606.880,-399.024 
335954.676,4286506.880,-383.585 
335954.676,4286406.880,-357.452 
335954.676,4286306.880,-319.722 
335954.676,4286206.880,-297.473 
335954.676,4286106.880,-279.201 
335954.676,4286006.880,-257.44 
335954.676,4285906.880,-242.431 
335954.676,4285806.880,-234.143 
335954.676,4285706.880,-235.985 
335954.676,4285606.880,-248.666 
335954.676,4285506.880,-265.105 
335954.676,4285406.880,-284.794 
335954.676,4285306.880,-305.726 
335954.676,4285206.880,-323.139 
335954.676,4285106.880,-322 
335954.676,4285006.880,-331.899 
335954.676,4284906.880,-355.148 
335954.676,4284806.880,-379.53 
335954.676,4284706.880,-399.449 
335954.676,4284606.880,-418.283 
335954.676,4284506.880,-433.802 
335954.676,4284406.880,-447.316 
335954.676,4284306.880,-452.807 
335954.676,4284206.880,-461.134 
335954.676,4284106.880,-478.819 
335954.676,4284006.880,-492.921 
335954.676,4283906.880,-502.617 
335954.676,4283806.880,-518.992 
335954.676,4283706.880,-546.617 
335954.676,4283606.880,-550.238 
335954.676,4283506.880,-545.11 
335954.676,4283406.880,-536.501 
335954.676,4283306.880,-551.201 
335954.676,4283206.880,-563.208 
335954.676,4283106.880,-569.203 
335954.676,4283006.880,-613.462 
335954.676,4282906.880,-674.38 
335954.676,4282806.880,-711.882 
335954.676,4282706.880,-758.074 
335954.676,4282606.880,-789.802 
335954.676,4282506.880,-823.022 
335954.676,4282406.880,-842.488 
335954.676,4282306.880,-838.76 
335954.676,4282206.880,-822.413 
335954.676,4282106.880,-816.247 
335954.676,4282006.880,-848.84 
335954.676,4281906.880,-881.121 
336054.676,4288806.880,-873.484 
336054.676,4288706.880,-849.367 
336054.676,4288606.880,-826.381 
336054.676,4288506.880,-816.132 
336054.676,4288406.880,-796.861 
336054.676,4288306.880,-783.695 
336054.676,4288206.880,-767.654 
336054.676,4288106.880,-744.47 
336054.676,4288006.880,-718.755 
336054.676,4287906.880,-691.879 
336054.676,4287806.880,-669.131 
336054.676,4287706.880,-644.44 
336054.676,4287606.880,-623.539 
336054.676,4287506.880,-597.6 
336054.676,4287406.880,-567.22 
336054.676,4287306.880,-541.284 
336054.676,4287206.880,-518.429 
336054.676,4287106.880,-503.827 
336054.676,4287006.880,-479.98 
336054.676,4286906.880,-450.512 
336054.676,4286806.880,-423.856 
336054.676,4286706.880,-390.649 
336054.676,4286606.880,-368.174 
336054.676,4286506.880,-352.912 
336054.676,4286406.880,-333.812 
336054.676,4286306.880,-308.086 
336054.676,4286206.880,-271.635 
336054.676,4286106.880,-245.173 
336054.676,4286006.880,-220.009 
336054.676,4285906.880,-200.898 
336054.676,4285806.880,-191.366 
336054.676,4285706.880,-193.746 
336054.676,4285606.880,-201.852 
336054.676,4285506.880,-229.589 
336054.676,4285406.880,-253.937 
336054.676,4285306.880,-269.799 
336054.676,4285206.880,-281.985 
336054.676,4285106.880,-303.466 
336054.676,4285006.880,-323.208 
336054.676,4284906.880,-343.019 
336054.676,4284806.880,-363.732 
336054.676,4284706.880,-388.918 
336054.676,4284606.880,-406.76 
336054.676,4284506.880,-423.744 
336054.676,4284406.880,-437.614 
336054.676,4284306.880,-446.345 
336054.676,4284206.880,-460.451 
336054.676,4284106.880,-465.74 
336054.676,4284006.880,-487.129 
336054.676,4283906.880,-495.847 
336054.676,4283806.880,-507.679 
336054.676,4283706.880,-540.005 
336054.676,4283606.880,-542.63 
336054.676,4283506.880,-545.307 
336054.676,4283406.880,-535.084 
336054.676,4283306.880,-550.908 
336054.676,4283206.880,-560.036 
336054.676,4283106.880,-562.965 
336054.676,4283006.880,-602.711 
336054.676,4282906.880,-658.32 
336054.676,4282806.880,-699.782 
336054.676,4282706.880,-747.867 
336054.676,4282606.880,-791.821 
336054.676,4282506.880,-820.991 
336054.676,4282406.880,-829.912 
336054.676,4282306.880,-824.717 
336054.676,4282206.880,-819.815 
336054.676,4282106.880,-813.522 
336054.676,4282006.880,-849.926 
336054.676,4281906.880,-882.646 
336154.676,4290706.880,-890.822 
336154.676,4289006.880,-856.342 
336154.676,4288906.880,-853.836 
336154.676,4288806.880,-838.58 
336154.676,4288706.880,-827.196 
336154.676,4288606.880,-813.081 
336154.676,4288506.880,-807.786 
336154.676,4288406.880,-787.608 
336154.676,4288306.880,-771.102 
336154.676,4288206.880,-755.041 
336154.676,4288106.880,-742.514 
336154.676,4288006.880,-719.055 
336154.676,4287906.880,-687.854 
336154.676,4287806.880,-662.579 
336154.676,4287706.880,-637.191 
336154.676,4287606.880,-614.889 
336154.676,4287506.880,-589.741 
336154.676,4287406.880,-563.579 
336154.676,4287306.880,-536.463 
336154.676,4287206.880,-513.581 
336154.676,4287106.880,-494.952 
336154.676,4287006.880,-472.351 
336154.676,4286906.880,-444.131 
336154.676,4286806.880,-416.07 
336154.676,4286706.880,-384.13 
336154.676,4286606.880,-346.354 
336154.676,4286506.880,-322.47 
336154.676,4286406.880,-302.813 
336154.676,4286306.880,-284.861 
336154.676,4286206.880,-257.166 
336154.676,4286106.880,-215.728 
336154.676,4286006.880,-181.016 
336154.676,4285906.880,-153.826 
336154.676,4285806.880,-141.282 
336154.676,4285706.880,-149.063 
336154.676,4285606.880,-169.512 
336154.676,4285506.880,-199.605 
336154.676,4285406.880,-228.205 
336154.676,4285306.880,-253.365 
336154.676,4285206.880,-268.931 
336154.676,4285106.880,-282.7 
336154.676,4285006.880,-305.296 
336154.676,4284906.880,-327.662 
336154.676,4284806.880,-359.616 
336154.676,4284706.880,-380.885 
336154.676,4284606.880,-399.99 
336154.676,4284506.880,-413.176 
336154.676,4284406.880,-429.314 
336154.676,4284306.880,-441.454 
336154.676,4284206.880,-451.789 
336154.676,4284106.880,-457.124 
336154.676,4284006.880,-469.828 
336154.676,4283906.880,-484.406 
336154.676,4283806.880,-502.901 
336154.676,4283706.880,-537.959 
336154.676,4283606.880,-539.158 
336154.676,4283506.880,-520.598 
336154.676,4283406.880,-508.904 
336154.676,4283306.880,-543.904 
336154.676,4283206.880,-554.016 
336154.676,4283106.880,-554.064 
336154.676,4283006.880,-596.048 
336154.676,4282906.880,-646.669 
336154.676,4282806.880,-696.821 
336154.676,4282706.880,-747.534 
336154.676,4282606.880,-793.955 
336154.676,4282506.880,-817.083 
336154.676,4282406.880,-823.586 
336154.676,4282306.880,-823.475 
336154.676,4282206.880,-819.538 
336154.676,4282106.880,-819.469 
336154.676,4282006.880,-847.777 
336154.676,4281906.880,-882.731 
336254.676,4290806.880,-894.949 
336254.676,4290706.880,-852.009 
336254.676,4290606.880,-843.879 
336254.676,4290506.880,-877.567 
336254.676,4289006.880,-855.119 
336254.676,4288906.880,-815.096 
336254.676,4288806.880,-823.01 
336254.676,4288706.880,-812.641 
336254.676,4288606.880,-801.955 
336254.676,4288506.880,-796.32 
336254.676,4288406.880,-783.78 
336254.676,4288306.880,-763.326 
336254.676,4288206.880,-749.704 
336254.676,4288106.880,-740.026 
336254.676,4288006.880,-721.424 
336254.676,4287906.880,-692.713 
336254.676,4287806.880,-662.444 
336254.676,4287706.880,-635.547 
336254.676,4287606.880,-606.491 
336254.676,4287506.880,-579.588 
336254.676,4287406.880,-555.821 
336254.676,4287306.880,-531.555 
336254.676,4287206.880,-505.48 
336254.676,4287106.880,-482.848 
336254.676,4287006.880,-458.606 
336254.676,4286906.880,-433.399 
336254.676,4286806.880,-409.377 
336254.676,4286706.880,-379.155 
336254.676,4286606.880,-339.73 
336254.676,4286506.880,-300.099 
336254.676,4286406.880,-270.799 
336254.676,4286306.880,-248.977 
336254.676,4286206.880,-227.747 
336254.676,4286106.880,-200.71 
336254.676,4286006.880,-161.183 
336254.676,4285906.880,-114.067 
336254.676,4285806.880,-112.597 
336254.676,4285706.880,-112.078 
336254.676,4285606.880,-145.051 
336254.676,4285506.880,-181.646 
336254.676,4285406.880,-214.708 
336254.676,4285306.880,-243.297 
336254.676,4285206.880,-244.359 
336254.676,4285106.880,-266.066 
336254.676,4285006.880,-299.707 
336254.676,4284906.880,-325.283 
336254.676,4284806.880,-353.387 
336254.676,4284706.880,-373.068 
336254.676,4284606.880,-389.664 
336254.676,4284506.880,-411.326 
336254.676,4284406.880,-424.533 
336254.676,4284306.880,-433.425 
336254.676,4284206.880,-440.984 
336254.676,4284106.880,-453.902 
336254.676,4284006.880,-462.528 
336254.676,4283906.880,-474.963 
336254.676,4283806.880,-493.997 
336254.676,4283706.880,-518.158 
336254.676,4283606.880,-520.557 
336254.676,4283506.880,-507.999 
336254.676,4283406.880,-503.701 
336254.676,4283306.880,-516.242 
336254.676,4283206.880,-516.648 
336254.676,4283106.880,-526.23 
336254.676,4283006.880,-585.863 
336254.676,4282906.880,-642.343 
336254.676,4282806.880,-699.185 
336254.676,4282706.880,-756.709 
336254.676,4282606.880,-790.033 
336254.676,4282506.880,-813.905 
336254.676,4282406.880,-819.695 
336254.676,4282306.880,-819.847 
336254.676,4282206.880,-816.547 
336254.676,4282106.880,-832.103 
336254.676,4282006.880,-859.267 
336254.676,4281906.880,-892.497 
336354.676,4290706.880,-882.209 
336354.676,4290606.880,-840.206 
336354.676,4290506.880,-876.931 
336354.676,4289006.880,-895.37 
336354.676,4288906.880,-839.569 
336354.676,4288806.880,-831.164 
336354.676,4288706.880,-823.172 
336354.676,4288606.880,-810.82 
336354.676,4288506.880,-797.03 
336354.676,4288406.880,-783.864 
336354.676,4288306.880,-760.116 
336354.676,4288206.880,-740.383 
336354.676,4288106.880,-729.909 
336354.676,4288006.880,-714.063 
336354.676,4287906.880,-692.458 
336354.676,4287806.880,-666.797 
336354.676,4287706.880,-635.513 
336354.676,4287606.880,-604.099 
336354.676,4287506.880,-574.692 
336354.676,4287406.880,-548.377 
336354.676,4287306.880,-520.742 
336354.676,4287206.880,-493.59 
336354.676,4287106.880,-470.569 
336354.676,4287006.880,-444.802 
336354.676,4286906.880,-418.435 
336354.676,4286806.880,-393.198 
336354.676,4286706.880,-364.811 
336354.676,4286606.880,-332.723 
336354.676,4286506.880,-297.511 
336354.676,4286406.880,-256.083 
336354.676,4286306.880,-216.099 
336354.676,4286206.880,-192.753 
336354.676,4286106.880,-174.316 
336354.676,4286006.880,-140.576 
336354.676,4285906.880,-112.038 
336354.676,4285806.880,-113.455 
336354.676,4285706.880,-111.579 
336354.676,4285606.880,-133.857 
336354.676,4285506.880,-168.332 
336354.676,4285406.880,-201.298 
336354.676,4285306.880,-240.473 
336354.676,4285206.880,-267.72 
336354.676,4285106.880,-286.445 
336354.676,4285006.880,-307.988 
336354.676,4284906.880,-326.889 
336354.676,4284806.880,-350.871 
336354.676,4284706.880,-367.158 
336354.676,4284606.880,-385.304 
336354.676,4284506.880,-406.332 
336354.676,4284406.880,-416.263 
336354.676,4284306.880,-423.716 
336354.676,4284206.880,-434.403 
336354.676,4284106.880,-446.649 
336354.676,4284006.880,-456.352 
336354.676,4283906.880,-466.842 
336354.676,4283806.880,-485.506 
336354.676,4283706.880,-505.6 
336354.676,4283606.880,-507.625 
336354.676,4283506.880,-502.293 
336354.676,4283406.880,-488.723 
336354.676,4283306.880,-483.58 
336354.676,4283206.880,-480.703 
336354.676,4283106.880,-530.438 
336354.676,4283006.880,-575.516 
336354.676,4282906.880,-630.579 
336354.676,4282806.880,-692.536 
336354.676,4282706.880,-746.961 
336354.676,4282606.880,-795.893 
336354.676,4282506.880,-814.524 
336354.676,4282406.880,-815.683 
336354.676,4282306.880,-815.358 
336354.676,4282206.880,-815.861 
336354.676,4282106.880,-843.486 
336354.676,4282006.880,-861.782 
336454.676,4290606.880,-880.431 
336454.676,4290506.880,-881.698 
336454.676,4289206.880,-894.44 
336454.676,4289106.880,-897.649 
336454.676,4289006.880,-897.957 
336454.676,4288906.880,-870.049 
336454.676,4288806.880,-857.198 
336454.676,4288706.880,-847.34 
336454.676,4288606.880,-824.58 
336454.676,4288506.880,-806.663 
336454.676,4288406.880,-784.134 
336454.676,4288306.880,-736.319 
336454.676,4288206.880,-722.687 
336454.676,4288106.880,-709.415 
336454.676,4288006.880,-693.328 
336454.676,4287906.880,-675.783 
336454.676,4287806.880,-666.855 
336454.676,4287706.880,-604.533 
336454.676,4287606.880,-588.666 
336454.676,4287506.880,-583.811 
336454.676,4287406.880,-548.278 
336454.676,4287306.880,-497.052 
336454.676,4287206.880,-477.459 
336454.676,4287106.880,-458.849 
336454.676,4287006.880,-431.414 
336454.676,4286906.880,-402.63 
336454.676,4286806.880,-374.398 
336454.676,4286706.880,-344.519 
336454.676,4286606.880,-311.03 
336454.676,4286506.880,-277.978 
336454.676,4286406.880,-240.465 
336454.676,4286306.880,-196.525 
336454.676,4286206.880,-160.172 
336454.676,4286106.880,-143.407 
336454.676,4286006.880,-124.065 
336454.676,4285906.880,-110.739 
336454.676,4285806.880,-106.855 
336454.676,4285706.880,-107.187 
336454.676,4285606.880,-131.525 
336454.676,4285506.880,-164.885 
336454.676,4285406.880,-200.994 
336454.676,4285306.880,-240.172 
336454.676,4285206.880,-269.119 
336454.676,4285106.880,-291.854 
336454.676,4285006.880,-310.171 
336454.676,4284906.880,-325.633 
336454.676,4284806.880,-346.848 
336454.676,4284706.880,-362.927 
336454.676,4284606.880,-377.622 
336454.676,4284506.880,-394.482 
336454.676,4284406.880,-403.837 
336454.676,4284306.880,-417.902 
336454.676,4284206.880,-429.751 
336454.676,4284106.880,-442.26 
336454.676,4284006.880,-447.608 
336454.676,4283906.880,-458.297 
336454.676,4283806.880,-476.727 
336454.676,4283706.880,-500.506 
336454.676,4283606.880,-497.645 
336454.676,4283506.880,-479.428 
336454.676,4283406.880,-467.233 
336454.676,4283306.880,-464.281 
336454.676,4283206.880,-477.039 
336454.676,4283106.880,-526.46 
336454.676,4283006.880,-570.133 
336454.676,4282906.880,-631.192 
336454.676,4282806.880,-685.543 
336454.676,4282706.880,-734.045 
336454.676,4282606.880,-787.069 
336454.676,4282506.880,-811.802 
336454.676,4282406.880,-811.743 
336454.676,4282306.880,-810.661 
336454.676,4282206.880,-829.36 
336454.676,4282106.880,-862.997 
336454.676,4282006.880,-885.52 
336554.676,4290606.880,-859.086 
336554.676,4290506.880,-829.142 
336554.676,4290406.880,-891.8 
336554.676,4289306.880,-887.237 
336554.676,4289206.880,-870.761 
336554.676,4289106.880,-864.257 
336554.676,4289006.880,-860.054 
336554.676,4288906.880,-868.293 
336554.676,4288806.880,-870.018 
336554.676,4288706.880,-859.092 
336554.676,4288606.880,-842.236 
336554.676,4288506.880,-811.925 
336554.676,4288406.880,-782.621 
336554.676,4288306.880,-714.51 
336554.676,4288206.880,-690.362 
336554.676,4288106.880,-683.799 
336554.676,4288006.880,-663.721 
336554.676,4287906.880,-646.53 
336554.676,4287806.880,-626.371 
336554.676,4287706.880,-593.223 
336554.676,4287606.880,-554.718 
336554.676,4287506.880,-550.509 
336554.676,4287406.880,-519.935 
336554.676,4287306.880,-452.684 
336554.676,4287206.880,-454.998 
336554.676,4287106.880,-433.411 
336554.676,4287006.880,-408.967 
336554.676,4286906.880,-381.712 
336554.676,4286806.880,-355.273 
336554.676,4286706.880,-327.98 
336554.676,4286606.880,-297.094 
336554.676,4286506.880,-251.294 
336554.676,4286406.880,-209.153 
336554.676,4286306.880,-164.401 
336554.676,4286206.880,-130.242 
336554.676,4286106.880,-111.168 
336554.676,4286006.880,-108.927 
336554.676,4285906.880,-106.067 
336554.676,4285806.880,-106.593 
336554.676,4285706.880,-111.641 
336554.676,4285606.880,-144.084 
336554.676,4285506.880,-164.371 
336554.676,4285406.880,-204.258 
336554.676,4285306.880,-241.9 
336554.676,4285206.880,-270.058 
336554.676,4285106.880,-290.103 
336554.676,4285006.880,-307.474 
336554.676,4284906.880,-324.548 
336554.676,4284806.880,-344.975 
336554.676,4284706.880,-359.261 
336554.676,4284606.880,-368.859 
336554.676,4284506.880,-376.92 
336554.676,4284406.880,-386.621 
336554.676,4284306.880,-404.125 
336554.676,4284206.880,-419.543 
336554.676,4284106.880,-433.252 
336554.676,4284006.880,-438.755 
336554.676,4283906.880,-452.678 
336554.676,4283806.880,-467.586 
336554.676,4283706.880,-491.802 
336554.676,4283606.880,-479.565 
336554.676,4283506.880,-461.134 
336554.676,4283406.880,-452.082 
336554.676,4283306.880,-450.222 
336554.676,4283206.880,-472.042 
336554.676,4283106.880,-516.415 
336554.676,4283006.880,-577.526 
336554.676,4282906.880,-635.254 
336554.676,4282806.880,-682.668 
336554.676,4282706.880,-732.322 
336554.676,4282606.880,-777.748 
336554.676,4282506.880,-804.176 
336554.676,4282406.880,-811.826 
336554.676,4282306.880,-820.433 
336554.676,4282206.880,-854.137 
336554.676,4282106.880,-882.583 
336654.676,4291106.880,-888.629 
336654.676,4291006.880,-876.941 
336654.676,4290906.880,-867.838 
336654.676,4290806.880,-884.536 
336654.676,4290706.880,-854.283 
336654.676,4290606.880,-816.038 
336654.676,4290506.880,-842.969 
336654.676,4289406.880,-879.595 
336654.676,4289306.880,-852.989 
336654.676,4289206.880,-832.568 
336654.676,4289106.880,-818.34 
336654.676,4289006.880,-822.264 
336654.676,4288906.880,-856.404 
336654.676,4288806.880,-863.655 
336654.676,4288706.880,-859.466 
336654.676,4288606.880,-846.192 
336654.676,4288506.880,-820.829 
336654.676,4288406.880,-775.333 
336654.676,4288306.880,-714.19 
336654.676,4288206.880,-672.252 
336654.676,4288106.880,-647.414 
336654.676,4288006.880,-629.63 
336654.676,4287906.880,-603.009 
336654.676,4287806.880,-602.162 
336654.676,4287706.880,-569.143 
336654.676,4287606.880,-548.8 
336654.676,4287506.880,-528.614 
336654.676,4287406.880,-506.939 
336654.676,4287306.880,-459.208 
336654.676,4287206.880,-426.865 
336654.676,4287106.880,-408.973 
336654.676,4287006.880,-385.261 
336654.676,4286906.880,-362.266 
336654.676,4286806.880,-336.691 
336654.676,4286706.880,-312.683 
336654.676,4286606.880,-275.042 
336654.676,4286506.880,-221.1 
336654.676,4286406.880,-166.667 
336654.676,4286306.880,-121.415 
336654.676,4286206.880,-97.24 
336654.676,4286106.880,-93.07 
336654.676,4286006.880,-98.859 
336654.676,4285906.880,-102.647 
336654.676,4285806.880,-107.391 
336654.676,4285706.880,-131.724 
336654.676,4285606.880,-149.762 
336654.676,4285506.880,-166.47 
336654.676,4285406.880,-211.995 
336654.676,4285306.880,-248.323 
336654.676,4285206.880,-269.603 
336654.676,4285106.880,-286.47 
336654.676,4285006.880,-302.938 
336654.676,4284906.880,-316.202 
336654.676,4284806.880,-338.275 
336654.676,4284706.880,-350.122 
336654.676,4284606.880,-356.381 
336654.676,4284506.880,-364.66 
336654.676,4284406.880,-373.702 
336654.676,4284306.880,-395.766 
336654.676,4284206.880,-409.224 
336654.676,4284106.880,-421.785 
336654.676,4284006.880,-431.479 
336654.676,4283906.880,-443.326 
336654.676,4283806.880,-461.31 
336654.676,4283706.880,-476.015 
336654.676,4283606.880,-466.372 
336654.676,4283506.880,-442.451 
336654.676,4283406.880,-423.988 
336654.676,4283306.880,-436.766 
336654.676,4283206.880,-472.749 
336654.676,4283106.880,-526.237 
336654.676,4283006.880,-584.278 
336654.676,4282906.880,-625.682 
336654.676,4282806.880,-681.794 
336654.676,4282706.880,-730.703 
336654.676,4282606.880,-778.889 
336654.676,4282506.880,-807.323 
336654.676,4282406.880,-826.763 
336654.676,4282306.880,-847.298 
336654.676,4282206.880,-874.72 
336654.676,4282106.880,-894.934 
336754.676,4291106.880,-864.23 
336754.676,4291006.880,-832.625 
336754.676,4290906.880,-820.932 
336754.676,4290806.880,-823.832 
336754.676,4290706.880,-843.995 
336754.676,4290606.880,-862.391 
336754.676,4290506.880,-892.459 
336754.676,4289406.880,-884.964 
336754.676,4289306.880,-850.594 
336754.676,4289206.880,-817.088 
336754.676,4289106.880,-790.324 
336754.676,4289006.880,-812.224 
336754.676,4288906.880,-845.727 
336754.676,4288806.880,-854.784 
336754.676,4288706.880,-853.887 
336754.676,4288606.880,-846.617 
336754.676,4288506.880,-826.676 
336754.676,4288406.880,-789.387 
336754.676,4288306.880,-734.322 
336754.676,4288206.880,-684.796 
336754.676,4288106.880,-626.015 
336754.676,4288006.880,-583.11 
