327604.676,4286656.880,-993.102
327604.676,4286456.880,-914.984
327604.676,4286256.880,-865.757
327604.676,4286056.880,-852.155
327604.676,4285856.880,-837.826
327604.676,4285656.880,-835.381
327604.676,4285456.880,-829.741
327604.676,4285256.880,-837.086
327604.676,4285056.880,-850.531
327604.676,4284856.880,-887.033
327604.676,4284656.880,-882.778
327604.676,4284456.880,-883.405
327604.676,4284256.880,-906.119
327604.676,4284056.880,-917.857
327604.676,4283856.880,-957.606
327604.676,4283656.880,-1006.639
327604.676,4283456.880,-1022.935
327604.676,4283256.880,-1034.410
327604.676,4283056.880,-1028.799
327604.676,4282856.880,-999.105
327604.676,4282656.880,-988.412
327604.676,4282456.880,-1040.323
327604.676,4282256.880,-1093.931
327604.676,4282056.880,-1132.858
327604.676,4281856.880,-1180.340
327604.676,4281656.880,-1239.658
327604.676,4281456.880,-1294.834
327604.676,4281256.880,-1312.586
327604.676,4281056.880,-1365.289
327604.676,4280856.880,-1395.313
327604.676,4280656.880,-1454.667
327604.676,4280456.880,-1465.522
327604.676,4280256.880,-1531.424
327604.676,4280056.880,-1615.401
327604.676,4279856.880,-1669.435
327604.676,4279656.880,-1695.913
327604.676,4279456.880,-1729.782
327604.676,4279256.880,-1779.075
327604.676,4279056.880,-1800.369
327604.676,4278856.880,-1815.801
327604.676,4278656.880,-1867.099
327604.676,4278456.880,-1968.159
327604.676,4278256.880,-2026.802
327604.676,4278056.880,-2029.500
327604.676,4277856.880,-2059.106
327604.676,4277656.880,-2072.345
327604.676,4277456.880,-2101.013
327604.676,4277256.880,-2153.709
327604.676,4277056.880,-2194.358
327604.676,4276856.880,-2219.580
327604.676,4276656.880,-2244.478
327604.676,4276456.880,-2247.932
327604.676,4276256.880,-2243.960
327604.676,4276056.880,-2248.094
327604.676,4275856.880,-2255.004
327604.676,4275656.880,-2254.698
327604.676,4275456.880,-2256.984
327604.676,4275256.880,-2262.633
327604.676,4275056.880,-2271.638
327604.676,4274856.880,-2271.740
327604.676,4274656.880,-2273.779
327604.676,4274456.880,-2278.053
327604.676,4274256.880,-2282.978
327604.676,4274056.880,-2291.240
327604.676,4273856.880,-2298.017
327604.676,4273656.880,-2300.735
327604.676,4273456.880,-2296.051
327604.676,4273256.880,-2294.395
327604.676,4273056.880,-2304.131
327604.676,4272856.880,-2301.536
327604.676,4272656.880,-2303.098
327604.676,4272456.880,-2301.739
327604.676,4272256.880,-2308.309
327604.676,4272056.880,-2309.965
327604.676,4271856.880,-2314.356
327604.676,4271656.880,-2314.486
327604.676,4271456.880,-2313.341
327604.676,4271256.880,-2310.678
327604.676,4271056.880,-2306.333
327604.676,4270856.880,-2318.075
327604.676,4270656.880,-2317.213
327604.676,4270456.880,-2317.280
327604.676,4270256.880,-2312.875
327604.676,4270056.880,-2312.857
327804.676,4304856.880,-3011.485
327804.676,4304656.880,-3009.741
327804.676,4304456.880,-3004.748
327804.676,4304256.880,-2997.989
327804.676,4304056.880,-2997.935
327804.676,4303856.880,-3010.306
327804.676,4303656.880,-3027.364
327804.676,4303456.880,-3039.896
327804.676,4303256.880,-3031.673
327804.676,4303056.880,-3030.755
327804.676,4302856.880,-3020.237
327804.676,4302656.880,-2988.947
327804.676,4302456.880,-2971.442
327804.676,4302256.880,-2948.271
327804.676,4302056.880,-2943.022
327804.676,4301856.880,-2950.515
327804.676,4301656.880,-2918.646
327804.676,4301456.880,-2879.354
327804.676,4301256.880,-2893.944
327804.676,4301056.880,-2873.747
327804.676,4300856.880,-2864.116
327804.676,4300656.880,-2865.535
327804.676,4300456.880,-2873.464
327804.676,4300256.880,-2864.484
327804.676,4300056.880,-2875.120
327804.676,4299856.880,-2836.073
327804.676,4299656.880,-2729.808
327804.676,4299456.880,-2656.949
327804.676,4299256.880,-2635.720
327804.676,4299056.880,-2600.919
327804.676,4298856.880,-2568.650
327804.676,4298656.880,-2539.014
327804.676,4298456.880,-2517.315
327804.676,4298256.880,-2475.190
327804.676,4298056.880,-2429.895
327804.676,4297856.880,-2422.632
327804.676,4297656.880,-2405.766
327804.676,4297456.880,-2415.851
327804.676,4297256.880,-2329.883
327804.676,4297056.880,-2291.709
327804.676,4296856.880,-2253.235
327804.676,4296656.880,-2237.063
327804.676,4296456.880,-2192.629
327804.676,4296256.880,-2184.734
327804.676,4296056.880,-2146.614
327804.676,4295856.880,-2041.930
327804.676,4295656.880,-1957.625
327804.676,4295456.880,-1873.215
327804.676,4295256.880,-1826.733
327804.676,4295056.880,-1775.892
327804.676,4294856.880,-1777.308
327804.676,4294656.880,-1764.367
327804.676,4294456.880,-1772.871
327804.676,4294256.880,-1787.574
327804.676,4294056.880,-1794.557
327804.676,4293856.880,-1741.251
327804.676,4293656.880,-1726.231
327804.676,4293456.880,-1720.125
327804.676,4293256.880,-1725.571
327804.676,4293056.880,-1721.041
327804.676,4292856.880,-1711.671
327804.676,4292656.880,-1705.188
327804.676,4292456.880,-1682.320
327804.676,4292256.880,-1661.020
327804.676,4292056.880,-1652.721
327804.676,4291856.880,-1634.856
327804.676,4291656.880,-1624.113
327804.676,4291456.880,-1598.375
327804.676,4291256.880,-1570.092
327804.676,4291056.880,-1550.787
327804.676,4290856.880,-1544.535
327804.676,4290656.880,-1521.381
327804.676,4290456.880,-1513.612
327804.676,4290256.880,-1564.651
327804.676,4290056.880,-1564.444
327804.676,4289856.880,-1532.220
327804.676,4289656.880,-1521.907
327804.676,4289456.880,-1490.411
327804.676,4289256.880,-1472.899
327804.676,4289056.880,-1460.237
327804.676,4288856.880,-1437.108
327804.676,4288656.880,-1443.041
327804.676,4288456.880,-1445.219
327804.676,4288256.880,-1433.548
327804.676,4288056.880,-1422.186
327804.676,4287856.880,-1398.320
327804.676,4287656.880,-1381.372
327804.676,4287456.880,-1341.622
327804.676,4287256.880,-1279.857
327804.676,4287056.880,-1213.919
327804.676,4286856.880,-1152.079
327804.676,4286656.880,-1043.599
327804.676,4286456.880,-928.353
327804.676,4286256.880,-879.562
327804.676,4286056.880,-860.581
327804.676,4285856.880,-829.956
327804.676,4285656.880,-811.219
327804.676,4285456.880,-814.170
327804.676,4285256.880,-838.652
327804.676,4285056.880,-847.363
327804.676,4284856.880,-870.148
327804.676,4284656.880,-835.003
327804.676,4284456.880,-859.592
327804.676,4284256.880,-893.259
327804.676,4284056.880,-915.472
327804.676,4283856.880,-978.247
327804.676,4283656.880,-1020.434
327804.676,4283456.880,-1024.256
327804.676,4283256.880,-1029.078
327804.676,4283056.880,-1027.353
327804.676,4282856.880,-990.266
327804.676,4282656.880,-979.865
327804.676,4282456.880,-1039.920
327804.676,4282256.880,-1085.236
327804.676,4282056.880,-1130.187
327804.676,4281856.880,-1187.442
327804.676,4281656.880,-1262.049
327804.676,4281456.880,-1307.762
327804.676,4281256.880,-1307.271
327804.676,4281056.880,-1342.588
327804.676,4280856.880,-1372.930
327804.676,4280656.880,-1417.382
327804.676,4280456.880,-1451.609
327804.676,4280256.880,-1532.326
327804.676,4280056.880,-1607.320
327804.676,4279856.880,-1646.760
327804.676,4279656.880,-1674.103
327804.676,4279456.880,-1753.530
327804.676,4279256.880,-1809.499
327804.676,4279056.880,-1828.115
327804.676,4278856.880,-1835.037
327804.676,4278656.880,-1889.768
327804.676,4278456.880,-1948.087
327804.676,4278256.880,-2016.351
327804.676,4278056.880,-2036.642
327804.676,4277856.880,-2061.581
327804.676,4277656.880,-2078.023
327804.676,4277456.880,-2096.998
327804.676,4277256.880,-2134.048
327804.676,4277056.880,-2189.182
327804.676,4276856.880,-2216.704
327804.676,4276656.880,-2238.327
327804.676,4276456.880,-2243.844
327804.676,4276256.880,-2245.975
327804.676,4276056.880,-2248.618
327804.676,4275856.880,-2250.367
327804.676,4275656.880,-2257.476
327804.676,4275456.880,-2254.706
327804.676,4275256.880,-2266.833
327804.676,4275056.880,-2274.144
327804.676,4274856.880,-2279.419
327804.676,4274656.880,-2282.161
327804.676,4274456.880,-2289.127
327804.676,4274256.880,-2296.352
327804.676,4274056.880,-2306.877
327804.676,4273856.880,-2300.647
327804.676,4273656.880,-2304.500
327804.676,4273456.880,-2304.738
327804.676,4273256.880,-2294.974
327804.676,4273056.880,-2308.553
327804.676,4272856.880,-2304.217
327804.676,4272656.880,-2303.396
327804.676,4272456.880,-2308.431
327804.676,4272256.880,-2311.632
327804.676,4272056.880,-2314.984
327804.676,4271856.880,-2312.677
327804.676,4271656.880,-2314.564
327804.676,4271456.880,-2313.949
327804.676,4271256.880,-2315.449
327804.676,4271056.880,-2291.325
327804.676,4270856.880,-2317.450
327804.676,4270656.880,-2316.259
327804.676,4270456.880,-2316.772
327804.676,4270256.880,-2318.315
327804.676,4270056.880,-2315.796
328004.676,4304856.880,-3008.208
328004.676,4304656.880,-3005.673
328004.676,4304456.880,-3001.525
328004.676,4304256.880,-2997.598
328004.676,4304056.880,-2999.896
328004.676,4303856.880,-3012.978
328004.676,4303656.880,-3030.089
328004.676,4303456.880,-3044.193
328004.676,4303256.880,-3033.855
328004.676,4303056.880,-3025.052
328004.676,4302856.880,-3014.429
328004.676,4302656.880,-3017.281
328004.676,4302456.880,-2971.537
328004.676,4302256.880,-2956.035
328004.676,4302056.880,-2938.259
328004.676,4301856.880,-2943.286
328004.676,4301656.880,-2916.740
328004.676,4301456.880,-2892.110
328004.676,4301256.880,-2880.740
328004.676,4301056.880,-2870.131
328004.676,4300856.880,-2865.281
328004.676,4300656.880,-2858.393
328004.676,4300456.880,-2862.492
328004.676,4300256.880,-2849.954
328004.676,4300056.880,-2839.047
328004.676,4299856.880,-2769.558
328004.676,4299656.880,-2707.253
328004.676,4299456.880,-2640.575
328004.676,4299256.880,-2574.344
328004.676,4299056.880,-2523.979
328004.676,4298856.880,-2505.108
328004.676,4298656.880,-2527.607
328004.676,4298456.880,-2495.862
328004.676,4298256.880,-2476.603
328004.676,4298056.880,-2407.729
328004.676,4297856.880,-2398.445
328004.676,4297656.880,-2404.060
328004.676,4297456.880,-2382.124
328004.676,4297256.880,-2327.462
328004.676,4297056.880,-2290.196
328004.676,4296856.880,-2252.315
328004.676,4296656.880,-2222.573
328004.676,4296456.880,-2213.734
328004.676,4296256.880,-2182.290
328004.676,4296056.880,-2125.684
328004.676,4295856.880,-2042.549
328004.676,4295656.880,-1967.737
328004.676,4295456.880,-1909.285
328004.676,4295256.880,-1877.321
328004.676,4295056.880,-1865.550
328004.676,4294856.880,-1850.592
328004.676,4294656.880,-1849.380
328004.676,4294456.880,-1853.497
328004.676,4294256.880,-1815.320
328004.676,4294056.880,-1818.965
328004.676,4293856.880,-1742.518
328004.676,4293656.880,-1707.069
328004.676,4293456.880,-1716.241
328004.676,4293256.880,-1722.990
328004.676,4293056.880,-1714.332
328004.676,4292856.880,-1708.608
328004.676,4292656.880,-1702.749
328004.676,4292456.880,-1682.526
328004.676,4292256.880,-1670.141
328004.676,4292056.880,-1655.773
328004.676,4291856.880,-1650.418
328004.676,4291656.880,-1627.306
328004.676,4291456.880,-1605.446
328004.676,4291256.880,-1591.426
328004.676,4291056.880,-1564.052
328004.676,4290856.880,-1557.995
328004.676,4290656.880,-1521.676
328004.676,4290456.880,-1522.898
328004.676,4290256.880,-1550.128
328004.676,4290056.880,-1553.928
328004.676,4289856.880,-1519.614
328004.676,4289656.880,-1513.414
328004.676,4289456.880,-1495.321
328004.676,4289256.880,-1488.444
328004.676,4289056.880,-1479.484
328004.676,4288856.880,-1463.490
328004.676,4288656.880,-1450.995
328004.676,4288456.880,-1445.860
328004.676,4288256.880,-1434.575
328004.676,4288056.880,-1425.981
328004.676,4287856.880,-1403.710
328004.676,4287656.880,-1361.544
328004.676,4287456.880,-1306.687
328004.676,4287256.880,-1266.244
328004.676,4287056.880,-1217.064
328004.676,4286856.880,-1154.045
328004.676,4286656.880,-1080.676
328004.676,4286456.880,-982.720
328004.676,4286256.880,-929.322
328004.676,4286056.880,-900.985
328004.676,4285856.880,-881.712
328004.676,4285656.880,-825.242
328004.676,4285456.880,-812.348
328004.676,4285256.880,-817.219
328004.676,4285056.880,-834.524
328004.676,4284856.880,-836.209
328004.676,4284656.880,-804.685
328004.676,4284456.880,-834.332
328004.676,4284256.880,-866.902
328004.676,4284056.880,-921.077
328004.676,4283856.880,-974.728
328004.676,4283656.880,-1017.420
328004.676,4283456.880,-1021.547
328004.676,4283256.880,-1026.603
328004.676,4283056.880,-1024.748
328004.676,4282856.880,-956.408
328004.676,4282656.880,-981.885
328004.676,4282456.880,-1030.771
328004.676,4282256.880,-1076.767
328004.676,4282056.880,-1130.596
328004.676,4281856.880,-1186.997
328004.676,4281656.880,-1263.335
328004.676,4281456.880,-1308.170
328004.676,4281256.880,-1297.261
328004.676,4281056.880,-1314.268
328004.676,4280856.880,-1345.413
328004.676,4280656.880,-1414.575
328004.676,4280456.880,-1481.621
328004.676,4280256.880,-1546.817
328004.676,4280056.880,-1600.780
328004.676,4279856.880,-1625.919
328004.676,4279656.880,-1664.908
328004.676,4279456.880,-1756.754
328004.676,4279256.880,-1806.098
328004.676,4279056.880,-1838.526
328004.676,4278856.880,-1858.041
328004.676,4278656.880,-1909.577
328004.676,4278456.880,-1976.614
328004.676,4278256.880,-2028.529
328004.676,4278056.880,-2047.641
328004.676,4277856.880,-2059.771
328004.676,4277656.880,-2078.425
328004.676,4277456.880,-2091.084
328004.676,4277256.880,-2131.292
328004.676,4277056.880,-2184.506
328004.676,4276856.880,-2223.017
328004.676,4276656.880,-2228.054
328004.676,4276456.880,-2239.946
328004.676,4276256.880,-2240.766
328004.676,4276056.880,-2243.835
328004.676,4275856.880,-2250.685
328004.676,4275656.880,-2255.094
328004.676,4275456.880,-2254.410
328004.676,4275256.880,-2269.402
328004.676,4275056.880,-2274.053
328004.676,4274856.880,-2282.916
328004.676,4274656.880,-2293.288
328004.676,4274456.880,-2300.454
328004.676,4274256.880,-2298.849
328004.676,4274056.880,-2302.092
328004.676,4273856.880,-2302.842
328004.676,4273656.880,-2306.549
328004.676,4273456.880,-2305.764
328004.676,4273256.880,-2302.393
328004.676,4273056.880,-2302.341
328004.676,4272856.880,-2305.909
328004.676,4272656.880,-2305.734
328004.676,4272456.880,-2308.001
328004.676,4272256.880,-2310.616
328004.676,4272056.880,-2311.089
328004.676,4271856.880,-2311.776
328004.676,4271656.880,-2315.069
328004.676,4271456.880,-2315.238
328004.676,4271256.880,-2313.714
328004.676,4271056.880,-2304.624
328004.676,4270856.880,-2303.922
328004.676,4270656.880,-2317.038
328004.676,4270456.880,-2316.595
328004.676,4270256.880,-2314.725
328004.676,4270056.880,-2312.736
328204.676,4304856.880,-3008.536
328204.676,4304656.880,-3004.999
328204.676,4304456.880,-3000.959
328204.676,4304256.880,-2999.627
328204.676,4304056.880,-3005.598
328204.676,4303856.880,-3020.715
328204.676,4303656.880,-3037.405
328204.676,4303456.880,-3059.520
328204.676,4303256.880,-3044.676
328204.676,4303056.880,-3034.787
328204.676,4302856.880,-3023.455
328204.676,4302656.880,-2998.076
328204.676,4302456.880,-2992.609
328204.676,4302256.880,-2964.272
328204.676,4302056.880,-2961.746
328204.676,4301856.880,-2930.997
328204.676,4301656.880,-2919.780
328204.676,4301456.880,-2886.979
328204.676,4301256.880,-2885.198
328204.676,4301056.880,-2872.462
328204.676,4300856.880,-2872.046
328204.676,4300656.880,-2867.034
328204.676,4300456.880,-2848.035
328204.676,4300256.880,-2831.311
328204.676,4300056.880,-2804.547
328204.676,4299856.880,-2763.685
328204.676,4299656.880,-2743.913
328204.676,4299456.880,-2669.423
328204.676,4299256.880,-2588.879
328204.676,4299056.880,-2529.271
328204.676,4298856.880,-2500.538
328204.676,4298656.880,-2477.088
328204.676,4298456.880,-2480.411
328204.676,4298256.880,-2472.351
328204.676,4298056.880,-2447.046
328204.676,4297856.880,-2433.314
328204.676,4297656.880,-2398.679
328204.676,4297456.880,-2376.113
328204.676,4297256.880,-2339.017
328204.676,4297056.880,-2278.283
328204.676,4296856.880,-2245.865
328204.676,4296656.880,-2211.561
328204.676,4296456.880,-2215.363
328204.676,4296256.880,-2203.315
328204.676,4296056.880,-2152.365
328204.676,4295856.880,-2075.009
328204.676,4295656.880,-1988.702
328204.676,4295456.880,-1947.489
328204.676,4295256.880,-1942.337
328204.676,4295056.880,-1909.193
328204.676,4294856.880,-1879.566
328204.676,4294656.880,-1870.123
328204.676,4294456.880,-1850.816
328204.676,4294256.880,-1810.120
328204.676,4294056.880,-1792.285
328204.676,4293856.880,-1742.389
328204.676,4293656.880,-1721.176
328204.676,4293456.880,-1725.768
328204.676,4293256.880,-1725.568
328204.676,4293056.880,-1711.795
328204.676,4292856.880,-1703.686
328204.676,4292656.880,-1700.264
328204.676,4292456.880,-1690.966
328204.676,4292256.880,-1679.644
328204.676,4292056.880,-1661.648
328204.676,4291856.880,-1651.866
328204.676,4291656.880,-1638.628
328204.676,4291456.880,-1622.675
328204.676,4291256.880,-1606.421
328204.676,4291056.880,-1590.388
328204.676,4290856.880,-1580.418
328204.676,4290656.880,-1528.905
328204.676,4290456.880,-1540.489
328204.676,4290256.880,-1563.336
328204.676,4290056.880,-1554.818
328204.676,4289856.880,-1524.927
328204.676,4289656.880,-1514.064
328204.676,4289456.880,-1501.462
328204.676,4289256.880,-1485.753
328204.676,4289056.880,-1472.332
328204.676,4288856.880,-1460.531
328204.676,4288656.880,-1454.871
328204.676,4288456.880,-1449.039
328204.676,4288256.880,-1447.208
328204.676,4288056.880,-1420.589
328204.676,4287856.880,-1385.020
328204.676,4287656.880,-1344.964
328204.676,4287456.880,-1294.090
328204.676,4287256.880,-1247.794
328204.676,4287056.880,-1200.144
328204.676,4286856.880,-1134.249
328204.676,4286656.880,-1066.537
328204.676,4286456.880,-1014.045
328204.676,4286256.880,-971.141
328204.676,4286056.880,-933.682
328204.676,4285856.880,-898.078
328204.676,4285656.880,-835.975
328204.676,4285456.880,-814.272
328204.676,4285256.880,-803.179
328204.676,4285056.880,-806.800
328204.676,4284856.880,-782.949
328204.676,4284656.880,-773.693
328204.676,4284456.880,-802.073
328204.676,4284256.880,-839.974
328204.676,4284056.880,-913.377
328204.676,4283856.880,-967.247
328204.676,4283656.880,-1007.629
328204.676,4283456.880,-1023.281
328204.676,4283256.880,-1011.778
328204.676,4283056.880,-1005.666
328204.676,4282856.880,-950.535
328204.676,4282656.880,-987.408
328204.676,4282456.880,-1010.341
328204.676,4282256.880,-1064.867
328204.676,4282056.880,-1117.833
328204.676,4281856.880,-1184.437
328204.676,4281656.880,-1260.047
328204.676,4281456.880,-1309.250
328204.676,4281256.880,-1300.329
328204.676,4281056.880,-1320.877
328204.676,4280856.880,-1353.930
328204.676,4280656.880,-1442.305
328204.676,4280456.880,-1504.366
328204.676,4280256.880,-1559.848
328204.676,4280056.880,-1579.561
328204.676,4279856.880,-1596.367
328204.676,4279656.880,-1678.295
328204.676,4279456.880,-1753.131
328204.676,4279256.880,-1803.757
328204.676,4279056.880,-1836.627
328204.676,4278856.880,-1857.547
328204.676,4278656.880,-1893.316
328204.676,4278456.880,-1981.844
328204.676,4278256.880,-2031.887
328204.676,4278056.880,-2047.463
328204.676,4277856.880,-2063.817
328204.676,4277656.880,-2071.204
328204.676,4277456.880,-2083.221
328204.676,4277256.880,-2126.946
328204.676,4277056.880,-2184.823
328204.676,4276856.880,-2209.942
328204.676,4276656.880,-2217.295
328204.676,4276456.880,-2233.912
328204.676,4276256.880,-2242.905
328204.676,4276056.880,-2251.217
328204.676,4275856.880,-2251.375
328204.676,4275656.880,-2252.638
328204.676,4275456.880,-2259.607
328204.676,4275256.880,-2269.920
328204.676,4275056.880,-2279.281
328204.676,4274856.880,-2291.724
328204.676,4274656.880,-2297.356
328204.676,4274456.880,-2302.274
328204.676,4274256.880,-2301.847
328204.676,4274056.880,-2305.623
328204.676,4273856.880,-2305.164
328204.676,4273656.880,-2307.827
328204.676,4273456.880,-2308.865
328204.676,4273256.880,-2294.200
328204.676,4273056.880,-2304.662
328204.676,4272856.880,-2307.502
328204.676,4272656.880,-2308.195
328204.676,4272456.880,-2308.815
328204.676,4272256.880,-2310.151
328204.676,4272056.880,-2310.105
328204.676,4271856.880,-2312.544
328204.676,4271656.880,-2315.013
328204.676,4271456.880,-2315.265
328204.676,4271256.880,-2317.224
328204.676,4271056.880,-2313.312
328204.676,4270856.880,-2289.093
328204.676,4270656.880,-2311.118
328204.676,4270456.880,-2317.386
328204.676,4270256.880,-2317.952
328204.676,4270056.880,-2318.308
328404.676,4304856.880,-3012.703
328404.676,4304656.880,-3006.254
328404.676,4304456.880,-2998.271
328404.676,4304256.880,-2996.184
328404.676,4304056.880,-3007.074
328404.676,4303856.880,-3027.798
328404.676,4303656.880,-3045.670
328404.676,4303456.880,-3058.722
328404.676,4303256.880,-3046.245
328404.676,4303056.880,-3039.413
328404.676,4302856.880,-3027.315
328404.676,4302656.880,-3012.624
328404.676,4302456.880,-2985.821
328404.676,4302256.880,-2983.694
328404.676,4302056.880,-2971.273
328404.676,4301856.880,-2935.041
328404.676,4301656.880,-2934.182
328404.676,4301456.880,-2901.751
328404.676,4301256.880,-2894.795
328404.676,4301056.880,-2881.190
328404.676,4300856.880,-2869.448
328404.676,4300656.880,-2854.230
328404.676,4300456.880,-2832.531
328404.676,4300256.880,-2803.979
328404.676,4300056.880,-2789.955
328404.676,4299856.880,-2776.146
328404.676,4299656.880,-2752.039
328404.676,4299456.880,-2675.711
328404.676,4299256.880,-2630.644
328404.676,4299056.880,-2581.970
328404.676,4298856.880,-2518.115
328404.676,4298656.880,-2495.596
328404.676,4298456.880,-2459.065
328404.676,4298256.880,-2440.092
328404.676,4298056.880,-2428.680
328404.676,4297856.880,-2410.294
328404.676,4297656.880,-2405.873
328404.676,4297456.880,-2363.022
328404.676,4297256.880,-2299.310
328404.676,4297056.880,-2240.850
328404.676,4296856.880,-2231.280
328404.676,4296656.880,-2224.928
328404.676,4296456.880,-2197.320
328404.676,4296256.880,-2186.307
328404.676,4296056.880,-2134.908
328404.676,4295856.880,-2062.421
328404.676,4295656.880,-2008.266
328404.676,4295456.880,-1997.104
328404.676,4295256.880,-1980.950
328404.676,4295056.880,-1924.707
328404.676,4294856.880,-1898.048
328404.676,4294656.880,-1879.116
328404.676,4294456.880,-1859.637
328404.676,4294256.880,-1773.412
328404.676,4294056.880,-1781.594
328404.676,4293856.880,-1749.821
328404.676,4293656.880,-1740.047
328404.676,4293456.880,-1733.015
328404.676,4293256.880,-1709.533
328404.676,4293056.880,-1698.011
328404.676,4292856.880,-1693.553
328404.676,4292656.880,-1687.844
328404.676,4292456.880,-1682.131
328404.676,4292256.880,-1678.052
328404.676,4292056.880,-1671.367
328404.676,4291856.880,-1661.783
328404.676,4291656.880,-1645.385
328404.676,4291456.880,-1626.938
328404.676,4291256.880,-1614.495
328404.676,4291056.880,-1588.688
328404.676,4290856.880,-1590.695
328404.676,4290656.880,-1558.640
328404.676,4290456.880,-1564.060
328404.676,4290256.880,-1565.917
328404.676,4290056.880,-1555.411
328404.676,4289856.880,-1531.640
328404.676,4289656.880,-1515.050
328404.676,4289456.880,-1495.434
328404.676,4289256.880,-1473.325
328404.676,4289056.880,-1462.354
328404.676,4288856.880,-1457.805
328404.676,4288656.880,-1456.095
328404.676,4288456.880,-1455.812
328404.676,4288256.880,-1448.589
328404.676,4288056.880,-1422.164
328404.676,4287856.880,-1352.915
328404.676,4287656.880,-1310.541
328404.676,4287456.880,-1271.168
328404.676,4287256.880,-1214.653
328404.676,4287056.880,-1168.848
328404.676,4286856.880,-1132.735
328404.676,4286656.880,-1084.275
328404.676,4286456.880,-1036.753
328404.676,4286256.880,-992.534
328404.676,4286056.880,-948.763
328404.676,4285856.880,-907.931
328404.676,4285656.880,-838.237
328404.676,4285456.880,-812.807
328404.676,4285256.880,-808.228
328404.676,4285056.880,-799.084
328404.676,4284856.880,-769.998
328404.676,4284656.880,-755.804
328404.676,4284456.880,-783.208
328404.676,4284256.880,-837.419
328404.676,4284056.880,-914.316
328404.676,4283856.880,-963.551
328404.676,4283656.880,-1004.807
328404.676,4283456.880,-997.527
328404.676,4283256.880,-970.289
328404.676,4283056.880,-953.652
328404.676,4282856.880,-922.317
328404.676,4282656.880,-955.192
328404.676,4282456.880,-988.367
328404.676,4282256.880,-1040.061
328404.676,4282056.880,-1101.968
328404.676,4281856.880,-1186.795
328404.676,4281656.880,-1272.869
328404.676,4281456.880,-1318.269
328404.676,4281256.880,-1393.187
328404.676,4281056.880,-1410.516
328404.676,4280856.880,-1435.780
328404.676,4280656.880,-1419.711
328404.676,4280456.880,-1496.401
328404.676,4280256.880,-1556.227
328404.676,4280056.880,-1593.099
328404.676,4279856.880,-1627.537
328404.676,4279656.880,-1723.617
328404.676,4279456.880,-1766.549
328404.676,4279256.880,-1815.924
328404.676,4279056.880,-1833.510
328404.676,4278856.880,-1864.958
328404.676,4278656.880,-1893.713
328404.676,4278456.880,-1963.677
328404.676,4278256.880,-2030.386
328404.676,4278056.880,-2045.334
328404.676,4277856.880,-2061.883
328404.676,4277656.880,-2073.988
328404.676,4277456.880,-2077.907
328404.676,4277256.880,-2109.446
328404.676,4277056.880,-2182.508
328404.676,4276856.880,-2199.859
328404.676,4276656.880,-2203.117
328404.676,4276456.880,-2195.115
328404.676,4276256.880,-2222.989
328404.676,4276056.880,-2241.235
328404.676,4275856.880,-2243.142
328404.676,4275656.880,-2249.581
328404.676,4275456.880,-2255.809
328404.676,4275256.880,-2268.212
328404.676,4275056.880,-2283.299
328404.676,4274856.880,-2293.296
328404.676,4274656.880,-2297.698
328404.676,4274456.880,-2304.035
328404.676,4274256.880,-2300.808
328404.676,4274056.880,-2302.611
328404.676,4273856.880,-2307.269
328404.676,4273656.880,-2308.777
328404.676,4273456.880,-2312.032
328404.676,4273256.880,-2304.020
328404.676,4273056.880,-2296.979
328404.676,4272856.880,-2306.966
328404.676,4272656.880,-2308.492
328404.676,4272456.880,-2306.991
328404.676,4272256.880,-2305.893
328404.676,4272056.880,-2308.398
328404.676,4271856.880,-2312.446
328404.676,4271656.880,-2315.122
328404.676,4271456.880,-2314.655
328404.676,4271256.880,-2315.559
328404.676,4271056.880,-2314.054
328404.676,4270856.880,-2308.311
328404.676,4270656.880,-2296.135
328404.676,4270456.880,-2316.705
328404.676,4270256.880,-2317.952
328404.676,4270056.880,-2316.799
328604.676,4304856.880,-3022.623
328604.676,4304656.880,-3012.072
328604.676,4304456.880,-2997.089
328604.676,4304256.880,-2989.330
328604.676,4304056.880,-3000.931
328604.676,4303856.880,-3026.731
328604.676,4303656.880,-3048.466
328604.676,4303456.880,-3057.613
328604.676,4303256.880,-3046.486
328604.676,4303056.880,-3039.695
328604.676,4302856.880,-3027.839
328604.676,4302656.880,-3015.237
328604.676,4302456.880,-3005.060
328604.676,4302256.880,-2975.510
328604.676,4302056.880,-2951.327
328604.676,4301856.880,-2943.963
328604.676,4301656.880,-2922.235
328604.676,4301456.880,-2907.974
328604.676,4301256.880,-2894.263
328604.676,4301056.880,-2874.382
328604.676,4300856.880,-2861.998
328604.676,4300656.880,-2864.922
328604.676,4300456.880,-2815.609
328604.676,4300256.880,-2786.141
328604.676,4300056.880,-2784.724
328604.676,4299856.880,-2777.717
328604.676,4299656.880,-2752.013
328604.676,4299456.880,-2695.717
328604.676,4299256.880,-2669.493
328604.676,4299056.880,-2624.666
328604.676,4298856.880,-2576.951
328604.676,4298656.880,-2517.840
328604.676,4298456.880,-2453.849
328604.676,4298256.880,-2426.595
328604.676,4298056.880,-2419.231
328604.676,4297856.880,-2419.105
328604.676,4297656.880,-2386.955
328604.676,4297456.880,-2363.493
328604.676,4297256.880,-2301.099
328604.676,4297056.880,-2263.147
328604.676,4296856.880,-2219.862
328604.676,4296656.880,-2206.523
328604.676,4296456.880,-2172.280
328604.676,4296256.880,-2144.004
328604.676,4296056.880,-2099.726
328604.676,4295856.880,-2045.865
328604.676,4295656.880,-2026.701
328604.676,4295456.880,-2009.241
328604.676,4295256.880,-1979.844
328604.676,4295056.880,-1932.899
328604.676,4294856.880,-1908.728
328604.676,4294656.880,-1889.586
328604.676,4294456.880,-1861.685
328604.676,4294256.880,-1772.757
328604.676,4294056.880,-1758.402
328604.676,4293856.880,-1751.345
328604.676,4293656.880,-1741.620
328604.676,4293456.880,-1716.805
328604.676,4293256.880,-1696.009
328604.676,4293056.880,-1679.194
328604.676,4292856.880,-1681.935
328604.676,4292656.880,-1684.401
328604.676,4292456.880,-1676.888
328604.676,4292256.880,-1675.011
328604.676,4292056.880,-1668.118
328604.676,4291856.880,-1652.045
328604.676,4291656.880,-1643.467
328604.676,4291456.880,-1631.615
328604.676,4291256.880,-1610.324
328604.676,4291056.880,-1609.248
328604.676,4290856.880,-1598.556
328604.676,4290656.880,-1580.849
328604.676,4290456.880,-1571.580
328604.676,4290256.880,-1566.584
328604.676,4290056.880,-1545.646
328604.676,4289856.880,-1519.506
328604.676,4289656.880,-1499.870
328604.676,4289456.880,-1485.086
328604.676,4289256.880,-1469.088
328604.676,4289056.880,-1461.141
328604.676,4288856.880,-1460.028
328604.676,4288656.880,-1458.798
328604.676,4288456.880,-1458.988
328604.676,4288256.880,-1450.883
328604.676,4288056.880,-1420.531
328604.676,4287856.880,-1347.578
328604.676,4287656.880,-1301.696
328604.676,4287456.880,-1242.967
328604.676,4287256.880,-1189.309
328604.676,4287056.880,-1151.844
328604.676,4286856.880,-1109.444
328604.676,4286656.880,-1081.078
328604.676,4286456.880,-1036.348
328604.676,4286256.880,-993.814
328604.676,4286056.880,-956.460
328604.676,4285856.880,-914.188
328604.676,4285656.880,-873.183
328604.676,4285456.880,-811.058
328604.676,4285256.880,-810.141
328604.676,4285056.880,-795.144
328604.676,4284856.880,-757.552
328604.676,4284656.880,-754.140
328604.676,4284456.880,-776.704
328604.676,4284256.880,-838.833
328604.676,4284056.880,-909.618
328604.676,4283856.880,-961.241
328604.676,4283656.880,-979.991
328604.676,4283456.880,-955.555
328604.676,4283256.880,-910.840
328604.676,4283056.880,-894.819
328604.676,4282856.880,-898.847
328604.676,4282656.880,-931.110
328604.676,4282456.880,-967.476
328604.676,4282256.880,-1030.654
328604.676,4282056.880,-1128.028
328604.676,4281856.880,-1209.206
328604.676,4281656.880,-1281.654
328604.676,4281456.880,-1358.557
328604.676,4281256.880,-1441.504
328604.676,4281056.880,-1464.416
328604.676,4280856.880,-1488.048
328604.676,4280656.880,-1488.202
328604.676,4280456.880,-1493.569
328604.676,4280256.880,-1546.520
328604.676,4280056.880,-1605.327
328604.676,4279856.880,-1630.885
328604.676,4279656.880,-1706.304
328604.676,4279456.880,-1776.112
328604.676,4279256.880,-1816.843
328604.676,4279056.880,-1833.686
328604.676,4278856.880,-1868.622
328604.676,4278656.880,-1914.564
328604.676,4278456.880,-2008.198
328604.676,4278256.880,-2045.659
328604.676,4278056.880,-2049.039
328604.676,4277856.880,-2064.564
328604.676,4277656.880,-2074.738
328604.676,4277456.880,-2084.044
328604.676,4277256.880,-2107.466
328604.676,4277056.880,-2140.856
328604.676,4276856.880,-2188.678
328604.676,4276656.880,-2180.676
328604.676,4276456.880,-2178.376
328604.676,4276256.880,-2207.080
328604.676,4276056.880,-2225.329
328604.676,4275856.880,-2240.432
328604.676,4275656.880,-2249.077
328604.676,4275456.880,-2257.765
328604.676,4275256.880,-2265.253
328604.676,4275056.880,-2285.698
328604.676,4274856.880,-2294.641
328604.676,4274656.880,-2298.145
328604.676,4274456.880,-2297.465
328604.676,4274256.880,-2301.069
328604.676,4274056.880,-2302.214
328604.676,4273856.880,-2305.736
328604.676,4273656.880,-2310.090
328604.676,4273456.880,-2311.817
328604.676,4273256.880,-2307.380
328604.676,4273056.880,-2300.451
328604.676,4272856.880,-2299.597
328604.676,4272656.880,-2305.677
328604.676,4272456.880,-2305.804
328604.676,4272256.880,-2305.606
328604.676,4272056.880,-2307.577
328604.676,4271856.880,-2312.472
328604.676,4271656.880,-2312.935
328604.676,4271456.880,-2313.605
328604.676,4271256.880,-2314.767
328604.676,4271056.880,-2312.931
328604.676,4270856.880,-2306.765
328604.676,4270656.880,-2294.431
328604.676,4270456.880,-2306.013
328604.676,4270256.880,-2318.200
328604.676,4270056.880,-2317.489
328804.676,4304856.880,-3036.328
328804.676,4304656.880,-3024.248
328804.676,4304456.880,-3005.718
328804.676,4304256.880,-2992.570
328804.676,4304056.880,-2999.639
328804.676,4303856.880,-3024.561
328804.676,4303656.880,-3048.360
328804.676,4303456.880,-3053.057
328804.676,4303256.880,-3048.539
328804.676,4303056.880,-3043.761
328804.676,4302856.880,-3030.505
328804.676,4302656.880,-3022.470
328804.676,4302456.880,-3009.757
328804.676,4302256.880,-2995.173
328804.676,4302056.880,-2959.817
328804.676,4301856.880,-2937.963
328804.676,4301656.880,-2917.097
328804.676,4301456.880,-2895.576
328804.676,4301256.880,-2884.542
328804.676,4301056.880,-2866.989
328804.676,4300856.880,-2873.592
328804.676,4300656.880,-2843.810
328804.676,4300456.880,-2818.772
328804.676,4300256.880,-2796.223
328804.676,4300056.880,-2795.613
328804.676,4299856.880,-2754.452
328804.676,4299656.880,-2731.682
328804.676,4299456.880,-2705.464
328804.676,4299256.880,-2678.210
328804.676,4299056.880,-2671.870
328804.676,4298856.880,-2646.760
328804.676,4298656.880,-2562.136
328804.676,4298456.880,-2468.206
328804.676,4298256.880,-2409.180
328804.676,4298056.880,-2424.613
328804.676,4297856.880,-2414.459
328804.676,4297656.880,-2384.008
328804.676,4297456.880,-2365.340
328804.676,4297256.880,-2289.366
328804.676,4297056.880,-2241.469
328804.676,4296856.880,-2221.212
328804.676,4296656.880,-2179.025
328804.676,4296456.880,-2162.408
328804.676,4296256.880,-2108.507
328804.676,4296056.880,-2072.708
328804.676,4295856.880,-2042.694
328804.676,4295656.880,-2030.127
328804.676,4295456.880,-2014.295
328804.676,4295256.880,-1993.854
328804.676,4295056.880,-1964.129
328804.676,4294856.880,-1927.615
328804.676,4294656.880,-1890.980
328804.676,4294456.880,-1884.730
328804.676,4294256.880,-1781.495
328804.676,4294056.880,-1757.578
328804.676,4293856.880,-1752.662
328804.676,4293656.880,-1739.742
328804.676,4293456.880,-1720.928
328804.676,4293256.880,-1692.044
328804.676,4293056.880,-1684.248
328804.676,4292856.880,-1693.434
328804.676,4292656.880,-1690.079
328804.676,4292456.880,-1674.245
328804.676,4292256.880,-1659.118
328804.676,4292056.880,-1649.616
328804.676,4291856.880,-1642.265
328804.676,4291656.880,-1618.857
328804.676,4291456.880,-1606.338
328804.676,4291256.880,-1602.864
328804.676,4291056.880,-1600.849
328804.676,4290856.880,-1598.310
328804.676,4290656.880,-1584.657
328804.676,4290456.880,-1568.041
328804.676,4290256.880,-1547.347
328804.676,4290056.880,-1525.718
328804.676,4289856.880,-1513.880
328804.676,4289656.880,-1493.156
328804.676,4289456.880,-1479.919
328804.676,4289256.880,-1470.639
328804.676,4289056.880,-1465.105
328804.676,4288856.880,-1463.473
328804.676,4288656.880,-1462.374
328804.676,4288456.880,-1459.256
328804.676,4288256.880,-1453.115
328804.676,4288056.880,-1405.047
328804.676,4287856.880,-1338.053
328804.676,4287656.880,-1280.551
328804.676,4287456.880,-1253.821
328804.676,4287256.880,-1216.130
328804.676,4287056.880,-1162.499
328804.676,4286856.880,-1117.326
328804.676,4286656.880,-1071.355
328804.676,4286456.880,-1029.939
328804.676,4286256.880,-986.944
328804.676,4286056.880,-948.912
328804.676,4285856.880,-910.377
328804.676,4285656.880,-881.677
328804.676,4285456.880,-810.652
328804.676,4285256.880,-815.332
328804.676,4285056.880,-787.847
328804.676,4284856.880,-753.730
328804.676,4284656.880,-751.502
328804.676,4284456.880,-770.874
328804.676,4284256.880,-822.078
328804.676,4284056.880,-890.308
328804.676,4283856.880,-948.809
328804.676,4283656.880,-967.717
328804.676,4283456.880,-920.680
328804.676,4283256.880,-829.073
328804.676,4283056.880,-827.049
328804.676,4282856.880,-880.401
328804.676,4282656.880,-915.649
328804.676,4282456.880,-953.632
328804.676,4282256.880,-1034.685
328804.676,4282056.880,-1159.588
328804.676,4281856.880,-1234.127
328804.676,4281656.880,-1316.014
328804.676,4281456.880,-1406.726
328804.676,4281256.880,-1456.514
328804.676,4281056.880,-1477.223
328804.676,4280856.880,-1523.405
328804.676,4280656.880,-1548.071
328804.676,4280456.880,-1537.490
328804.676,4280256.880,-1589.667
328804.676,4280056.880,-1656.559
328804.676,4279856.880,-1686.661
328804.676,4279656.880,-1751.932
328804.676,4279456.880,-1794.540
328804.676,4279256.880,-1813.346
328804.676,4279056.880,-1843.079
328804.676,4278856.880,-1884.898
328804.676,4278656.880,-1917.542
328804.676,4278456.880,-1987.921
328804.676,4278256.880,-2040.634
328804.676,4278056.880,-2059.635
328804.676,4277856.880,-2071.839
328804.676,4277656.880,-2099.338
328804.676,4277456.880,-2103.371
328804.676,4277256.880,-2096.751
328804.676,4277056.880,-2100.229
328804.676,4276856.880,-2158.802
328804.676,4276656.880,-2181.749
328804.676,4276456.880,-2194.624
328804.676,4276256.880,-2211.098
328804.676,4276056.880,-2234.831
328804.676,4275856.880,-2242.115
328804.676,4275656.880,-2249.689
328804.676,4275456.880,-2257.847
328804.676,4275256.880,-2266.484
328804.676,4275056.880,-2282.117
328804.676,4274856.880,-2290.356
328804.676,4274656.880,-2293.945
328804.676,4274456.880,-2298.211
328804.676,4274256.880,-2302.709
328804.676,4274056.880,-2306.164
328804.676,4273856.880,-2306.753
328804.676,4273656.880,-2309.594
328804.676,4273456.880,-2311.877
328804.676,4273256.880,-2311.989
328804.676,4273056.880,-2300.589
328804.676,4272856.880,-2299.766
328804.676,4272656.880,-2301.128
328804.676,4272456.880,-2303.313
328804.676,4272256.880,-2305.496
328804.676,4272056.880,-2307.213
328804.676,4271856.880,-2309.565
328804.676,4271656.880,-2311.573
328804.676,4271456.880,-2313.329
328804.676,4271256.880,-2315.128
328804.676,4271056.880,-2312.747
328804.676,4270856.880,-2314.003
328804.676,4270656.880,-2301.810
328804.676,4270456.880,-2291.802
328804.676,4270256.880,-2301.101
328804.676,4270056.880,-2318.522
329004.676,4304856.880,-3045.217
329004.676,4304656.880,-3035.150
329004.676,4304456.880,-3019.630
329004.676,4304256.880,-3008.820
329004.676,4304056.880,-3014.649
329004.676,4303856.880,-3035.219
329004.676,4303656.880,-3054.666
329004.676,4303456.880,-3062.889
329004.676,4303256.880,-3057.654
329004.676,4303056.880,-3035.401
329004.676,4302856.880,-3028.279
329004.676,4302656.880,-3015.932
329004.676,4302456.880,-3014.308
329004.676,4302256.880,-3002.142
329004.676,4302056.880,-2971.306
329004.676,4301856.880,-2926.148
329004.676,4301656.880,-2912.943
329004.676,4301456.880,-2909.709
329004.676,4301256.880,-2904.004
329004.676,4301056.880,-2884.977
329004.676,4300856.880,-2866.351
329004.676,4300656.880,-2853.979
329004.676,4300456.880,-2821.980
329004.676,4300256.880,-2796.533
329004.676,4300056.880,-2764.693
329004.676,4299856.880,-2751.428
329004.676,4299656.880,-2734.900
329004.676,4299456.880,-2718.827
329004.676,4299256.880,-2691.257
329004.676,4299056.880,-2666.197
329004.676,4298856.880,-2646.570
329004.676,4298656.880,-2587.440
329004.676,4298456.880,-2484.351
329004.676,4298256.880,-2436.535
329004.676,4298056.880,-2423.895
329004.676,4297856.880,-2388.817
329004.676,4297656.880,-2365.196
329004.676,4297456.880,-2326.633
329004.676,4297256.880,-2300.358
329004.676,4297056.880,-2262.271
329004.676,4296856.880,-2217.041
329004.676,4296656.880,-2166.293
329004.676,4296456.880,-2106.418
329004.676,4296256.880,-2105.087
329004.676,4296056.880,-2086.565
329004.676,4295856.880,-2073.928
329004.676,4295656.880,-2052.188
329004.676,4295456.880,-2017.431
329004.676,4295256.880,-1997.270
329004.676,4295056.880,-1972.944
329004.676,4294856.880,-1927.297
329004.676,4294656.880,-1900.845
329004.676,4294456.880,-1847.491
329004.676,4294256.880,-1772.565
329004.676,4294056.880,-1762.011
329004.676,4293856.880,-1751.561
329004.676,4293656.880,-1747.508
329004.676,4293456.880,-1725.214
329004.676,4293256.880,-1723.920
329004.676,4293056.880,-1726.880
329004.676,4292856.880,-1717.346
329004.676,4292656.880,-1689.463
329004.676,4292456.880,-1656.767
329004.676,4292256.880,-1660.757
329004.676,4292056.880,-1641.540
329004.676,4291856.880,-1638.211
329004.676,4291656.880,-1616.630
329004.676,4291456.880,-1609.272
329004.676,4291256.880,-1596.127
329004.676,4291056.880,-1596.141
329004.676,4290856.880,-1585.470
329004.676,4290656.880,-1579.782
329004.676,4290456.880,-1558.339
329004.676,4290256.880,-1540.111
329004.676,4290056.880,-1525.672
329004.676,4289856.880,-1511.640
329004.676,4289656.880,-1496.706
329004.676,4289456.880,-1482.913
329004.676,4289256.880,-1472.626
329004.676,4289056.880,-1468.044
329004.676,4288856.880,-1464.388
329004.676,4288656.880,-1464.561
329004.676,4288456.880,-1463.252
329004.676,4288256.880,-1449.260
329004.676,4288056.880,-1387.420
329004.676,4287856.880,-1338.239
329004.676,4287656.880,-1278.783
329004.676,4287456.880,-1251.599
329004.676,4287256.880,-1210.033
329004.676,4287056.880,-1165.155
329004.676,4286856.880,-1103.197
329004.676,4286656.880,-1060.889
329004.676,4286456.880,-1021.120
329004.676,4286256.880,-982.497
329004.676,4286056.880,-943.670
329004.676,4285856.880,-905.548
329004.676,4285656.880,-846.790
329004.676,4285456.880,-808.008
329004.676,4285256.880,-815.300
329004.676,4285056.880,-773.245
329004.676,4284856.880,-746.459
329004.676,4284656.880,-740.284
329004.676,4284456.880,-758.136
329004.676,4284256.880,-807.409
329004.676,4284056.880,-853.100
329004.676,4283856.880,-925.988
329004.676,4283656.880,-958.457
329004.676,4283456.880,-873.203
329004.676,4283256.880,-791.900
329004.676,4283056.880,-817.348
329004.676,4282856.880,-868.541
329004.676,4282656.880,-907.008
329004.676,4282456.880,-946.122
329004.676,4282256.880,-1050.545
329004.676,4282056.880,-1166.508
329004.676,4281856.880,-1226.744
329004.676,4281656.880,-1322.976
329004.676,4281456.880,-1399.607
329004.676,4281256.880,-1474.211
329004.676,4281056.880,-1517.699
329004.676,4280856.880,-1575.004
329004.676,4280656.880,-1607.593
329004.676,4280456.880,-1609.271
329004.676,4280256.880,-1642.141
329004.676,4280056.880,-1690.247
329004.676,4279856.880,-1730.793
329004.676,4279656.880,-1785.744
329004.676,4279456.880,-1814.606
329004.676,4279256.880,-1825.422
329004.676,4279056.880,-1865.350
329004.676,4278856.880,-1907.654
329004.676,4278656.880,-1944.359
329004.676,4278456.880,-1998.370
329004.676,4278256.880,-2051.563
329004.676,4278056.880,-2065.130
329004.676,4277856.880,-2093.946
329004.676,4277656.880,-2119.819
329004.676,4277456.880,-2128.559
329004.676,4277256.880,-2130.750
329004.676,4277056.880,-2134.201
329004.676,4276856.880,-2134.286
329004.676,4276656.880,-2174.051
329004.676,4276456.880,-2197.568
329004.676,4276256.880,-2211.466
329004.676,4276056.880,-2229.672
329004.676,4275856.880,-2242.615
329004.676,4275656.880,-2252.590
329004.676,4275456.880,-2257.923
329004.676,4275256.880,-2262.028
329004.676,4275056.880,-2278.197
329004.676,4274856.880,-2288.976
329004.676,4274656.880,-2293.814
329004.676,4274456.880,-2299.872
329004.676,4274256.880,-2303.261
329004.676,4274056.880,-2305.562
329004.676,4273856.880,-2308.483
329004.676,4273656.880,-2309.148
329004.676,4273456.880,-2312.030
329004.676,4273256.880,-2313.823
329004.676,4273056.880,-2307.066
329004.676,4272856.880,-2301.639
329004.676,4272656.880,-2302.897
329004.676,4272456.880,-2301.289
329004.676,4272256.880,-2305.978
329004.676,4272056.880,-2305.655
329004.676,4271856.880,-2307.167
329004.676,4271656.880,-2311.228
329004.676,4271456.880,-2314.548
329004.676,4271256.880,-2312.592
329004.676,4271056.880,-2303.221
329004.676,4270856.880,-2303.778
329004.676,4270656.880,-2310.560
329004.676,4270456.880,-2308.969
329004.676,4270256.880,-2282.089
329004.676,4270056.880,-2294.672
329204.676,4304856.880,-3044.236
329204.676,4304656.880,-3039.322
329204.676,4304456.880,-3033.135
329204.676,4304256.880,-3032.974
329204.676,4304056.880,-3043.118
329204.676,4303856.880,-3058.297
329204.676,4303656.880,-3067.804
329204.676,4303456.880,-3066.768
329204.676,4303256.880,-3054.063
329204.676,4303056.880,-3042.723
329204.676,4302856.880,-3030.013
329204.676,4302656.880,-3019.543
329204.676,4302456.880,-3010.684
329204.676,4302256.880,-3000.758
329204.676,4302056.880,-2961.419
329204.676,4301856.880,-2949.927
329204.676,4301656.880,-2917.957
329204.676,4301456.880,-2890.259
329204.676,4301256.880,-2903.460
329204.676,4301056.880,-2887.699
329204.676,4300856.880,-2876.927
329204.676,4300656.880,-2850.389
329204.676,4300456.880,-2834.823
329204.676,4300256.880,-2790.625
329204.676,4300056.880,-2769.205
329204.676,4299856.880,-2741.169
329204.676,4299656.880,-2743.690
329204.676,4299456.880,-2733.698
329204.676,4299256.880,-2700.611
329204.676,4299056.880,-2681.432
329204.676,4298856.880,-2633.383
329204.676,4298656.880,-2636.572
329204.676,4298456.880,-2593.421
329204.676,4298256.880,-2543.016
329204.676,4298056.880,-2455.653
329204.676,4297856.880,-2386.810
329204.676,4297656.880,-2364.602
329204.676,4297456.880,-2340.309
329204.676,4297256.880,-2330.904
329204.676,4297056.880,-2292.496
329204.676,4296856.880,-2263.415
329204.676,4296656.880,-2224.815
329204.676,4296456.880,-2197.730
329204.676,4296256.880,-2187.522
329204.676,4296056.880,-2142.401
329204.676,4295856.880,-2118.607
329204.676,4295656.880,-2076.486
329204.676,4295456.880,-2025.507
329204.676,4295256.880,-2002.567
329204.676,4295056.880,-1979.544
329204.676,4294856.880,-1923.394
329204.676,4294656.880,-1890.917
329204.676,4294456.880,-1791.881
329204.676,4294256.880,-1767.884
329204.676,4294056.880,-1764.717
329204.676,4293856.880,-1755.568
329204.676,4293656.880,-1744.490
329204.676,4293456.880,-1738.506
329204.676,4293256.880,-1729.015
329204.676,4293056.880,-1737.102
329204.676,4292856.880,-1727.328
329204.676,4292656.880,-1660.806
329204.676,4292456.880,-1635.169
329204.676,4292256.880,-1651.898
329204.676,4292056.880,-1628.230
329204.676,4291856.880,-1619.582
329204.676,4291656.880,-1608.218
329204.676,4291456.880,-1603.864
329204.676,4291256.880,-1595.820
329204.676,4291056.880,-1596.912
329204.676,4290856.880,-1589.317
329204.676,4290656.880,-1581.505
329204.676,4290456.880,-1558.676
329204.676,4290256.880,-1545.553
329204.676,4290056.880,-1531.160
329204.676,4289856.880,-1511.194
329204.676,4289656.880,-1493.474
329204.676,4289456.880,-1479.590
329204.676,4289256.880,-1473.025
329204.676,4289056.880,-1469.489
329204.676,4288856.880,-1465.671
329204.676,4288656.880,-1464.073
329204.676,4288456.880,-1465.434
329204.676,4288256.880,-1424.341
329204.676,4288056.880,-1367.838
329204.676,4287856.880,-1317.086
329204.676,4287656.880,-1273.804
329204.676,4287456.880,-1230.262
329204.676,4287256.880,-1182.523
329204.676,4287056.880,-1135.041
329204.676,4286856.880,-1089.326
329204.676,4286656.880,-1049.731
329204.676,4286456.880,-1011.337
329204.676,4286256.880,-973.786
329204.676,4286056.880,-921.536
329204.676,4285856.880,-883.603
329204.676,4285656.880,-834.804
329204.676,4285456.880,-814.089
329204.676,4285256.880,-801.074
329204.676,4285056.880,-761.330
329204.676,4284856.880,-740.670
329204.676,4284656.880,-738.997
329204.676,4284456.880,-757.473
329204.676,4284256.880,-794.751
329204.676,4284056.880,-843.377
329204.676,4283856.880,-897.367
329204.676,4283656.880,-927.217
