338304.996,4285720.005,-83.643 
338304.996,4285670.005,-83.878 
338304.996,4285620.005,-85.858 
338304.996,4285570.005,-88.367 
338304.996,4285520.005,-89.205 
338304.996,4285470.005,-89.362 
338304.996,4285420.005,-89.548 
338304.996,4285370.005,-89.602 
338304.996,4285320.005,-89.557 
338304.996,4285270.005,-89.906 
338304.996,4285220.005,-90.251 
338304.996,4285170.005,-90.917 
338304.996,4285120.005,-89.6 
338304.996,4285070.005,-90.204 
338304.996,4285020.005,-91.201 
338304.996,4284970.005,-94.796 
338304.996,4284920.005,-96.556 
338304.996,4284870.005,-99.482 
338304.996,4284820.005,-102.329 
338304.996,4284770.005,-104.601 
338304.996,4284720.005,-106.044 
338304.996,4284670.005,-108.426 
338304.996,4284620.005,-112.38 
338304.996,4284570.005,-117.792 
338304.996,4284520.005,-125.278 
338304.996,4284470.005,-136.92 
338304.996,4284420.005,-148.161 
338304.996,4284370.005,-152.743 
338304.996,4284320.005,-154.594 
338304.996,4284270.005,-162.034 
338354.996,4286770.005,-156.45 
338354.996,4286720.005,-138.263 
338354.996,4286670.005,-121.907 
338354.996,4286620.005,-109.58 
338354.996,4286570.005,-109.923 
338354.996,4286520.005,-102.356 
338354.996,4286470.005,-95.688 
338354.996,4286420.005,-95.992 
338354.996,4286370.005,-94.567 
338354.996,4286320.005,-93.01 
338354.996,4286270.005,-90.226 
338354.996,4286220.005,-88.394 
338354.996,4286170.005,-86.765 
338354.996,4286120.005,-86.51 
338354.996,4286070.005,-86.179 
338354.996,4286020.005,-86.281 
338354.996,4285970.005,-86.719 
338354.996,4285920.005,-86.221 
338354.996,4285870.005,-85.054 
338354.996,4285820.005,-83.551 
338354.996,4285770.005,-81.986 
338354.996,4285720.005,-81.61 
338354.996,4285670.005,-82.564 
338354.996,4285620.005,-84.264 
338354.996,4285570.005,-86.855 
338354.996,4285520.005,-88.068 
338354.996,4285470.005,-88.71 
338354.996,4285420.005,-89.207 
338354.996,4285370.005,-89.311 
338354.996,4285320.005,-89.1 
338354.996,4285270.005,-89.105 
338354.996,4285220.005,-89.404 
338354.996,4285170.005,-89.502 
338354.996,4285120.005,-89.305 
338354.996,4285070.005,-89.61 
338354.996,4285020.005,-90.351 
338354.996,4284970.005,-92.156 
338354.996,4284920.005,-94.001 
338354.996,4284870.005,-97.199 
338354.996,4284820.005,-99.326 
338354.996,4284770.005,-103.684 
338354.996,4284720.005,-105.043 
338354.996,4284670.005,-106.484 
338354.996,4284620.005,-109.262 
338354.996,4284570.005,-112.957 
338354.996,4284520.005,-120.097 
338354.996,4284470.005,-128.23 
338354.996,4284420.005,-142.949 
338354.996,4284370.005,-149.509 
338354.996,4284320.005,-151.906 
338354.996,4284270.005,-154.075 
338354.996,4284220.005,-159.768 
338404.996,4286770.005,-142.516 
338404.996,4286720.005,-125.909 
338404.996,4286670.005,-118.342 
338404.996,4286620.005,-109.012 
338404.996,4286570.005,-106.979 
338404.996,4286520.005,-99.535 
338404.996,4286470.005,-95.689 
338404.996,4286420.005,-94.876 
338404.996,4286370.005,-93.83 
338404.996,4286320.005,-90.338 
338404.996,4286270.005,-87.953 
338404.996,4286220.005,-86.347 
338404.996,4286170.005,-84.744 
338404.996,4286120.005,-82.843 
338404.996,4286070.005,-82.55 
338404.996,4286020.005,-82.722 
338404.996,4285970.005,-82.388 
338404.996,4285920.005,-82.25 
338404.996,4285870.005,-82.212 
338404.996,4285820.005,-81.44 
338404.996,4285770.005,-80.542 
338404.996,4285720.005,-79.943 
338404.996,4285670.005,-80.173 
338404.996,4285620.005,-81.433 
338404.996,4285570.005,-85.29 
338404.996,4285520.005,-87.633 
338404.996,4285470.005,-88.188 
338404.996,4285420.005,-88.214 
338404.996,4285370.005,-88.652 
338404.996,4285320.005,-88.962 
338404.996,4285270.005,-89.203 
338404.996,4285220.005,-89.094 
338404.996,4285170.005,-88.75 
338404.996,4285120.005,-88.552 
338404.996,4285070.005,-88.45 
338404.996,4285020.005,-88.954 
338404.996,4284970.005,-90.098 
338404.996,4284920.005,-91.752 
338404.996,4284870.005,-94.459 
338404.996,4284820.005,-95.747 
338404.996,4284770.005,-102.391 
338404.996,4284720.005,-104.267 
338404.996,4284670.005,-105.34 
338404.996,4284620.005,-106.858 
338404.996,4284570.005,-109.689 
338404.996,4284520.005,-113.254 
338404.996,4284470.005,-118.286 
338404.996,4284420.005,-134.445 
338404.996,4284370.005,-128.871 
338404.996,4284320.005,-148.077 
338404.996,4284270.005,-150.709 
338404.996,4284220.005,-153.203 
338404.996,4284170.005,-156.239 
338404.996,4284120.005,-162.038 
338454.996,4286820.005,-156.329 
338454.996,4286770.005,-134.064 
338454.996,4286720.005,-120.741 
338454.996,4286670.005,-114.458 
338454.996,4286620.005,-106.423 
338454.996,4286570.005,-103.427 
338454.996,4286520.005,-99.102 
338454.996,4286470.005,-97.504 
338454.996,4286420.005,-94.655 
338454.996,4286370.005,-91.335 
338454.996,4286320.005,-89.667 
338454.996,4286270.005,-86.758 
338454.996,4286220.005,-84.117 
338454.996,4286170.005,-81.59 
338454.996,4286120.005,-80.148 
338454.996,4286070.005,-79.254 
338454.996,4286020.005,-79.426 
338454.996,4285970.005,-79.519 
338454.996,4285920.005,-79.821 
338454.996,4285870.005,-80.514 
338454.996,4285820.005,-80.739 
338454.996,4285770.005,-80.233 
338454.996,4285720.005,-78.621 
338454.996,4285670.005,-78.862 
338454.996,4285620.005,-79.311 
338454.996,4285570.005,-81.803 
338454.996,4285520.005,-84.995 
338454.996,4285470.005,-87.119 
338454.996,4285420.005,-87.128 
338454.996,4285370.005,-87.826 
338454.996,4285320.005,-88.393 
338454.996,4285270.005,-89.052 
338454.996,4285220.005,-88.993 
338454.996,4285170.005,-88.561 
338454.996,4285120.005,-88.155 
338454.996,4285070.005,-87.707 
338454.996,4285020.005,-87.511 
338454.996,4284970.005,-88.362 
338454.996,4284920.005,-89.557 
338454.996,4284870.005,-91.201 
338454.996,4284820.005,-94.254 
338454.996,4284770.005,-100.124 
338454.996,4284720.005,-103.481 
338454.996,4284670.005,-104.303 
338454.996,4284620.005,-105.15 
338454.996,4284570.005,-106.547 
338454.996,4284520.005,-109.256 
338454.996,4284470.005,-115.194 
338454.996,4284420.005,-126.662 
338454.996,4284370.005,-137.355 
338454.996,4284320.005,-141.496 
338454.996,4284270.005,-145.508 
338454.996,4284220.005,-148.703 
338454.996,4284170.005,-151.448 
338454.996,4284120.005,-154.081 
338454.996,4284070.005,-156.729 
338454.996,4284020.005,-160.257 
338504.996,4286820.005,-145.669 
338504.996,4286770.005,-127.395 
338504.996,4286720.005,-118.514 
338504.996,4286670.005,-109.79 
338504.996,4286620.005,-107.261 
338504.996,4286570.005,-103.849 
338504.996,4286520.005,-99.961 
338504.996,4286470.005,-96.11 
338504.996,4286420.005,-92.56 
338504.996,4286370.005,-91.116 
338504.996,4286320.005,-89.392 
338504.996,4286270.005,-85.118 
338504.996,4286220.005,-81.823 
338504.996,4286170.005,-79.4 
338504.996,4286120.005,-77.52 
338504.996,4286070.005,-74.286 
338504.996,4286020.005,-72.688 
338504.996,4285970.005,-76.372 
338504.996,4285920.005,-77.952 
338504.996,4285870.005,-79.349 
338504.996,4285820.005,-80.905 
338504.996,4285770.005,-80.933 
338504.996,4285720.005,-79.666 
338504.996,4285670.005,-78.289 
338504.996,4285620.005,-77.316 
338504.996,4285570.005,-78.964 
338504.996,4285520.005,-82.093 
338504.996,4285470.005,-83.82 
338504.996,4285420.005,-84.676 
338504.996,4285370.005,-87.036 
338504.996,4285320.005,-87.59 
338504.996,4285270.005,-87.98 
338504.996,4285220.005,-88.165 
338504.996,4285170.005,-87.909 
338504.996,4285120.005,-87.511 
338504.996,4285070.005,-86.813 
338504.996,4285020.005,-86.362 
338504.996,4284970.005,-86.561 
338504.996,4284920.005,-88.299 
338504.996,4284870.005,-89.269 
338504.996,4284820.005,-92.324 
338504.996,4284770.005,-97.175 
338504.996,4284720.005,-102.236 
338504.996,4284670.005,-103.547 
338504.996,4284620.005,-103.549 
338504.996,4284570.005,-103.986 
338504.996,4284520.005,-105.894 
338504.996,4284470.005,-109.74 
338504.996,4284420.005,-118.425 
338504.996,4284370.005,-129.399 
338504.996,4284320.005,-135.813 
338504.996,4284270.005,-139.827 
338504.996,4284220.005,-142.514 
338504.996,4284170.005,-146.819 
338504.996,4284120.005,-150.152 
338504.996,4284070.005,-152.147 
338504.996,4284020.005,-152.86 
338504.996,4283970.005,-154.374 
338504.996,4283920.005,-158.999 
338554.996,4286870.005,-162.9 
338554.996,4286820.005,-141.612 
338554.996,4286770.005,-124.41 
338554.996,4286720.005,-118.374 
338554.996,4286670.005,-111.371 
338554.996,4286620.005,-106.664 
338554.996,4286570.005,-103.633 
338554.996,4286520.005,-100.938 
338554.996,4286470.005,-95.701 
338554.996,4286420.005,-92.631 
338554.996,4286370.005,-90.689 
338554.996,4286320.005,-87.958 
338554.996,4286270.005,-83.818 
338554.996,4286220.005,-79.349 
338554.996,4286170.005,-75.281 
338554.996,4286120.005,-68.124 
338554.996,4286070.005,-61.05 
338554.996,4286020.005,-60.89 
338554.996,4285970.005,-72.126 
338554.996,4285920.005,-75.51 
338554.996,4285870.005,-77.748 
338554.996,4285820.005,-78.927 
338554.996,4285770.005,-79.172 
338554.996,4285720.005,-77.436 
338554.996,4285670.005,-73.38 
338554.996,4285620.005,-71.854 
338554.996,4285570.005,-73.55 
338554.996,4285520.005,-76.676 
338554.996,4285470.005,-81.683 
338554.996,4285420.005,-83.124 
338554.996,4285370.005,-84.818 
338554.996,4285320.005,-85.809 
338554.996,4285270.005,-86.896 
338554.996,4285220.005,-87.713 
338554.996,4285170.005,-87.142 
338554.996,4285120.005,-86.347 
338554.996,4285070.005,-85.6 
338554.996,4285020.005,-84.713 
338554.996,4284970.005,-84.712 
338554.996,4284920.005,-86.018 
338554.996,4284870.005,-87.173 
338554.996,4284820.005,-89.45 
338554.996,4284770.005,-94.66 
338554.996,4284720.005,-101.195 
338554.996,4284670.005,-102.572 
338554.996,4284620.005,-102.176 
338554.996,4284570.005,-101.892 
338554.996,4284520.005,-102.817 
338554.996,4284470.005,-105.143 
338554.996,4284420.005,-110.209 
338554.996,4284370.005,-118.534 
338554.996,4284320.005,-127.758 
338554.996,4284270.005,-133.603 
338554.996,4284220.005,-137.187 
338554.996,4284170.005,-141.112 
338554.996,4284120.005,-145.436 
338554.996,4284070.005,-148.361 
338554.996,4284020.005,-149.631 
338554.996,4283970.005,-150.343 
338554.996,4283920.005,-151.355 
338554.996,4283870.005,-154.693 
338554.996,4283820.005,-153.911 
338554.996,4283770.005,-158.351 
338604.996,4286870.005,-162.4 
338604.996,4286820.005,-144.998 
338604.996,4286770.005,-125.775 
338604.996,4286720.005,-118.338 
338604.996,4286670.005,-112.329 
338604.996,4286620.005,-107.627 
338604.996,4286570.005,-102.786 
338604.996,4286520.005,-100.735 
338604.996,4286470.005,-95.672 
338604.996,4286420.005,-91.83 
338604.996,4286370.005,-89.405 
338604.996,4286320.005,-87.845 
338604.996,4286270.005,-83.602 
338604.996,4286220.005,-74.715 
338604.996,4286170.005,-61.689 
338604.996,4286120.005,-57.977 
338604.996,4286070.005,-56.284 
338604.996,4286020.005,-58.353 
338604.996,4285970.005,-67.658 
338604.996,4285920.005,-72.276 
338604.996,4285870.005,-73.167 
338604.996,4285820.005,-72.102 
338604.996,4285770.005,-62.6 
338604.996,4285720.005,-67.61 
338604.996,4285670.005,-64.422 
338604.996,4285620.005,-63.706 
338604.996,4285570.005,-69.776 
338604.996,4285520.005,-75.144 
338604.996,4285470.005,-79.681 
338604.996,4285420.005,-82.37 
338604.996,4285370.005,-83.873 
338604.996,4285320.005,-84.605 
338604.996,4285270.005,-84.662 
338604.996,4285220.005,-85.171 
338604.996,4285170.005,-85.291 
338604.996,4285120.005,-85.023 
338604.996,4285070.005,-84.077 
338604.996,4285020.005,-82.88 
338604.996,4284970.005,-82.695 
338604.996,4284920.005,-83.12 
338604.996,4284870.005,-84.367 
338604.996,4284820.005,-87.202 
338604.996,4284770.005,-91.659 
338604.996,4284720.005,-96.543 
338604.996,4284670.005,-100.276 
338604.996,4284620.005,-100.354 
338604.996,4284570.005,-99.93 
338604.996,4284520.005,-99.994 
338604.996,4284470.005,-101.269 
338604.996,4284420.005,-104.244 
338604.996,4284370.005,-108.385 
338604.996,4284320.005,-114.233 
338604.996,4284270.005,-122.173 
338604.996,4284220.005,-130.039 
338604.996,4284170.005,-136.067 
338604.996,4284120.005,-140.639 
338604.996,4284070.005,-144.045 
338604.996,4284020.005,-145.656 
338604.996,4283970.005,-146.197 
338604.996,4283920.005,-144.257 
338604.996,4283870.005,-134.266 
338604.996,4283820.005,-136.091 
338604.996,4283770.005,-143.871 
338604.996,4283720.005,-159.437 
338654.996,4286870.005,-161.9 
338654.996,4286820.005,-150.726 
338654.996,4286770.005,-130.01 
338654.996,4286720.005,-119.091 
338654.996,4286670.005,-112.757 
338654.996,4286620.005,-107.632 
338654.996,4286570.005,-103.687 
338654.996,4286520.005,-99.646 
338654.996,4286470.005,-96.332 
338654.996,4286420.005,-92.211 
338654.996,4286370.005,-91.339 
338654.996,4286320.005,-88.179 
338654.996,4286270.005,-82.466 
338654.996,4286220.005,-72.958 
338654.996,4286170.005,-52.382 
338654.996,4286120.005,-55.511 
338654.996,4286070.005,-55.711 
338654.996,4286020.005,-60.748 
338654.996,4285970.005,-64.144 
338654.996,4285920.005,-66.219 
338654.996,4285870.005,-51.235 
338654.996,4285820.005,-47.242 
338654.996,4285770.005,-43.249 
338654.996,4285720.005,-55.28 
338654.996,4285670.005,-61.389 
338654.996,4285620.005,-65.157 
338654.996,4285570.005,-70.279 
338654.996,4285520.005,-74.506 
338654.996,4285470.005,-78.788 
338654.996,4285420.005,-81.417 
338654.996,4285370.005,-82.814 
338654.996,4285320.005,-83.022 
338654.996,4285270.005,-83.028 
338654.996,4285220.005,-83.567 
338654.996,4285170.005,-83.522 
338654.996,4285120.005,-82.922 
338654.996,4285070.005,-82.522 
338654.996,4285020.005,-82.413 
338654.996,4284970.005,-81.117 
338654.996,4284920.005,-80.248 
338654.996,4284870.005,-82.183 
338654.996,4284820.005,-84.741 
338654.996,4284770.005,-88.744 
338654.996,4284720.005,-92.108 
338654.996,4284670.005,-96.472 
338654.996,4284620.005,-98.722 
338654.996,4284570.005,-98.022 
338654.996,4284520.005,-97.433 
338654.996,4284470.005,-98.247 
338654.996,4284420.005,-99.911 
338654.996,4284370.005,-102.319 
338654.996,4284320.005,-105.833 
338654.996,4284270.005,-109.864 
338654.996,4284220.005,-114.001 
338654.996,4284170.005,-119.609 
338654.996,4284120.005,-124.464 
338654.996,4284070.005,-129.157 
338654.996,4284020.005,-133.223 
338654.996,4283970.005,-135.892 
338654.996,4283920.005,-124.524 
338654.996,4283870.005,-120.75 
338654.996,4283820.005,-124.506 
338654.996,4283770.005,-131.078 
338654.996,4283720.005,-142.443 
338654.996,4283670.005,-160.637 
338704.996,4286870.005,-161.4 
338704.996,4286820.005,-153.933 
338704.996,4286770.005,-133.877 
338704.996,4286720.005,-120.237 
338704.996,4286670.005,-112.596 
338704.996,4286620.005,-107.953 
338704.996,4286570.005,-103.749 
338704.996,4286520.005,-99.123 
338704.996,4286470.005,-95.616 
338704.996,4286420.005,-92.808 
338704.996,4286370.005,-90.776 
338704.996,4286320.005,-87.39 
338704.996,4286270.005,-82.51 
338704.996,4286220.005,-72.821 
338704.996,4286170.005,-66.005 
338704.996,4286120.005,-59.737 
338704.996,4286070.005,-59.505 
338704.996,4286020.005,-60.958 
338704.996,4285970.005,-60.837 
338704.996,4285920.005,-44.862 
338704.996,4285870.005,-48.426 
338704.996,4285820.005,-51.99 
338704.996,4285770.005,-55.555 
338704.996,4285720.005,-59.119 
338704.996,4285670.005,-62.683 
338704.996,4285620.005,-66.248 
338704.996,4285570.005,-69.812 
338704.996,4285520.005,-73.376 
338704.996,4285470.005,-76.94 
338704.996,4285420.005,-80.585 
338704.996,4285370.005,-81.719 
338704.996,4285320.005,-81.519 
338704.996,4285270.005,-81.558 
338704.996,4285220.005,-81.768 
338704.996,4285170.005,-81.868 
338704.996,4285120.005,-81.619 
338704.996,4285070.005,-81.124 
338704.996,4285020.005,-79.933 
338704.996,4284970.005,-78.885 
338704.996,4284920.005,-79.208 
338704.996,4284870.005,-79.454 
338704.996,4284820.005,-81.827 
338704.996,4284770.005,-84.984 
338704.996,4284720.005,-88.762 
338704.996,4284670.005,-93.874 
338704.996,4284620.005,-95.901 
338704.996,4284570.005,-95.59 
338704.996,4284520.005,-95.295 
338704.996,4284470.005,-95.524 
338704.996,4284420.005,-96.495 
338704.996,4284370.005,-98.339 
338704.996,4284320.005,-101.073 
338704.996,4284270.005,-103.665 
338704.996,4284220.005,-106.062 
338704.996,4284170.005,-108.552 
338704.996,4284120.005,-111.484 
338704.996,4284070.005,-115.504 
338704.996,4284020.005,-118.363 
338704.996,4283970.005,-119.499 
338704.996,4283920.005,-109.958 
338704.996,4283870.005,-112.519 
338704.996,4283820.005,-118.471 
338704.996,4283770.005,-119.891 
338704.996,4283720.005,-128.642 
338704.996,4283670.005,-146.459 
338704.996,4283620.005,-162.9 
338754.996,4286870.005,-160.9 
338754.996,4286820.005,-150.869 
338754.996,4286770.005,-134.991 
338754.996,4286720.005,-121.114 
338754.996,4286670.005,-114.043 
338754.996,4286620.005,-109.132 
338754.996,4286570.005,-104.852 
338754.996,4286520.005,-99.104 
338754.996,4286470.005,-93.996 
338754.996,4286420.005,-92.753 
338754.996,4286370.005,-89.877 
338754.996,4286320.005,-87.103 
338754.996,4286270.005,-82.955 
338754.996,4286220.005,-76.692 
338754.996,4286170.005,-70.338 
338754.996,4286120.005,-66.156 
338754.996,4286070.005,-62.331 
338754.996,4286020.005,-61.116 
338754.996,4285970.005,-59.184 
338754.996,4285920.005,-60.642 
338754.996,4285870.005,-62.1 
338754.996,4285820.005,-63.558 
338754.996,4285770.005,-65.016 
338754.996,4285720.005,-66.474 
338754.996,4285670.005,-67.932 
338754.996,4285620.005,-69.39 
338754.996,4285570.005,-70.848 
338754.996,4285520.005,-72.306 
338754.996,4285470.005,-73.764 
338754.996,4285420.005,-75.222 
338754.996,4285370.005,-76.68 
338754.996,4285320.005,-80.127 
338754.996,4285270.005,-80.52 
338754.996,4285220.005,-80.607 
338754.996,4285170.005,-80.227 
338754.996,4285120.005,-79.82 
338754.996,4285070.005,-79.127 
338754.996,4285020.005,-77.888 
338754.996,4284970.005,-76.988 
338754.996,4284920.005,-76.827 
338754.996,4284870.005,-77.269 
338754.996,4284820.005,-79.267 
338754.996,4284770.005,-82.054 
338754.996,4284720.005,-85.247 
338754.996,4284670.005,-90.063 
338754.996,4284620.005,-93.368 
338754.996,4284570.005,-93.222 
338754.996,4284520.005,-92.597 
338754.996,4284470.005,-92.872 
338754.996,4284420.005,-94.062 
338754.996,4284370.005,-95.687 
338754.996,4284320.005,-97.498 
338754.996,4284270.005,-99.589 
338754.996,4284220.005,-101.887 
338754.996,4284170.005,-104.3 
338754.996,4284120.005,-106.488 
338754.996,4284070.005,-109.412 
338754.996,4284020.005,-109.901 
338754.996,4283970.005,-107.789 
338754.996,4283920.005,-108.311 
338754.996,4283870.005,-109.554 
338754.996,4283820.005,-111.003 
338754.996,4283770.005,-110.605 
338754.996,4283720.005,-112.733 
338754.996,4283670.005,-132.377 
338754.996,4283620.005,-151.745 
338804.996,4286870.005,-155.458 
338804.996,4286820.005,-146.073 
338804.996,4286770.005,-132.695 
338804.996,4286720.005,-120.41 
338804.996,4286670.005,-114.755 
338804.996,4286620.005,-111.031 
338804.996,4286570.005,-103.466 
338804.996,4286520.005,-96.316 
338804.996,4286470.005,-93.364 
338804.996,4286420.005,-91.369 
338804.996,4286370.005,-88.56 
338804.996,4286320.005,-86.018 
338804.996,4286270.005,-80.258 
338804.996,4286220.005,-75.285 
338804.996,4286170.005,-71.533 
338804.996,4286120.005,-67.04 
338804.996,4286070.005,-62.004 
338804.996,4286020.005,-60.044 
338804.996,4285970.005,-58.135 
338804.996,4285920.005,-59.521 
338804.996,4285870.005,-60.907 
338804.996,4285820.005,-62.293 
338804.996,4285770.005,-63.678 
338804.996,4285720.005,-65.064 
338804.996,4285670.005,-66.45 
338804.996,4285620.005,-67.836 
338804.996,4285570.005,-69.221 
338804.996,4285520.005,-70.607 
338804.996,4285470.005,-71.993 
338804.996,4285420.005,-73.379 
338804.996,4285370.005,-74.764 
338804.996,4285320.005,-76.15 
338804.996,4285270.005,-77.536 
338804.996,4285220.005,-78.922 
338804.996,4285170.005,-78.822 
338804.996,4285120.005,-78.066 
338804.996,4285070.005,-76.927 
338804.996,4285020.005,-75.73 
338804.996,4284970.005,-74.988 
338804.996,4284920.005,-74.729 
338804.996,4284870.005,-74.443 
338804.996,4284820.005,-74.257 
338804.996,4284770.005,-77.599 
338804.996,4284720.005,-82.601 
338804.996,4284670.005,-86.518 
338804.996,4284620.005,-88.99 
338804.996,4284570.005,-90.643 
338804.996,4284520.005,-90.2 
338804.996,4284470.005,-90.461 
338804.996,4284420.005,-91.487 
338804.996,4284370.005,-93.289 
338804.996,4284320.005,-95.591 
338804.996,4284270.005,-97.474 
338804.996,4284220.005,-98.717 
338804.996,4284170.005,-100.122 
338804.996,4284120.005,-101.444 
338804.996,4284070.005,-102.268 
338804.996,4284020.005,-103.906 
338804.996,4283970.005,-101.436 
338804.996,4283920.005,-107.236 
338804.996,4283870.005,-107.384 
338804.996,4283820.005,-107.002 
338804.996,4283770.005,-106.615 
338804.996,4283720.005,-106.194 
338804.996,4283670.005,-111.216 
338804.996,4283620.005,-138.727 
338804.996,4283570.005,-159.923 
338854.996,4286870.005,-152.363 
338854.996,4286820.005,-144.081 
338854.996,4286770.005,-129.686 
338854.996,4286720.005,-119.832 
338854.996,4286670.005,-114.571 
338854.996,4286620.005,-110.581 
338854.996,4286570.005,-100.996 
338854.996,4286520.005,-93.351 
338854.996,4286470.005,-91.49 
338854.996,4286420.005,-88.983 
338854.996,4286370.005,-86.673 
338854.996,4286320.005,-83.604 
338854.996,4286270.005,-78.325 
338854.996,4286220.005,-71.021 
338854.996,4286170.005,-64.676 
338854.996,4286120.005,-60.028 
338854.996,4286070.005,-58.746 
338854.996,4286020.005,-58.361 
338854.996,4285970.005,-59.348 
338854.996,4285920.005,-60.335 
338854.996,4285870.005,-61.322 
338854.996,4285820.005,-62.308 
338854.996,4285770.005,-63.295 
338854.996,4285720.005,-64.282 
338854.996,4285670.005,-65.269 
338854.996,4285620.005,-66.256 
338854.996,4285570.005,-67.243 
338854.996,4285520.005,-68.23 
338854.996,4285470.005,-69.217 
338854.996,4285420.005,-70.204 
338854.996,4285370.005,-71.191 
338854.996,4285320.005,-72.178 
338854.996,4285270.005,-73.165 
338854.996,4285220.005,-74.152 
338854.996,4285170.005,-75.139 
338854.996,4285120.005,-76.126 
338854.996,4285070.005,-75.199 
338854.996,4285020.005,-74.346 
338854.996,4284970.005,-73.271 
338854.996,4284920.005,-72.474 
338854.996,4284870.005,-72.08 
338854.996,4284820.005,-72.131 
338854.996,4284770.005,-73.244 
338854.996,4284720.005,-78.069 
338854.996,4284670.005,-81.989 
338854.996,4284620.005,-83.885 
338854.996,4284570.005,-86.212 
338854.996,4284520.005,-87.251 
338854.996,4284470.005,-88.168 
338854.996,4284420.005,-89.409 
338854.996,4284370.005,-91.191 
338854.996,4284320.005,-93.533 
338854.996,4284270.005,-95.378 
338854.996,4284220.005,-96.546 
338854.996,4284170.005,-96.756 
338854.996,4284120.005,-98.103 
338854.996,4284070.005,-99.427 
338854.996,4284020.005,-100.713 
338854.996,4283970.005,-100.368 
338854.996,4283920.005,-101.052 
338854.996,4283870.005,-103.728 
338854.996,4283820.005,-103.977 
338854.996,4283770.005,-102.376 
338854.996,4283720.005,-101.948 
338854.996,4283670.005,-104.034 
338854.996,4283620.005,-124.435 
338854.996,4283570.005,-147.992 
338904.996,4286920.005,-162.067 
338904.996,4286870.005,-149.829 
338904.996,4286820.005,-141.233 
338904.996,4286770.005,-126.72 
338904.996,4286720.005,-117.811 
338904.996,4286670.005,-112.972 
338904.996,4286620.005,-108.724 
338904.996,4286570.005,-100.224 
338904.996,4286520.005,-92.816 
338904.996,4286470.005,-90.105 
338904.996,4286420.005,-86.593 
338904.996,4286370.005,-84.047 
338904.996,4286320.005,-80.197 
338904.996,4286270.005,-75.388 
338904.996,4286220.005,-69.878 
338904.996,4286170.005,-61.244 
338904.996,4286120.005,-57.527 
338904.996,4286070.005,-57.216 
338904.996,4286020.005,-57.861 
338904.996,4285970.005,-58.505 
338904.996,4285920.005,-59.149 
338904.996,4285870.005,-59.793 
338904.996,4285820.005,-60.437 
338904.996,4285770.005,-61.082 
338904.996,4285720.005,-61.726 
338904.996,4285670.005,-62.37 
338904.996,4285620.005,-63.014 
338904.996,4285570.005,-63.658 
338904.996,4285520.005,-64.302 
338904.996,4285470.005,-64.947 
338904.996,4285420.005,-65.591 
338904.996,4285370.005,-66.235 
338904.996,4285320.005,-66.879 
338904.996,4285270.005,-67.523 
338904.996,4285220.005,-68.167 
338904.996,4285170.005,-68.812 
338904.996,4285120.005,-69.456 
338904.996,4285070.005,-70.1 
338904.996,4285020.005,-70.744 
338904.996,4284970.005,-71.388 
338904.996,4284920.005,-71.079 
338904.996,4284870.005,-70.726 
338904.996,4284820.005,-70.133 
338904.996,4284770.005,-70.723 
338904.996,4284720.005,-73.178 
338904.996,4284670.005,-76.342 
338904.996,4284620.005,-78.332 
338904.996,4284570.005,-80.023 
338904.996,4284520.005,-82.05 
338904.996,4284470.005,-83.647 
338904.996,4284420.005,-85.793 
338904.996,4284370.005,-87.549 
338904.996,4284320.005,-89.011 
338904.996,4284270.005,-89.515 
338904.996,4284220.005,-90.525 
338904.996,4284170.005,-92.953 
338904.996,4284120.005,-95.614 
338904.996,4284070.005,-96.289 
338904.996,4284020.005,-97.244 
338904.996,4283970.005,-95.232 
338904.996,4283920.005,-96.375 
338904.996,4283870.005,-99.985 
338904.996,4283820.005,-99.032 
338904.996,4283770.005,-96.065 
338904.996,4283720.005,-99.344 
338904.996,4283670.005,-104.475 
338904.996,4283620.005,-119.412 
338904.996,4283570.005,-135.81 
338904.996,4283520.005,-155.256 
338954.996,4286920.005,-158.119 
338954.996,4286870.005,-147.381 
338954.996,4286820.005,-137.863 
338954.996,4286770.005,-122.808 
338954.996,4286720.005,-115.516 
338954.996,4286670.005,-111.02 
338954.996,4286620.005,-106.121 
338954.996,4286570.005,-99.909 
338954.996,4286520.005,-89.634 
338954.996,4286470.005,-84.909 
338954.996,4286420.005,-84.229 
338954.996,4286370.005,-80.738 
338954.996,4286320.005,-76.915 
338954.996,4286270.005,-72.442 
338954.996,4286220.005,-67.309 
338954.996,4286170.005,-59.592 
338954.996,4286120.005,-56.572 
338954.996,4286070.005,-57.039 
338954.996,4286020.005,-57.507 
338954.996,4285970.005,-57.974 
338954.996,4285920.005,-58.441 
338954.996,4285870.005,-58.908 
338954.996,4285820.005,-59.375 
338954.996,4285770.005,-59.843 
338954.996,4285720.005,-60.31 
338954.996,4285670.005,-60.777 
338954.996,4285620.005,-61.244 
338954.996,4285570.005,-61.712 
338954.996,4285520.005,-62.179 
338954.996,4285470.005,-62.646 
338954.996,4285420.005,-63.113 
338954.996,4285370.005,-63.58 
338954.996,4285320.005,-64.048 
338954.996,4285270.005,-64.515 
338954.996,4285220.005,-64.982 
338954.996,4285170.005,-65.449 
338954.996,4285120.005,-65.917 
338954.996,4285070.005,-66.384 
338954.996,4285020.005,-66.851 
338954.996,4284970.005,-67.318 
338954.996,4284920.005,-67.785 
338954.996,4284870.005,-68.253 
338954.996,4284820.005,-68.394 
338954.996,4284770.005,-69.754 
338954.996,4284720.005,-70.784 
338954.996,4284670.005,-72.245 
338954.996,4284620.005,-72.778 
338954.996,4284570.005,-75.069 
338954.996,4284520.005,-76.836 
338954.996,4284470.005,-79.07 
338954.996,4284420.005,-80.868 
338954.996,4284370.005,-82.365 
338954.996,4284320.005,-83.734 
338954.996,4284270.005,-83.66 
338954.996,4284220.005,-84.54 
338954.996,4284170.005,-87.563 
338954.996,4284120.005,-90.012 
338954.996,4284070.005,-91.245 
338954.996,4284020.005,-92.988 
338954.996,4283970.005,-92.269 
338954.996,4283920.005,-93.761 
338954.996,4283870.005,-95.506 
338954.996,4283820.005,-95.474 
338954.996,4283770.005,-96.115 
338954.996,4283720.005,-96.487 
338954.996,4283670.005,-103.708 
338954.996,4283620.005,-117.728 
338954.996,4283570.005,-129.713 
338954.996,4283520.005,-146.698 
338954.996,4283470.005,-161.634 
339004.996,4286920.005,-160.709 
339004.996,4286870.005,-149.01 
339004.996,4286820.005,-135.929 
339004.996,4286770.005,-121.017 
339004.996,4286720.005,-113.572 
339004.996,4286670.005,-108.718 
339004.996,4286620.005,-104.179 
339004.996,4286570.005,-96.97 
339004.996,4286520.005,-90.246 
339004.996,4286470.005,-85.897 
339004.996,4286420.005,-81.354 
339004.996,4286370.005,-77.459 
339004.996,4286320.005,-75.564 
339004.996,4286270.005,-72.061 
339004.996,4286220.005,-64.954 
339004.996,4286170.005,-57.537 
339004.996,4286120.005,-55.146 
339004.996,4286070.005,-55.619 
339004.996,4286020.005,-56.092 
339004.996,4285970.005,-56.565 
339004.996,4285920.005,-57.038 
339004.996,4285870.005,-57.511 
339004.996,4285820.005,-57.984 
339004.996,4285770.005,-58.457 
339004.996,4285720.005,-58.93 
339004.996,4285670.005,-59.403 
339004.996,4285620.005,-59.876 
339004.996,4285570.005,-60.349 
339004.996,4285520.005,-60.822 
339004.996,4285470.005,-61.295 
339004.996,4285420.005,-61.768 
339004.996,4285370.005,-62.241 
339004.996,4285320.005,-62.714 
339004.996,4285270.005,-63.187 
339004.996,4285220.005,-63.66 
339004.996,4285170.005,-64.133 
339004.996,4285120.005,-64.606 
339004.996,4285070.005,-65.079 
339004.996,4285020.005,-65.552 
339004.996,4284970.005,-66.025 
339004.996,4284920.005,-66.498 
339004.996,4284870.005,-66.971 
339004.996,4284820.005,-67.444 
339004.996,4284770.005,-67.917 
339004.996,4284720.005,-68.39 
339004.996,4284670.005,-68.098 
339004.996,4284620.005,-68.545 
339004.996,4284570.005,-68.712 
339004.996,4284520.005,-68.991 
339004.996,4284470.005,-70.832 
339004.996,4284420.005,-72.517 
339004.996,4284370.005,-74.8 
339004.996,4284320.005,-77.862 
339004.996,4284270.005,-77.367 
339004.996,4284220.005,-79.105 
339004.996,4284170.005,-82.412 
339004.996,4284120.005,-85.922 
339004.996,4284070.005,-87.379 
339004.996,4284020.005,-88.513 
339004.996,4283970.005,-90.004 
339004.996,4283920.005,-91.519 
339004.996,4283870.005,-92.436 
339004.996,4283820.005,-94.03 
339004.996,4283770.005,-95.712 
339004.996,4283720.005,-100.818 
339004.996,4283670.005,-111.182 
339004.996,4283620.005,-117.029 
339004.996,4283570.005,-125.022 
339004.996,4283520.005,-142.013 
339004.996,4283470.005,-158.261 
339054.996,4286920.005,-158.095 
339054.996,4286870.005,-154.195 
339054.996,4286820.005,-135.537 
339054.996,4286770.005,-119.596 
339054.996,4286720.005,-111.756 
339054.996,4286670.005,-106.284 
339054.996,4286620.005,-101.645 
339054.996,4286570.005,-94.788 
339054.996,4286520.005,-88.544 
339054.996,4286470.005,-82.915 
339054.996,4286420.005,-77.514 
339054.996,4286370.005,-72.781 
339054.996,4286320.005,-66.59 
339054.996,4286270.005,-62.112 
339054.996,4286220.005,-58.113 
339054.996,4286170.005,-55.951 
339054.996,4286120.005,-56.208 
339054.996,4286070.005,-56.464 
339054.996,4286020.005,-56.721 
339054.996,4285970.005,-56.978 
339054.996,4285920.005,-57.235 
339054.996,4285870.005,-57.491 
339054.996,4285820.005,-57.748 
339054.996,4285770.005,-58.005 
339054.996,4285720.005,-58.262 
339054.996,4285670.005,-58.518 
339054.996,4285620.005,-58.775 
339054.996,4285570.005,-59.032 
339054.996,4285520.005,-59.289 
339054.996,4285470.005,-59.545 
339054.996,4285420.005,-59.802 
339054.996,4285370.005,-60.059 
339054.996,4285320.005,-60.316 
339054.996,4285270.005,-60.573 
339054.996,4285220.005,-60.829 
339054.996,4285170.005,-61.086 
339054.996,4285120.005,-61.343 
339054.996,4285070.005,-61.6 
339054.996,4285020.005,-61.856 
339054.996,4284970.005,-62.113 
339054.996,4284920.005,-62.37 
339054.996,4284870.005,-62.627 
339054.996,4284820.005,-62.883 
339054.996,4284770.005,-63.14 
339054.996,4284720.005,-63.397 
339054.996,4284670.005,-63.654 
339054.996,4284620.005,-63.49 
339054.996,4284570.005,-63.886 
339054.996,4284520.005,-63.545 
339054.996,4284470.005,-64.031 
339054.996,4284420.005,-65.318 
339054.996,4284370.005,-64.259 
339054.996,4284320.005,-66.816 
339054.996,4284270.005,-69.162 
339054.996,4284220.005,-71.013 
339054.996,4284170.005,-69.422 
339054.996,4284120.005,-78.056 
339054.996,4284070.005,-82.463 
339054.996,4284020.005,-85.159 
339054.996,4283970.005,-87.981 
339054.996,4283920.005,-93.779 
339054.996,4283870.005,-94.164 
339054.996,4283820.005,-94.998 
339054.996,4283770.005,-94.569 
339054.996,4283720.005,-101.244 
339054.996,4283670.005,-107.09 
339054.996,4283620.005,-113.068 
339054.996,4283570.005,-123.314 
339054.996,4283520.005,-138.389 
339054.996,4283470.005,-156.042 
339104.996,4286920.005,-155.481 
339104.996,4286870.005,-149.797 
339104.996,4286820.005,-132.439 
339104.996,4286770.005,-118.959 
339104.996,4286720.005,-109.543 
339104.996,4286670.005,-100.316 
339104.996,4286620.005,-95.501 
339104.996,4286570.005,-89.834 
339104.996,4286520.005,-82.905 
339104.996,4286470.005,-77.792 
339104.996,4286420.005,-74.083 
339104.996,4286370.005,-68.512 
339104.996,4286320.005,-59.302 
339104.996,4286270.005,-55.336 
339104.996,4286220.005,-53.516 
339104.996,4286170.005,-54.021 
339104.996,4286020.005,-54.51 
339104.996,4285970.005,-54.673 
339104.996,4285920.005,-54.837 
339104.996,4285870.005,-55 
339104.996,4285820.005,-55.163 
339104.996,4285770.005,-55.326 
339104.996,4285720.005,-55.489 
339104.996,4285670.005,-55.653 
339104.996,4285620.005,-55.816 
339104.996,4285570.005,-55.979 
339104.996,4285520.005,-56.142 
339104.996,4285470.005,-56.305 
339104.996,4285420.005,-56.468 
339104.996,4285370.005,-56.632 
339104.996,4285320.005,-56.795 
339104.996,4285270.005,-56.958 
339104.996,4285220.005,-57.121 
339104.996,4285170.005,-57.284 
339104.996,4285120.005,-57.447 
339104.996,4285070.005,-57.611 
339104.996,4285020.005,-57.774 
339104.996,4284970.005,-57.937 
339104.996,4284920.005,-58.1 
339104.996,4284870.005,-58.263 
339104.996,4284820.005,-58.426 
339104.996,4284770.005,-58.59 
339104.996,4284720.005,-58.753 
339104.996,4284670.005,-58.916 
339104.996,4284520.005,-59.406 
339104.996,4284470.005,-60.294 
339104.996,4284420.005,-54.528 
339104.996,4284370.005,-58.207 
339104.996,4284320.005,-57.432 
339104.996,4284270.005,-60.004 
339104.996,4284220.005,-62.881 
339104.996,4284170.005,-58.852 
339104.996,4284120.005,-57.255 
339104.996,4284070.005,-75.38 
339104.996,4284020.005,-81.542 
339104.996,4283970.005,-87.53 
339104.996,4283920.005,-95.528 
339104.996,4283870.005,-98.249 
339104.996,4283820.005,-101.104 
339104.996,4283770.005,-104.977 
339104.996,4283720.005,-106.417 
339104.996,4283670.005,-112.984 
339104.996,4283620.005,-120.323 
339104.996,4283570.005,-129.136 
339104.996,4283520.005,-139.805 
339104.996,4283470.005,-154.262 
339154.996,4287020.005,-160.685 
339154.996,4286970.005,-155.822 
339154.996,4286920.005,-152.867 
339154.996,4286870.005,-138.312 
339154.996,4286820.005,-121.592 
339154.996,4286770.005,-111.199 
339154.996,4286720.005,-100.175 
339154.996,4286670.005,-90.611 
339154.996,4286620.005,-87.299 
339154.996,4286570.005,-80.536 
339154.996,4286520.005,-76.305 
339154.996,4286470.005,-72.825 
339154.996,4286420.005,-70.643 
339154.996,4286370.005,-66.775 
339154.996,4286320.005,-58.934 
339154.996,4286270.005,-54.01 
339154.996,4286220.005,-53.022 
339154.996,4286170.005,-52.706 
339154.996,4285820.005,-53.033 
339154.996,4285770.005,-53.08 
339154.996,4285720.005,-53.127 
339154.996,4285670.005,-53.174 
339154.996,4285620.005,-53.22 
339154.996,4285570.005,-53.267 
339154.996,4285520.005,-53.314 
339154.996,4285470.005,-53.361 
339154.996,4285420.005,-53.408 
339154.996,4285370.005,-53.454 
339154.996,4285320.005,-53.501 
339154.996,4285270.005,-53.548 
339154.996,4285220.005,-53.595 
339154.996,4285170.005,-53.642 
339154.996,4285120.005,-53.688 
339154.996,4285070.005,-53.735 
339154.996,4285020.005,-53.782 
339154.996,4284970.005,-53.829 
339154.996,4284920.005,-53.876 
339154.996,4284870.005,-53.922 
339154.996,4284820.005,-53.969 
339154.996,4284770.005,-54.016 
339154.996,4284720.005,-54.063 
339154.996,4284670.005,-54.11 
339154.996,4284320.005,-54.437 
339154.996,4284270.005,-54.615 
339154.996,4284220.005,-56.067 
339154.996,4284170.005,-53.218 
339154.996,4284120.005,-55.373 
339154.996,4284070.005,-72.23 
339154.996,4284020.005,-81.455 
339154.996,4283970.005,-87.742 
339154.996,4283920.005,-94.679 
339154.996,4283870.005,-100.532 
339154.996,4283820.005,-104.44 
339154.996,4283770.005,-107.612 
339154.996,4283720.005,-110.86 
339154.996,4283670.005,-115.297 
339154.996,4283620.005,-120.802 
339154.996,4283570.005,-128.717 
339154.996,4283520.005,-138.834 
339154.996,4283470.005,-154.12 
339204.996,4287120.005,-159.945 
339204.996,4287070.005,-149.298 
339204.996,4287020.005,-134.788 
339204.996,4286970.005,-117.761 
339204.996,4286920.005,-120.347 
339204.996,4286870.005,-109.613 
339204.996,4286820.005,-109.83 
339204.996,4286770.005,-100.075 
339204.996,4286720.005,-91.577 
339204.996,4286670.005,-84.958 
339204.996,4286620.005,-78.689 
339204.996,4286570.005,-75.067 
339204.996,4286520.005,-71.808 
339204.996,4286470.005,-69.325 
339204.996,4286420.005,-66.423 
339204.996,4286370.005,-61.176 
339204.996,4286320.005,-56.936 
339204.996,4286270.005,-54.064 
339204.996,4286220.005,-52.261 
339204.996,4285770.005,-52.06 
339204.996,4285720.005,-52.038 
339204.996,4285670.005,-52.015 
339204.996,4285620.005,-51.993 
339204.996,4285570.005,-51.971 
339204.996,4285520.005,-51.948 
339204.996,4285470.005,-51.926 
339204.996,4285420.005,-51.904 
339204.996,4285370.005,-51.881 
339204.996,4285320.005,-51.859 
339204.996,4285270.005,-51.837 
339204.996,4285220.005,-51.814 
339204.996,4285170.005,-51.792 
339204.996,4285120.005,-51.77 
339204.996,4285070.005,-51.747 
339204.996,4285020.005,-51.725 
339204.996,4284970.005,-51.703 
339204.996,4284920.005,-51.68 
339204.996,4284870.005,-51.658 
339204.996,4284820.005,-51.636 
339204.996,4284770.005,-51.613 
339204.996,4284720.005,-51.591 
339204.996,4284270.005,-51.39 
339204.996,4284220.005,-52.672 
339204.996,4284170.005,-54.45 
339204.996,4284120.005,-60.278 
339204.996,4284070.005,-70.494 
339204.996,4284020.005,-80.272 
339204.996,4283970.005,-88.265 
339204.996,4283920.005,-95.015 
339204.996,4283870.005,-100.367 
339204.996,4283820.005,-104.469 
339204.996,4283770.005,-107.858 
339204.996,4283720.005,-111.071 
339204.996,4283670.005,-114.998 
339204.996,4283620.005,-119.913 
339204.996,4283570.005,-128.085 
339204.996,4283520.005,-138.41 
339204.996,4283470.005,-154.945 
339254.996,4287170.005,-157.355 
339254.996,4287120.005,-142.977 
339254.996,4287070.005,-132.926 
339254.996,4287020.005,-116.015 
339254.996,4286970.005,-101.846 
339254.996,4286920.005,-89.561 
339254.996,4286870.005,-83.696 
339254.996,4286820.005,-88.39 
339254.996,4286770.005,-90.025 
339254.996,4286720.005,-84.978 
339254.996,4286670.005,-78.692 
339254.996,4286620.005,-73.697 
339254.996,4286570.005,-70.481 
339254.996,4286520.005,-67.761 
339254.996,4286470.005,-65.215 
339254.996,4286420.005,-60.861 
339254.996,4286370.005,-57.581 
339254.996,4286320.005,-55.115 
339254.996,4286270.005,-53.329 
339254.996,4285720.005,-52.555 
339254.996,4285670.005,-52.485 
339254.996,4285620.005,-52.415 
339254.996,4285570.005,-52.344 
339254.996,4285520.005,-52.274 
339254.996,4285470.005,-52.204 
339254.996,4285420.005,-52.133 
339254.996,4285370.005,-52.063 
339254.996,4285320.005,-51.993 
339254.996,4285270.005,-51.922 
339254.996,4285220.005,-51.852 
339254.996,4285170.005,-51.781 
339254.996,4285120.005,-51.711 
339254.996,4285070.005,-51.641 
339254.996,4285020.005,-51.57 
339254.996,4284970.005,-51.5 
339254.996,4284920.005,-51.43 
339254.996,4284870.005,-51.359 
339254.996,4284820.005,-51.289 
339254.996,4284770.005,-51.219 
339254.996,4284220.005,-50.445 
339254.996,4284170.005,-53.999 
339254.996,4284120.005,-58.821 
339254.996,4284070.005,-67.995 
339254.996,4284020.005,-77.417 
339254.996,4283970.005,-86.825 
339254.996,4283920.005,-95.215 
339254.996,4283870.005,-99.695 
339254.996,4283820.005,-103.758 
339254.996,4283770.005,-107.326 
339254.996,4283720.005,-110.85 
339254.996,4283670.005,-115.173 
339254.996,4283620.005,-120.826 
339254.996,4283570.005,-128.535 
339254.996,4283520.005,-138.996 
339254.996,4283470.005,-154.995 
339304.996,4287220.005,-160.407 
339304.996,4287170.005,-146.344 
339304.996,4287120.005,-132.927 
339304.996,4287070.005,-114.908 
339304.996,4287020.005,-104.549 
339304.996,4286970.005,-87.932 
339304.996,4286920.005,-73.639 
339304.996,4286870.005,-70.218 
339304.996,4286820.005,-72.945 
339304.996,4286770.005,-75.474 
339304.996,4286720.005,-77.519 
339304.996,4286670.005,-73.556 
339304.996,4286620.005,-69.293 
339304.996,4286570.005,-65.941 
339304.996,4286520.005,-62 
339304.996,4286470.005,-59.561 
339304.996,4286420.005,-57.355 
339304.996,4286370.005,-55.371 
339304.996,4286320.005,-53.747 
339304.996,4285670.005,-53.533 
339304.996,4285620.005,-53.516 
339304.996,4285570.005,-53.5 
339304.996,4285520.005,-53.484 
339304.996,4285470.005,-53.467 
339304.996,4285420.005,-53.451 
339304.996,4285370.005,-53.434 
339304.996,4285320.005,-53.418 
339304.996,4285270.005,-53.401 
339304.996,4285220.005,-53.385 
339304.996,4285170.005,-53.368 
339304.996,4285120.005,-53.352 
339304.996,4285070.005,-53.335 
339304.996,4285020.005,-53.319 
339304.996,4284970.005,-53.302 
339304.996,4284920.005,-53.286 
339304.996,4284870.005,-53.269 
339304.996,4284820.005,-53.253 
339304.996,4284170.005,-53.038 
339304.996,4284120.005,-56.323 
339304.996,4284070.005,-59.236 
339304.996,4284020.005,-72.245 
339304.996,4283970.005,-85.284 
339304.996,4283920.005,-95.551 
339304.996,4283870.005,-99.358 
339304.996,4283820.005,-103.183 
339304.996,4283770.005,-107.35 
339304.996,4283720.005,-111.043 
339304.996,4283670.005,-115.837 
339304.996,4283620.005,-121.325 
339304.996,4283570.005,-129.648 
339304.996,4283520.005,-140.265 
339304.996,4283470.005,-157.725 
339354.996,4287270.005,-158.998 
339354.996,4287220.005,-141.708 
339354.996,4287170.005,-132.651 
339354.996,4287120.005,-119.809 
339354.996,4287070.005,-107.151 
339354.996,4287020.005,-92.332 
339354.996,4286970.005,-75.37 
339354.996,4286920.005,-64.386 
339354.996,4286870.005,-58.976 
339354.996,4286820.005,-61.48 
339354.996,4286770.005,-62.951 
339354.996,4286720.005,-65.019 
339354.996,4286670.005,-67.038 
339354.996,4286620.005,-63.94 
339354.996,4286570.005,-60.315 
339354.996,4286520.005,-58.231 
339354.996,4286470.005,-56.697 
339354.996,4286420.005,-55.251 
339354.996,4285620.005,-54.21 
339354.996,4285570.005,-54.144 
339354.996,4285520.005,-54.079 
339354.996,4285470.005,-54.014 
339354.996,4285420.005,-53.949 
339354.996,4285370.005,-53.884 
339354.996,4285320.005,-53.819 
339354.996,4285270.005,-53.754 
339354.996,4285220.005,-53.689 
339354.996,4285170.005,-53.624 
339354.996,4285120.005,-53.558 
339354.996,4285070.005,-53.493 
339354.996,4285020.005,-53.428 
339354.996,4284970.005,-53.363 
339354.996,4284920.005,-53.298 
339354.996,4284120.005,-52.256 
339354.996,4284070.005,-58.631 
339354.996,4284020.005,-71.965 
339354.996,4283970.005,-85.129 
339354.996,4283920.005,-95.134 
339354.996,4283870.005,-99.432 
339354.996,4283820.005,-103.145 
339354.996,4283770.005,-107.546 
339354.996,4283720.005,-111.757 
339354.996,4283670.005,-117.413 
339354.996,4283620.005,-123.316 
339354.996,4283570.005,-131.968 
339354.996,4283520.005,-143.776 
339354.996,4283470.005,-157.625 
339404.996,4287320.005,-157.419 
339404.996,4287270.005,-141.007 
339404.996,4287220.005,-122.514 
339404.996,4287170.005,-120.205 
339404.996,4287120.005,-104.015 
339404.996,4287070.005,-98.229 
339404.996,4287020.005,-82.445 
339404.996,4286970.005,-69.122 
339404.996,4286920.005,-58.836 
339404.996,4286870.005,-45.982 
339404.996,4286820.005,-56.149 
339404.996,4286770.005,-58.494 
339404.996,4286720.005,-58.472 
339404.996,4286670.005,-59.205 
339404.996,4286620.005,-58.255 
339404.996,4286570.005,-57.175 
339404.996,4286520.005,-55.736 
339404.996,4285570.005,-56.9 
339404.996,4285520.005,-56.961 
339404.996,4285470.005,-57.022 
339404.996,4285420.005,-57.083 
339404.996,4285370.005,-57.145 
339404.996,4285320.005,-57.206 
339404.996,4285270.005,-57.267 
339404.996,4285220.005,-57.328 
339404.996,4285170.005,-57.389 
339404.996,4285120.005,-57.451 
339404.996,4285070.005,-57.512 
339404.996,4285020.005,-57.573 
339404.996,4284070.005,-58.737 
339404.996,4284020.005,-71.248 
339404.996,4283970.005,-85.665 
339404.996,4283920.005,-95.154 
339404.996,4283870.005,-99.672 
339404.996,4283820.005,-103.635 
339404.996,4283770.005,-108 
339404.996,4283720.005,-113.579 
339404.996,4283670.005,-121.094 
339404.996,4283620.005,-128.296 
339404.996,4283570.005,-136.057 
339404.996,4283520.005,-149.664 
339404.996,4283470.005,-157.526 
339454.996,4287370.005,-156.692 
339454.996,4287320.005,-140.816 
339454.996,4287270.005,-123.672 
339454.996,4287220.005,-111.474 
339454.996,4287170.005,-108.684 
339454.996,4287120.005,-103.034 
339454.996,4287070.005,-91.547 
339454.996,4287020.005,-76.674 
339454.996,4286970.005,-64.541 
339454.996,4286920.005,-56.5 
339454.996,4286870.005,-45.799 
339454.996,4285570.005,-51.545 
339454.996,4285520.005,-51.766 
339454.996,4285470.005,-51.987 
339454.996,4285420.005,-52.208 
339454.996,4285370.005,-52.429 
339454.996,4284070.005,-58.175 
339454.996,4284020.005,-67.229 
339454.996,4283970.005,-83.171 
339454.996,4283920.005,-93.789 
339454.996,4283870.005,-99.477 
339454.996,4283820.005,-104.455 
339454.996,4283770.005,-109.753 
339454.996,4283720.005,-116.754 
339454.996,4283670.005,-129 
339454.996,4283620.005,-140.975 
339454.996,4283570.005,-148.382 
339454.996,4283520.005,-155.698 
339454.996,4283470.005,-157.426 
339504.996,4287370.005,-149.624 
339504.996,4287320.005,-129.633 
339504.996,4287270.005,-116.382 
339504.996,4287220.005,-109.537 
339504.996,4287170.005,-105.668 
339504.996,4287120.005,-100.133 
339504.996,4287070.005,-87.95 
339504.996,4287020.005,-72.76 
339504.996,4286970.005,-58.586 
339504.996,4286920.005,-44.994 
339504.996,4285570.005,-50.775 
339504.996,4285520.005,-50.989 
339504.996,4285470.005,-51.204 
339504.996,4285420.005,-51.418 
339504.996,4284070.005,-57.199 
339504.996,4284020.005,-65.032 
339504.996,4283970.005,-80.263 
339504.996,4283920.005,-90.254 
339504.996,4283870.005,-97.936 
339504.996,4283820.005,-104.676 
339504.996,4283770.005,-111.165 
339504.996,4283720.005,-120.295 
339504.996,4283670.005,-136.286 
339504.996,4283620.005,-152.221 
339504.996,4283570.005,-150.61 
339504.996,4283520.005,-156.624 
339504.996,4283470.005,-157.326 
339554.996,4287370.005,-144.015 
339554.996,4287320.005,-116.794 
339554.996,4287270.005,-109.385 
339554.996,4287220.005,-104.203 
339554.996,4287170.005,-101.329 
339554.996,4287120.005,-94.778 
339554.996,4287070.005,-82.412 
339554.996,4287020.005,-66.882 
339554.996,4286970.005,-58.572 
339554.996,4286920.005,-46.382 
339554.996,4285520.005,-54.193 
339554.996,4285470.005,-54.472 
339554.996,4285420.005,-54.751 
339554.996,4284020.005,-62.562 
339554.996,4283970.005,-77.946 
339554.996,4283920.005,-90.328 
339554.996,4283870.005,-97.625 
339554.996,4283820.005,-104.628 
339554.996,4283770.005,-111.939 
339554.996,4283720.005,-122.805 
339554.996,4283670.005,-138.204 
