670830.597,4640300.000,-680.410
670830.597,4640200.000,-681.210
670830.597,4640100.000,-681.370
670830.597,4640000.000,-681.260
670830.597,4639900.000,-681.210
670830.597,4639800.000,-681.370
670830.597,4639700.000,-681.570
670830.597,4639600.000,-681.610
670830.597,4639500.000,-681.320
670830.597,4639400.000,-680.790
670830.597,4639300.000,-680.600
670830.597,4639200.000,-680.230
670830.597,4639100.000,-681.480
670830.597,4639000.000,-683.000
670830.597,4638900.000,-683.720
670830.597,4638800.000,-684.250
670830.597,4638700.000,-684.770
670830.597,4638600.000,-687.100
670830.597,4638500.000,-692.470
670830.597,4638400.000,-698.160
670830.597,4638300.000,-699.840
670830.597,4638200.000,-699.170
670830.597,4638100.000,-698.530
670830.597,4638000.000,-699.260
670830.597,4637900.000,-700.840
670830.597,4637800.000,-703.310
670830.597,4637700.000,-705.230
670830.597,4637600.000,-707.560
670830.597,4637500.000,-708.100
670830.597,4637400.000,-708.610
670830.597,4637300.000,-710.750
670830.597,4637200.000,-712.370
670830.597,4637100.000,-713.280
670830.597,4637000.000,-714.620
670830.597,4636900.000,-715.660
670830.597,4636800.000,-717.430
670830.597,4636700.000,-720.990
670830.597,4636600.000,-722.240
670830.597,4636500.000,-721.050
670830.597,4636400.000,-720.380
670830.597,4636300.000,-719.850
670830.597,4636200.000,-719.780
670830.597,4636100.000,-720.380
670830.597,4636000.000,-722.740
670830.597,4635900.000,-726.780
670830.597,4635800.000,-729.150
670830.597,4635700.000,-730.150
670830.597,4635600.000,-728.810
670830.597,4635500.000,-726.870
670830.597,4635400.000,-727.360
670830.597,4635300.000,-729.140
670830.597,4635200.000,-731.820
670830.597,4635100.000,-734.060
670830.597,4635000.000,-736.120
670830.597,4634900.000,-737.430
670830.597,4634800.000,-737.700
670830.597,4634700.000,-738.760
670830.597,4634600.000,-739.750
670830.597,4634500.000,-740.860
670830.597,4634400.000,-741.290
670830.597,4634300.000,-741.810
670830.597,4634200.000,-742.550
670830.597,4634100.000,-743.900
670830.597,4634000.000,-745.210
670830.597,4633900.000,-746.430
670830.597,4633800.000,-747.590
670830.597,4633700.000,-749.200
670930.597,4668800.000,-747.300
670930.597,4668700.000,-743.050
670930.597,4668600.000,-739.590
670930.597,4668500.000,-735.530
670930.597,4668400.000,-731.120
670930.597,4668300.000,-725.320
670930.597,4668200.000,-720.700
670930.597,4668100.000,-718.280
670930.597,4668000.000,-716.110
670930.597,4667900.000,-713.760
670930.597,4667800.000,-711.160
670930.597,4667700.000,-709.150
670930.597,4667600.000,-707.640
670930.597,4667500.000,-706.820
670930.597,4667400.000,-706.260
670930.597,4667300.000,-705.760
670930.597,4667200.000,-704.940
670930.597,4667100.000,-704.040
670930.597,4667000.000,-703.220
670930.597,4666900.000,-702.250
670930.597,4666800.000,-701.210
670930.597,4666700.000,-699.840
670930.597,4666600.000,-698.370
670930.597,4666500.000,-697.320
670930.597,4666400.000,-696.560
670930.597,4666300.000,-696.120
670930.597,4666200.000,-695.740
670930.597,4666100.000,-695.610
670930.597,4666000.000,-695.040
670930.597,4665900.000,-694.590
670930.597,4665800.000,-694.790
670930.597,4665700.000,-695.530
670930.597,4665600.000,-695.840
670930.597,4665500.000,-696.260
670930.597,4665400.000,-696.340
670930.597,4665300.000,-696.510
670930.597,4665200.000,-696.950
670930.597,4665100.000,-697.180
670930.597,4665000.000,-697.310
670930.597,4664900.000,-697.080
670930.597,4664800.000,-697.210
670930.597,4664700.000,-696.990
670930.597,4664600.000,-696.690
670930.597,4664500.000,-696.300
670930.597,4664400.000,-696.500
670930.597,4664300.000,-696.470
670930.597,4664200.000,-696.340
670930.597,4664100.000,-696.280
670930.597,4664000.000,-695.870
670930.597,4663900.000,-695.500
670930.597,4663800.000,-695.260
670930.597,4663700.000,-695.060
670930.597,4663600.000,-694.730
670930.597,4663500.000,-694.290
670930.597,4663400.000,-694.480
670930.597,4663300.000,-694.410
670930.597,4663200.000,-694.550
670930.597,4663100.000,-694.750
670930.597,4663000.000,-695.600
670930.597,4662900.000,-696.960
670930.597,4662800.000,-698.170
670930.597,4662700.000,-697.500
670930.597,4662600.000,-696.910
670930.597,4662500.000,-696.880
670930.597,4662400.000,-697.460
670930.597,4662300.000,-698.810
670930.597,4662200.000,-698.800
670930.597,4662100.000,-698.150
670930.597,4662000.000,-698.390
670930.597,4661900.000,-699.370
670930.597,4661800.000,-699.440
670930.597,4661700.000,-700.330
670930.597,4661600.000,-702.210
670930.597,4661500.000,-705.410
670930.597,4661400.000,-707.200
670930.597,4661300.000,-709.880
670930.597,4661200.000,-712.380
670930.597,4661100.000,-714.550
670930.597,4661000.000,-716.090
670930.597,4660900.000,-717.800
670930.597,4660800.000,-719.880
670930.597,4660700.000,-721.190
670930.597,4660600.000,-721.580
670930.597,4660500.000,-721.710
670930.597,4660400.000,-722.000
670930.597,4660300.000,-723.220
670930.597,4660200.000,-723.670
670930.597,4660100.000,-723.840
670930.597,4660000.000,-724.830
670930.597,4659900.000,-726.120
670930.597,4659800.000,-727.660
670930.597,4659700.000,-728.450
670930.597,4659600.000,-728.510
670930.597,4659500.000,-728.230
670930.597,4659400.000,-727.570
670930.597,4659300.000,-727.570
670930.597,4659200.000,-727.520
670930.597,4659100.000,-727.560
670930.597,4659000.000,-727.780
670930.597,4658900.000,-728.110
670930.597,4658800.000,-728.160
670930.597,4658700.000,-728.690
670930.597,4658600.000,-728.320
670930.597,4658500.000,-727.420
670930.597,4658400.000,-727.230
670930.597,4658300.000,-726.610
670930.597,4658200.000,-725.990
670930.597,4658100.000,-725.640
670930.597,4658000.000,-725.380
670930.597,4657900.000,-724.670
670930.597,4657800.000,-724.410
670930.597,4657700.000,-724.750
670930.597,4657600.000,-724.870
670930.597,4657500.000,-724.490
670930.597,4657400.000,-724.280
670930.597,4657300.000,-723.990
670930.597,4657200.000,-723.500
670930.597,4657100.000,-722.560
670930.597,4657000.000,-722.860
670930.597,4656900.000,-723.560
670930.597,4656800.000,-723.730
670930.597,4656700.000,-723.490
670930.597,4656600.000,-723.460
670930.597,4656500.000,-723.450
670930.597,4656400.000,-722.960
670930.597,4656300.000,-722.000
670930.597,4656200.000,-722.260
670930.597,4656100.000,-721.610
670930.597,4656000.000,-720.310
670930.597,4655900.000,-719.960
670930.597,4655800.000,-720.590
670930.597,4655700.000,-722.190
670930.597,4655600.000,-724.410
670930.597,4655500.000,-726.330
670930.597,4655400.000,-727.110
670930.597,4655300.000,-727.140
670930.597,4655200.000,-727.810
670930.597,4655100.000,-728.660
670930.597,4655000.000,-728.500
670930.597,4654900.000,-728.030
670930.597,4654800.000,-728.490
670930.597,4654700.000,-728.510
670930.597,4654600.000,-728.210
670930.597,4654500.000,-727.690
670930.597,4654400.000,-727.620
670930.597,4654300.000,-727.310
670930.597,4654200.000,-726.750
670930.597,4654100.000,-726.610
670930.597,4654000.000,-726.340
670930.597,4653900.000,-725.650
670930.597,4653800.000,-725.310
670930.597,4653700.000,-724.750
670930.597,4653600.000,-723.310
670930.597,4653500.000,-722.090
670930.597,4653400.000,-721.970
670930.597,4653300.000,-721.940
670930.597,4653200.000,-721.740
670930.597,4653100.000,-720.100
670930.597,4653000.000,-718.030
670930.597,4652900.000,-717.190
670930.597,4652800.000,-719.630
670930.597,4652700.000,-720.930
670930.597,4652600.000,-722.290
670930.597,4652500.000,-722.650
670930.597,4652400.000,-722.260
670930.597,4652300.000,-722.590
670930.597,4652200.000,-724.530
670930.597,4652100.000,-725.160
670930.597,4652000.000,-725.210
670930.597,4651900.000,-725.040
670930.597,4651800.000,-725.370
670930.597,4651700.000,-725.740
670930.597,4651600.000,-725.820
670930.597,4651500.000,-725.830
670930.597,4651400.000,-725.510
670930.597,4651300.000,-724.370
670930.597,4651200.000,-723.780
670930.597,4651100.000,-722.970
670930.597,4651000.000,-722.210
670930.597,4650900.000,-721.410
670930.597,4650800.000,-721.720
670930.597,4650700.000,-722.440
670930.597,4650600.000,-722.860
670930.597,4650500.000,-722.390
670930.597,4650400.000,-722.000
670930.597,4650300.000,-721.120
670930.597,4650200.000,-720.480
670930.597,4650100.000,-719.650
670930.597,4650000.000,-718.100
670930.597,4649900.000,-717.930
670930.597,4649800.000,-718.100
670930.597,4649700.000,-718.030
670930.597,4649600.000,-717.730
670930.597,4649500.000,-716.930
670930.597,4649400.000,-715.480
670930.597,4649300.000,-714.420
670930.597,4649200.000,-714.390
670930.597,4649100.000,-713.910
670930.597,4649000.000,-712.940
670930.597,4648900.000,-712.740
670930.597,4648800.000,-712.390
670930.597,4648700.000,-711.400
670930.597,4648600.000,-709.930
670930.597,4648500.000,-708.200
670930.597,4648400.000,-706.000
670930.597,4648300.000,-703.700
670930.597,4648200.000,-700.930
670930.597,4648100.000,-699.410
670930.597,4648000.000,-699.010
670930.597,4647900.000,-700.640
670930.597,4647800.000,-700.710
670930.597,4647700.000,-700.120
670930.597,4647600.000,-699.290
670930.597,4647500.000,-698.570
670930.597,4647400.000,-697.950
670930.597,4647300.000,-696.450
670930.597,4647200.000,-694.760
670930.597,4647100.000,-693.900
670930.597,4647000.000,-693.880
670930.597,4646900.000,-694.370
670930.597,4646800.000,-693.710
670930.597,4646700.000,-691.160
670930.597,4646600.000,-685.440
670930.597,4646500.000,-681.290
670930.597,4646400.000,-680.070
670930.597,4646300.000,-679.820
670930.597,4646200.000,-679.460
670930.597,4646100.000,-679.380
670930.597,4646000.000,-679.520
670930.597,4645900.000,-679.270
670930.597,4645800.000,-678.480
670930.597,4645700.000,-678.590
670930.597,4645600.000,-678.420
670930.597,4645500.000,-678.190
670930.597,4645400.000,-678.240
670930.597,4645300.000,-678.420
670930.597,4645200.000,-679.110
670930.597,4645100.000,-680.260
670930.597,4645000.000,-679.160
670930.597,4644900.000,-676.520
670930.597,4644800.000,-675.410
670930.597,4644700.000,-676.180
670930.597,4644600.000,-678.750
670930.597,4644500.000,-682.720
670930.597,4644400.000,-685.640
670930.597,4644300.000,-686.540
670930.597,4644200.000,-686.840
670930.597,4644100.000,-686.210
670930.597,4644000.000,-684.760
670930.597,4643900.000,-682.880
670930.597,4643800.000,-682.750
670930.597,4643700.000,-683.300
670930.597,4643600.000,-683.380
670930.597,4643500.000,-683.640
670930.597,4643400.000,-683.340
670930.597,4643300.000,-682.310
670930.597,4643200.000,-681.020
670930.597,4643100.000,-680.110
670930.597,4643000.000,-678.740
670930.597,4642900.000,-676.840
670930.597,4642800.000,-675.630
670930.597,4642700.000,-674.880
670930.597,4642600.000,-674.080
670930.597,4642500.000,-674.440
670930.597,4642400.000,-678.160
670930.597,4642300.000,-680.060
670930.597,4642200.000,-679.400
670930.597,4642100.000,-677.240
670930.597,4642000.000,-676.700
670930.597,4641900.000,-676.550
670930.597,4641800.000,-676.940
670930.597,4641700.000,-677.220
670930.597,4641600.000,-677.160
670930.597,4641500.000,-677.160
670930.597,4641400.000,-677.400
670930.597,4641300.000,-677.640
670930.597,4641200.000,-677.440
670930.597,4641100.000,-677.130
670930.597,4641000.000,-677.250
670930.597,4640900.000,-678.050
670930.597,4640800.000,-678.460
670930.597,4640700.000,-678.860
670930.597,4640600.000,-679.940
670930.597,4640500.000,-681.090
670930.597,4640400.000,-682.100
670930.597,4640300.000,-682.680
670930.597,4640200.000,-683.460
670930.597,4640100.000,-684.100
670930.597,4640000.000,-683.800
670930.597,4639900.000,-683.560
670930.597,4639800.000,-683.750
670930.597,4639700.000,-684.010
670930.597,4639600.000,-684.120
670930.597,4639500.000,-683.920
670930.597,4639400.000,-683.590
670930.597,4639300.000,-683.790
670930.597,4639200.000,-683.970
670930.597,4639100.000,-684.520
670930.597,4639000.000,-685.600
670930.597,4638900.000,-686.320
670930.597,4638800.000,-686.770
670930.597,4638700.000,-687.480
670930.597,4638600.000,-689.420
670930.597,4638500.000,-695.320
670930.597,4638400.000,-700.250
670930.597,4638300.000,-700.740
670930.597,4638200.000,-698.960
670930.597,4638100.000,-700.280
670930.597,4638000.000,-701.700
670930.597,4637900.000,-703.700
670930.597,4637800.000,-705.930
670930.597,4637700.000,-707.980
670930.597,4637600.000,-709.470
670930.597,4637500.000,-711.080
670930.597,4637400.000,-712.470
670930.597,4637300.000,-714.390
670930.597,4637200.000,-715.840
670930.597,4637100.000,-716.770
670930.597,4637000.000,-718.320
670930.597,4636900.000,-719.940
670930.597,4636800.000,-721.440
670930.597,4636700.000,-724.170
670930.597,4636600.000,-725.810
670930.597,4636500.000,-725.930
670930.597,4636400.000,-725.830
670930.597,4636300.000,-724.370
670930.597,4636200.000,-724.540
670930.597,4636100.000,-725.260
670930.597,4636000.000,-727.380
670930.597,4635900.000,-731.070
670930.597,4635800.000,-733.560
670930.597,4635700.000,-734.770
670930.597,4635600.000,-735.120
670930.597,4635500.000,-735.400
670930.597,4635400.000,-731.820
670930.597,4635300.000,-732.650
670930.597,4635200.000,-735.470
670930.597,4635100.000,-737.950
670930.597,4635000.000,-739.640
670930.597,4634900.000,-741.610
670930.597,4634800.000,-742.040
670930.597,4634700.000,-742.640
670930.597,4634600.000,-743.880
670930.597,4634500.000,-744.770
670930.597,4634400.000,-745.090
670930.597,4634300.000,-746.100
670930.597,4634200.000,-746.760
670930.597,4634100.000,-748.400
670930.597,4634000.000,-749.110
670930.597,4633900.000,-749.750
671030.597,4668700.000,-748.740
671030.597,4668600.000,-744.590
671030.597,4668500.000,-739.930
671030.597,4668400.000,-736.140
671030.597,4668300.000,-730.770
671030.597,4668200.000,-725.560
671030.597,4668100.000,-721.740
671030.597,4668000.000,-718.940
671030.597,4667900.000,-716.270
671030.597,4667800.000,-713.160
671030.597,4667700.000,-710.930
671030.597,4667600.000,-709.640
671030.597,4667500.000,-709.200
671030.597,4667400.000,-708.380
671030.597,4667300.000,-707.570
671030.597,4667200.000,-706.810
671030.597,4667100.000,-705.940
671030.597,4667000.000,-705.210
671030.597,4666900.000,-704.230
671030.597,4666800.000,-702.870
671030.597,4666700.000,-701.150
671030.597,4666600.000,-699.690
671030.597,4666500.000,-698.860
671030.597,4666400.000,-697.960
671030.597,4666300.000,-697.290
671030.597,4666200.000,-696.830
671030.597,4666100.000,-696.260
671030.597,4666000.000,-695.860
671030.597,4665900.000,-695.920
671030.597,4665800.000,-696.080
671030.597,4665700.000,-696.190
671030.597,4665600.000,-696.340
671030.597,4665500.000,-696.590
671030.597,4665400.000,-696.860
671030.597,4665300.000,-697.260
671030.597,4665200.000,-697.640
671030.597,4665100.000,-698.110
671030.597,4665000.000,-698.220
671030.597,4664900.000,-698.260
671030.597,4664800.000,-698.300
671030.597,4664700.000,-698.170
671030.597,4664600.000,-697.620
671030.597,4664500.000,-697.410
671030.597,4664400.000,-697.400
671030.597,4664300.000,-697.110
671030.597,4664200.000,-697.130
671030.597,4664100.000,-696.740
671030.597,4664000.000,-696.300
671030.597,4663900.000,-696.030
671030.597,4663800.000,-695.760
671030.597,4663700.000,-695.650
671030.597,4663600.000,-695.670
671030.597,4663500.000,-695.870
671030.597,4663400.000,-696.010
671030.597,4663300.000,-696.850
671030.597,4663200.000,-696.400
671030.597,4663100.000,-696.460
671030.597,4663000.000,-697.530
671030.597,4662900.000,-698.210
671030.597,4662800.000,-698.260
671030.597,4662700.000,-697.670
671030.597,4662600.000,-697.660
671030.597,4662500.000,-697.710
671030.597,4662400.000,-698.550
671030.597,4662300.000,-699.710
671030.597,4662200.000,-699.010
671030.597,4662100.000,-698.870
671030.597,4662000.000,-699.690
671030.597,4661900.000,-700.700
671030.597,4661800.000,-700.340
671030.597,4661700.000,-700.870
671030.597,4661600.000,-703.050
671030.597,4661500.000,-705.310
671030.597,4661400.000,-707.120
671030.597,4661300.000,-709.430
671030.597,4661200.000,-711.550
671030.597,4661100.000,-713.560
671030.597,4661000.000,-716.110
671030.597,4660900.000,-717.960
671030.597,4660800.000,-720.160
671030.597,4660700.000,-721.540
671030.597,4660600.000,-721.670
671030.597,4660500.000,-721.900
671030.597,4660400.000,-722.410
671030.597,4660300.000,-723.210
671030.597,4660200.000,-723.850
671030.597,4660100.000,-724.640
671030.597,4660000.000,-725.660
671030.597,4659900.000,-726.520
671030.597,4659800.000,-727.260
671030.597,4659700.000,-728.540
671030.597,4659600.000,-729.160
671030.597,4659500.000,-729.710
671030.597,4659400.000,-730.220
671030.597,4659300.000,-730.660
671030.597,4659200.000,-730.670
671030.597,4659100.000,-730.170
671030.597,4659000.000,-729.880
671030.597,4658900.000,-729.160
671030.597,4658800.000,-729.610
671030.597,4658700.000,-729.470
671030.597,4658600.000,-729.510
671030.597,4658500.000,-728.800
671030.597,4658400.000,-728.740
671030.597,4658300.000,-728.770
671030.597,4658200.000,-728.330
671030.597,4658100.000,-727.660
671030.597,4658000.000,-727.010
671030.597,4657900.000,-726.680
671030.597,4657800.000,-726.240
671030.597,4657700.000,-726.580
671030.597,4657600.000,-726.680
671030.597,4657500.000,-726.290
671030.597,4657400.000,-725.940
671030.597,4657300.000,-725.570
671030.597,4657200.000,-725.130
671030.597,4657100.000,-724.790
671030.597,4657000.000,-724.800
671030.597,4656900.000,-725.220
671030.597,4656800.000,-724.930
671030.597,4656700.000,-724.740
671030.597,4656600.000,-724.890
671030.597,4656500.000,-724.780
671030.597,4656400.000,-724.230
671030.597,4656300.000,-723.530
671030.597,4656200.000,-723.410
671030.597,4656100.000,-722.920
671030.597,4656000.000,-722.140
671030.597,4655900.000,-722.020
671030.597,4655800.000,-722.480
671030.597,4655700.000,-723.750
671030.597,4655600.000,-725.850
671030.597,4655500.000,-727.050
671030.597,4655400.000,-727.860
671030.597,4655300.000,-728.010
671030.597,4655200.000,-728.600
671030.597,4655100.000,-729.340
671030.597,4655000.000,-729.520
671030.597,4654900.000,-729.070
671030.597,4654800.000,-728.970
671030.597,4654700.000,-729.060
671030.597,4654600.000,-729.580
671030.597,4654500.000,-729.610
671030.597,4654400.000,-729.370
671030.597,4654300.000,-729.210
671030.597,4654200.000,-728.730
671030.597,4654100.000,-728.670
671030.597,4654000.000,-728.430
671030.597,4653900.000,-727.720
671030.597,4653800.000,-727.100
671030.597,4653700.000,-726.220
671030.597,4653600.000,-724.120
671030.597,4653500.000,-722.660
671030.597,4653400.000,-722.760
671030.597,4653300.000,-723.590
671030.597,4653200.000,-723.390
671030.597,4653100.000,-721.810
671030.597,4653000.000,-720.340
671030.597,4652900.000,-720.270
671030.597,4652800.000,-721.360
671030.597,4652700.000,-722.680
671030.597,4652600.000,-723.590
671030.597,4652500.000,-723.820
671030.597,4652400.000,-723.670
671030.597,4652300.000,-724.020
671030.597,4652200.000,-725.490
671030.597,4652100.000,-726.770
671030.597,4652000.000,-726.360
671030.597,4651900.000,-726.170
671030.597,4651800.000,-726.280
671030.597,4651700.000,-726.640
671030.597,4651600.000,-726.650
671030.597,4651500.000,-726.370
671030.597,4651400.000,-726.150
671030.597,4651300.000,-725.330
671030.597,4651200.000,-724.760
671030.597,4651100.000,-724.090
671030.597,4651000.000,-723.420
671030.597,4650900.000,-722.960
671030.597,4650800.000,-722.760
671030.597,4650700.000,-723.600
671030.597,4650600.000,-723.780
671030.597,4650500.000,-723.530
671030.597,4650400.000,-723.090
671030.597,4650300.000,-722.890
671030.597,4650200.000,-722.420
671030.597,4650100.000,-721.970
671030.597,4650000.000,-721.740
671030.597,4649900.000,-721.410
671030.597,4649800.000,-721.630
671030.597,4649700.000,-721.730
671030.597,4649600.000,-720.100
671030.597,4649500.000,-718.310
671030.597,4649400.000,-717.090
671030.597,4649300.000,-716.260
671030.597,4649200.000,-715.580
671030.597,4649100.000,-714.660
671030.597,4649000.000,-713.850
671030.597,4648900.000,-714.040
671030.597,4648800.000,-713.070
671030.597,4648700.000,-711.550
671030.597,4648600.000,-710.530
671030.597,4648500.000,-709.380
671030.597,4648400.000,-708.310
671030.597,4648300.000,-706.390
671030.597,4648200.000,-703.410
671030.597,4648100.000,-702.730
671030.597,4648000.000,-703.080
671030.597,4647900.000,-704.400
671030.597,4647800.000,-703.880
671030.597,4647700.000,-702.510
671030.597,4647600.000,-700.970
671030.597,4647500.000,-699.980
671030.597,4647400.000,-699.540
671030.597,4647300.000,-698.010
671030.597,4647200.000,-696.040
671030.597,4647100.000,-695.700
671030.597,4647000.000,-695.900
671030.597,4646900.000,-695.730
671030.597,4646800.000,-695.290
671030.597,4646700.000,-691.770
671030.597,4646600.000,-685.230
671030.597,4646500.000,-683.200
671030.597,4646400.000,-683.130
671030.597,4646300.000,-683.210
671030.597,4646200.000,-683.020
671030.597,4646100.000,-681.900
671030.597,4646000.000,-681.400
671030.597,4645900.000,-680.920
671030.597,4645800.000,-680.430
671030.597,4645700.000,-680.360
671030.597,4645600.000,-680.240
671030.597,4645500.000,-679.420
671030.597,4645400.000,-678.960
671030.597,4645300.000,-679.560
671030.597,4645200.000,-680.950
671030.597,4645100.000,-682.170
671030.597,4645000.000,-681.450
671030.597,4644900.000,-679.770
671030.597,4644800.000,-678.650
671030.597,4644700.000,-680.100
671030.597,4644600.000,-682.890
671030.597,4644500.000,-687.230
671030.597,4644400.000,-689.940
671030.597,4644300.000,-690.000
671030.597,4644200.000,-689.800
671030.597,4644100.000,-689.410
671030.597,4644000.000,-688.320
671030.597,4643900.000,-686.740
671030.597,4643800.000,-686.530
671030.597,4643700.000,-687.190
671030.597,4643600.000,-687.510
671030.597,4643500.000,-687.180
671030.597,4643400.000,-686.250
671030.597,4643300.000,-684.870
671030.597,4643200.000,-683.470
671030.597,4643100.000,-682.040
671030.597,4643000.000,-680.380
671030.597,4642900.000,-678.580
671030.597,4642800.000,-677.210
671030.597,4642700.000,-676.260
671030.597,4642600.000,-675.710
671030.597,4642500.000,-677.020
671030.597,4642400.000,-680.380
671030.597,4642300.000,-682.400
671030.597,4642200.000,-682.620
671030.597,4642100.000,-681.140
671030.597,4642000.000,-680.130
671030.597,4641900.000,-679.870
671030.597,4641800.000,-679.990
671030.597,4641700.000,-679.810
671030.597,4641600.000,-679.430
671030.597,4641500.000,-679.260
671030.597,4641400.000,-679.610
671030.597,4641300.000,-679.470
671030.597,4641200.000,-679.290
671030.597,4641100.000,-679.410
671030.597,4641000.000,-679.740
671030.597,4640900.000,-680.170
671030.597,4640800.000,-680.730
671030.597,4640700.000,-681.240
671030.597,4640600.000,-682.070
671030.597,4640500.000,-683.260
671030.597,4640400.000,-684.240
671030.597,4640300.000,-684.720
671030.597,4640200.000,-685.270
671030.597,4640100.000,-685.790
671030.597,4640000.000,-686.340
671030.597,4639900.000,-686.060
671030.597,4639800.000,-686.170
671030.597,4639700.000,-686.710
671030.597,4639600.000,-686.600
671030.597,4639500.000,-686.190
671030.597,4639400.000,-686.330
671030.597,4639300.000,-687.030
671030.597,4639200.000,-687.440
671030.597,4639100.000,-687.800
671030.597,4639000.000,-688.560
671030.597,4638900.000,-689.140
671030.597,4638800.000,-689.420
671030.597,4638700.000,-690.070
671030.597,4638600.000,-692.100
671030.597,4638500.000,-697.150
671030.597,4638400.000,-703.290
671030.597,4638300.000,-703.340
671030.597,4638200.000,-702.750
671030.597,4638100.000,-703.540
671030.597,4638000.000,-705.830
671030.597,4637900.000,-707.990
671030.597,4637800.000,-709.560
671030.597,4637700.000,-710.430
671030.597,4637600.000,-711.880
671030.597,4637500.000,-713.810
671030.597,4637400.000,-715.470
671030.597,4637300.000,-717.450
671030.597,4637200.000,-718.610
671030.597,4637100.000,-719.690
671030.597,4637000.000,-721.660
671030.597,4636900.000,-723.040
671030.597,4636800.000,-724.410
671030.597,4636700.000,-726.110
671030.597,4636600.000,-728.270
671030.597,4636500.000,-729.720
671030.597,4636400.000,-728.970
671030.597,4636300.000,-727.880
671030.597,4636200.000,-727.950
671030.597,4636100.000,-728.870
671030.597,4636000.000,-730.930
671030.597,4635900.000,-733.890
671030.597,4635800.000,-737.670
671030.597,4635700.000,-739.480
671030.597,4635600.000,-741.020
671030.597,4635500.000,-742.550
671030.597,4635400.000,-740.350
671030.597,4635300.000,-738.600
671030.597,4635200.000,-739.820
671030.597,4635100.000,-741.750
671030.597,4635000.000,-743.200
671030.597,4634900.000,-745.180
671030.597,4634800.000,-745.920
671030.597,4634700.000,-746.070
671030.597,4634600.000,-747.030
671030.597,4634500.000,-747.710
671030.597,4634400.000,-748.430
671030.597,4634300.000,-749.980
671130.597,4668500.000,-744.850
671130.597,4668400.000,-740.320
671130.597,4668300.000,-735.420
671130.597,4668200.000,-730.450
671130.597,4668100.000,-725.300
671130.597,4668000.000,-721.350
671130.597,4667900.000,-718.660
671130.597,4667800.000,-716.090
671130.597,4667700.000,-713.320
671130.597,4667600.000,-712.160
671130.597,4667500.000,-711.390
671130.597,4667400.000,-710.680
671130.597,4667300.000,-709.770
671130.597,4667200.000,-708.820
671130.597,4667100.000,-708.080
671130.597,4667000.000,-706.960
671130.597,4666900.000,-705.830
671130.597,4666800.000,-704.470
671130.597,4666700.000,-703.060
671130.597,4666600.000,-701.650
671130.597,4666500.000,-700.500
671130.597,4666400.000,-699.700
671130.597,4666300.000,-698.860
671130.597,4666200.000,-698.080
671130.597,4666100.000,-697.930
671130.597,4666000.000,-697.790
671130.597,4665900.000,-697.410
671130.597,4665800.000,-696.710
671130.597,4665700.000,-696.880
671130.597,4665600.000,-697.110
671130.597,4665500.000,-697.490
671130.597,4665400.000,-697.710
671130.597,4665300.000,-698.030
671130.597,4665200.000,-698.320
671130.597,4665100.000,-698.760
671130.597,4665000.000,-698.780
671130.597,4664900.000,-698.890
671130.597,4664800.000,-698.970
671130.597,4664700.000,-698.670
671130.597,4664600.000,-698.250
671130.597,4664500.000,-698.150
671130.597,4664400.000,-698.320
671130.597,4664300.000,-698.120
671130.597,4664200.000,-698.030
671130.597,4664100.000,-697.630
671130.597,4664000.000,-697.030
671130.597,4663900.000,-696.690
671130.597,4663800.000,-696.540
671130.597,4663700.000,-696.320
671130.597,4663600.000,-696.450
671130.597,4663500.000,-696.700
671130.597,4663400.000,-697.470
671130.597,4663300.000,-697.950
671130.597,4663200.000,-697.790
671130.597,4663100.000,-698.300
671130.597,4663000.000,-699.580
671130.597,4662900.000,-699.620
671130.597,4662800.000,-699.130
671130.597,4662700.000,-698.140
671130.597,4662600.000,-697.820
671130.597,4662500.000,-698.120
671130.597,4662400.000,-699.630
671130.597,4662300.000,-700.110
671130.597,4662200.000,-699.170
671130.597,4662100.000,-700.030
671130.597,4662000.000,-701.120
671130.597,4661900.000,-701.660
671130.597,4661800.000,-701.830
671130.597,4661700.000,-702.510
671130.597,4661600.000,-704.040
671130.597,4661500.000,-706.230
671130.597,4661400.000,-707.520
671130.597,4661300.000,-709.640
671130.597,4661200.000,-711.510
671130.597,4661100.000,-713.460
671130.597,4661000.000,-715.700
671130.597,4660900.000,-717.540
671130.597,4660800.000,-719.500
671130.597,4660700.000,-721.120
671130.597,4660600.000,-721.860
671130.597,4660500.000,-722.190
671130.597,4660400.000,-723.030
671130.597,4660300.000,-723.880
671130.597,4660200.000,-725.140
671130.597,4660100.000,-725.810
671130.597,4660000.000,-725.980
671130.597,4659900.000,-725.940
671130.597,4659800.000,-726.370
671130.597,4659700.000,-728.110
671130.597,4659600.000,-728.760
671130.597,4659500.000,-729.920
671130.597,4659400.000,-730.050
671130.597,4659300.000,-731.060
671130.597,4659200.000,-731.280
671130.597,4659100.000,-731.350
671130.597,4659000.000,-732.450
671130.597,4658900.000,-732.970
671130.597,4658800.000,-732.670
671130.597,4658700.000,-731.650
671130.597,4658600.000,-731.320
671130.597,4658500.000,-730.320
671130.597,4658400.000,-730.040
671130.597,4658300.000,-730.060
671130.597,4658200.000,-729.550
671130.597,4658100.000,-728.690
671130.597,4658000.000,-728.470
671130.597,4657900.000,-728.410
671130.597,4657800.000,-728.280
671130.597,4657700.000,-728.390
671130.597,4657600.000,-728.700
671130.597,4657500.000,-728.910
671130.597,4657400.000,-728.730
671130.597,4657300.000,-727.970
671130.597,4657200.000,-727.400
671130.597,4657100.000,-727.210
671130.597,4657000.000,-727.260
671130.597,4656900.000,-727.280
671130.597,4656800.000,-727.100
671130.597,4656700.000,-726.680
671130.597,4656600.000,-726.310
671130.597,4656500.000,-726.010
671130.597,4656400.000,-725.010
671130.597,4656300.000,-724.310
671130.597,4656200.000,-724.390
671130.597,4656100.000,-724.110
671130.597,4656000.000,-723.710
671130.597,4655900.000,-724.110
671130.597,4655800.000,-725.070
671130.597,4655700.000,-725.800
671130.597,4655600.000,-726.990
671130.597,4655500.000,-728.110
671130.597,4655400.000,-728.570
671130.597,4655300.000,-728.960
671130.597,4655200.000,-729.730
671130.597,4655100.000,-730.380
671130.597,4655000.000,-730.230
671130.597,4654900.000,-729.520
671130.597,4654800.000,-729.060
671130.597,4654700.000,-729.280
671130.597,4654600.000,-729.710
671130.597,4654500.000,-730.010
671130.597,4654400.000,-729.980
671130.597,4654300.000,-729.830
671130.597,4654200.000,-729.390
671130.597,4654100.000,-729.590
671130.597,4654000.000,-729.750
671130.597,4653900.000,-729.430
671130.597,4653800.000,-728.850
671130.597,4653700.000,-727.520
671130.597,4653600.000,-725.650
671130.597,4653500.000,-725.040
671130.597,4653400.000,-725.390
671130.597,4653300.000,-725.290
671130.597,4653200.000,-724.990
671130.597,4653100.000,-723.670
671130.597,4653000.000,-722.990
671130.597,4652900.000,-721.550
671130.597,4652800.000,-722.200
671130.597,4652700.000,-723.760
671130.597,4652600.000,-724.060
671130.597,4652500.000,-724.240
671130.597,4652400.000,-724.420
671130.597,4652300.000,-724.890
671130.597,4652200.000,-725.610
671130.597,4652100.000,-726.880
671130.597,4652000.000,-727.930
671130.597,4651900.000,-727.440
671130.597,4651800.000,-727.710
671130.597,4651700.000,-727.920
671130.597,4651600.000,-728.110
671130.597,4651500.000,-727.840
671130.597,4651400.000,-727.600
671130.597,4651300.000,-727.150
671130.597,4651200.000,-726.470
671130.597,4651100.000,-725.510
671130.597,4651000.000,-724.870
671130.597,4650900.000,-724.420
671130.597,4650800.000,-723.950
671130.597,4650700.000,-724.880
671130.597,4650600.000,-725.780
671130.597,4650500.000,-725.380
671130.597,4650400.000,-724.720
671130.597,4650300.000,-724.020
671130.597,4650200.000,-723.950
671130.597,4650100.000,-723.740
671130.597,4650000.000,-723.620
671130.597,4649900.000,-723.430
671130.597,4649800.000,-723.240
671130.597,4649700.000,-722.830
671130.597,4649600.000,-721.960
671130.597,4649500.000,-720.620
671130.597,4649400.000,-720.040
671130.597,4649300.000,-718.830
671130.597,4649200.000,-718.200
671130.597,4649100.000,-717.100
671130.597,4649000.000,-716.450
671130.597,4648900.000,-716.150
671130.597,4648800.000,-714.440
671130.597,4648700.000,-713.160
671130.597,4648600.000,-711.390
671130.597,4648500.000,-710.330
671130.597,4648400.000,-709.190
671130.597,4648300.000,-707.580
671130.597,4648200.000,-705.160
671130.597,4648100.000,-704.850
671130.597,4648000.000,-705.700
671130.597,4647900.000,-706.230
671130.597,4647800.000,-705.360
671130.597,4647700.000,-703.830
671130.597,4647600.000,-702.620
671130.597,4647500.000,-701.700
671130.597,4647400.000,-701.770
671130.597,4647300.000,-700.910
671130.597,4647200.000,-700.230
671130.597,4647100.000,-699.300
671130.597,4647000.000,-698.770
671130.597,4646900.000,-698.180
671130.597,4646800.000,-696.640
671130.597,4646700.000,-691.540
671130.597,4646600.000,-685.740
671130.597,4646500.000,-683.880
671130.597,4646400.000,-684.570
671130.597,4646300.000,-685.460
671130.597,4646200.000,-685.340
671130.597,4646100.000,-684.910
671130.597,4646000.000,-684.050
671130.597,4645900.000,-683.440
671130.597,4645800.000,-683.200
671130.597,4645700.000,-683.270
671130.597,4645600.000,-683.530
671130.597,4645500.000,-682.790
671130.597,4645400.000,-681.370
671130.597,4645300.000,-682.330
671130.597,4645200.000,-683.640
671130.597,4645100.000,-684.840
671130.597,4645000.000,-684.180
671130.597,4644900.000,-682.110
671130.597,4644800.000,-681.690
671130.597,4644700.000,-683.190
671130.597,4644600.000,-686.210
671130.597,4644500.000,-689.980
671130.597,4644400.000,-691.730
671130.597,4644300.000,-691.510
671130.597,4644200.000,-691.840
671130.597,4644100.000,-692.770
671130.597,4644000.000,-691.820
671130.597,4643900.000,-690.660
671130.597,4643800.000,-690.430
671130.597,4643700.000,-691.910
671130.597,4643600.000,-692.260
671130.597,4643500.000,-691.800
671130.597,4643400.000,-689.690
671130.597,4643300.000,-687.980
671130.597,4643200.000,-686.790
671130.597,4643100.000,-685.180
671130.597,4643000.000,-682.950
671130.597,4642900.000,-680.880
671130.597,4642800.000,-679.150
671130.597,4642700.000,-677.980
671130.597,4642600.000,-677.840
671130.597,4642500.000,-680.040
671130.597,4642400.000,-683.660
671130.597,4642300.000,-685.400
671130.597,4642200.000,-685.090
671130.597,4642100.000,-684.120
671130.597,4642000.000,-682.930
671130.597,4641900.000,-682.730
671130.597,4641800.000,-682.810
671130.597,4641700.000,-682.570
671130.597,4641600.000,-682.420
671130.597,4641500.000,-682.130
671130.597,4641400.000,-681.970
671130.597,4641300.000,-681.750
671130.597,4641200.000,-681.910
671130.597,4641100.000,-682.080
671130.597,4641000.000,-682.410
671130.597,4640900.000,-682.600
671130.597,4640800.000,-683.090
671130.597,4640700.000,-683.840
671130.597,4640600.000,-684.740
671130.597,4640500.000,-685.790
671130.597,4640400.000,-686.730
671130.597,4640300.000,-687.270
671130.597,4640200.000,-687.520
671130.597,4640100.000,-687.750
671130.597,4640000.000,-688.670
671130.597,4639900.000,-688.280
671130.597,4639800.000,-688.260
671130.597,4639700.000,-688.410
671130.597,4639600.000,-688.260
671130.597,4639500.000,-688.390
671130.597,4639400.000,-688.920
671130.597,4639300.000,-689.580
671130.597,4639200.000,-690.270
671130.597,4639100.000,-690.760
671130.597,4639000.000,-691.170
671130.597,4638900.000,-691.620
671130.597,4638800.000,-691.930
671130.597,4638700.000,-692.420
671130.597,4638600.000,-694.260
671130.597,4638500.000,-699.880
671130.597,4638400.000,-705.070
671130.597,4638300.000,-705.740
671130.597,4638200.000,-705.140
671130.597,4638100.000,-705.520
671130.597,4638000.000,-708.090
671130.597,4637900.000,-711.680
671130.597,4637800.000,-713.420
671130.597,4637700.000,-715.270
671130.597,4637600.000,-717.650
671130.597,4637500.000,-718.240
671130.597,4637400.000,-719.980
671130.597,4637300.000,-721.020
671130.597,4637200.000,-721.750
671130.597,4637100.000,-722.610
671130.597,4637000.000,-723.780
671130.597,4636900.000,-725.450
671130.597,4636800.000,-727.900
671130.597,4636700.000,-729.460
671130.597,4636600.000,-730.920
671130.597,4636500.000,-732.980
671130.597,4636400.000,-732.830
671130.597,4636300.000,-731.100
671130.597,4636200.000,-730.740
671130.597,4636100.000,-731.870
671130.597,4636000.000,-733.710
671130.597,4635900.000,-736.680
671130.597,4635800.000,-740.570
671130.597,4635700.000,-743.670
671130.597,4635600.000,-745.040
671130.597,4635500.000,-746.280
671130.597,4635400.000,-746.550
671130.597,4635300.000,-745.720
671130.597,4635200.000,-744.080
671130.597,4635100.000,-744.700
671130.597,4635000.000,-746.720
671130.597,4634900.000,-748.230
671130.597,4634800.000,-748.860
671130.597,4634700.000,-749.650
671230.597,4668400.000,-745.680
671230.597,4668300.000,-740.950
671230.597,4668200.000,-734.690
671230.597,4668100.000,-729.010
671230.597,4668000.000,-724.320
671230.597,4667900.000,-721.130
671230.597,4667800.000,-718.550
671230.597,4667700.000,-716.000
671230.597,4667600.000,-714.750
671230.597,4667500.000,-713.760
671230.597,4667400.000,-712.910
671230.597,4667300.000,-712.090
671230.597,4667200.000,-711.020
671230.597,4667100.000,-709.820
671230.597,4667000.000,-709.010
671230.597,4666900.000,-707.790
671230.597,4666800.000,-706.250
671230.597,4666700.000,-704.710
671230.597,4666600.000,-703.690
671230.597,4666500.000,-702.490
671230.597,4666400.000,-701.870
671230.597,4666300.000,-700.880
671230.597,4666200.000,-699.870
671230.597,4666100.000,-699.060
671230.597,4666000.000,-698.820
671230.597,4665900.000,-698.740
671230.597,4665800.000,-698.240
671230.597,4665700.000,-697.910
671230.597,4665600.000,-698.260
671230.597,4665500.000,-698.490
671230.597,4665400.000,-698.770
671230.597,4665300.000,-699.090
671230.597,4665200.000,-699.340
671230.597,4665100.000,-699.480
671230.597,4665000.000,-699.520
671230.597,4664900.000,-699.490
671230.597,4664800.000,-699.320
671230.597,4664700.000,-698.980
671230.597,4664600.000,-698.680
671230.597,4664500.000,-698.500
671230.597,4664400.000,-698.340
671230.597,4664300.000,-698.780
671230.597,4664200.000,-698.680
671230.597,4664100.000,-698.490
671230.597,4664000.000,-698.100
671230.597,4663900.000,-697.820
671230.597,4663800.000,-697.630
671230.597,4663700.000,-697.580
671230.597,4663600.000,-697.670
671230.597,4663500.000,-697.900
671230.597,4663400.000,-698.520
671230.597,4663300.000,-699.160
671230.597,4663200.000,-698.840
671230.597,4663100.000,-699.680
671230.597,4663000.000,-701.200
671230.597,4662900.000,-700.900
671230.597,4662800.000,-700.050
671230.597,4662700.000,-699.140
671230.597,4662600.000,-698.620
671230.597,4662500.000,-699.180
671230.597,4662400.000,-700.520
671230.597,4662300.000,-700.820
671230.597,4662200.000,-700.590
671230.597,4662100.000,-701.430
671230.597,4662000.000,-701.850
671230.597,4661900.000,-702.030
671230.597,4661800.000,-702.230
671230.597,4661700.000,-703.250
671230.597,4661600.000,-705.380
671230.597,4661500.000,-707.680
671230.597,4661400.000,-708.790
671230.597,4661300.000,-710.850
671230.597,4661200.000,-711.670
671230.597,4661100.000,-713.330
671230.597,4661000.000,-715.470
671230.597,4660900.000,-717.500
671230.597,4660800.000,-718.800
671230.597,4660700.000,-720.420
671230.597,4660600.000,-721.730
671230.597,4660500.000,-722.820
671230.597,4660400.000,-724.000
671230.597,4660300.000,-725.000
671230.597,4660200.000,-726.160
671230.597,4660100.000,-726.250
671230.597,4660000.000,-726.140
671230.597,4659900.000,-726.060
671230.597,4659800.000,-726.800
671230.597,4659700.000,-727.870
671230.597,4659600.000,-729.110
671230.597,4659500.000,-730.070
671230.597,4659400.000,-730.230
671230.597,4659300.000,-730.990
671230.597,4659200.000,-731.460
671230.597,4659100.000,-731.870
671230.597,4659000.000,-732.980
671230.597,4658900.000,-733.860
671230.597,4658800.000,-734.060
671230.597,4658700.000,-734.310
671230.597,4658600.000,-734.120
671230.597,4658500.000,-733.320
671230.597,4658400.000,-732.730
671230.597,4658300.000,-732.560
671230.597,4658200.000,-731.490
671230.597,4658100.000,-730.970
671230.597,4658000.000,-730.670
671230.597,4657900.000,-730.220
671230.597,4657800.000,-729.650
671230.597,4657700.000,-729.550
671230.597,4657600.000,-730.030
671230.597,4657500.000,-730.860
671230.597,4657400.000,-731.200
671230.597,4657300.000,-730.630
671230.597,4657200.000,-730.150
671230.597,4657100.000,-730.040
671230.597,4657000.000,-729.790
671230.597,4656900.000,-729.590
671230.597,4656800.000,-729.420
671230.597,4656700.000,-728.930
671230.597,4656600.000,-727.950
671230.597,4656500.000,-727.480
671230.597,4656400.000,-726.410
671230.597,4656300.000,-725.650
671230.597,4656200.000,-725.770
671230.597,4656100.000,-725.500
671230.597,4656000.000,-725.020
671230.597,4655900.000,-725.640
671230.597,4655800.000,-726.560
671230.597,4655700.000,-727.300
671230.597,4655600.000,-728.020
671230.597,4655500.000,-729.170
671230.597,4655400.000,-729.840
671230.597,4655300.000,-730.230
671230.597,4655200.000,-730.660
671230.597,4655100.000,-731.390
671230.597,4655000.000,-731.590
671230.597,4654900.000,-730.260
671230.597,4654800.000,-730.010
671230.597,4654700.000,-730.240
671230.597,4654600.000,-730.560
671230.597,4654500.000,-730.540
671230.597,4654400.000,-730.360
671230.597,4654300.000,-730.060
671230.597,4654200.000,-730.340
671230.597,4654100.000,-730.420
671230.597,4654000.000,-730.270
671230.597,4653900.000,-730.010
671230.597,4653800.000,-729.690
671230.597,4653700.000,-728.290
671230.597,4653600.000,-726.950
671230.597,4653500.000,-726.790
671230.597,4653400.000,-726.740
671230.597,4653300.000,-726.960
671230.597,4653200.000,-726.850
671230.597,4653100.000,-725.870
671230.597,4653000.000,-724.790
671230.597,4652900.000,-723.550
671230.597,4652800.000,-723.950
671230.597,4652700.000,-725.650
671230.597,4652600.000,-725.090
671230.597,4652500.000,-725.150
671230.597,4652400.000,-725.710
671230.597,4652300.000,-726.020
671230.597,4652200.000,-726.300
671230.597,4652100.000,-727.520
671230.597,4652000.000,-728.470
671230.597,4651900.000,-728.760
671230.597,4651800.000,-728.480
671230.597,4651700.000,-728.480
671230.597,4651600.000,-729.210
671230.597,4651500.000,-729.950
671230.597,4651400.000,-729.890
671230.597,4651300.000,-729.340
671230.597,4651200.000,-728.700
671230.597,4651100.000,-727.580
671230.597,4651000.000,-726.790
671230.597,4650900.000,-726.480
671230.597,4650800.000,-726.400
671230.597,4650700.000,-726.910
671230.597,4650600.000,-727.280
671230.597,4650500.000,-727.430
671230.597,4650400.000,-726.660
671230.597,4650300.000,-725.930
671230.597,4650200.000,-725.430
671230.597,4650100.000,-725.100
671230.597,4650000.000,-725.000
671230.597,4649900.000,-724.750
671230.597,4649800.000,-724.020
671230.597,4649700.000,-723.590
671230.597,4649600.000,-722.940
671230.597,4649500.000,-722.010
671230.597,4649400.000,-721.020
671230.597,4649300.000,-720.180
671230.597,4649200.000,-719.580
671230.597,4649100.000,-719.610
671230.597,4649000.000,-719.520
671230.597,4648900.000,-718.970
671230.597,4648800.000,-717.160
671230.597,4648700.000,-715.920
671230.597,4648600.000,-714.670
671230.597,4648500.000,-713.380
671230.597,4648400.000,-711.730
671230.597,4648300.000,-709.770
671230.597,4648200.000,-708.030
671230.597,4648100.000,-707.310
671230.597,4648000.000,-707.840
671230.597,4647900.000,-707.510
671230.597,4647800.000,-706.020
671230.597,4647700.000,-704.530
671230.597,4647600.000,-703.810
671230.597,4647500.000,-704.270
671230.597,4647400.000,-704.580
671230.597,4647300.000,-703.720
671230.597,4647200.000,-703.230
671230.597,4647100.000,-703.050
671230.597,4647000.000,-702.770
671230.597,4646900.000,-703.080
671230.597,4646800.000,-699.510
671230.597,4646700.000,-692.900
671230.597,4646600.000,-687.270
671230.597,4646500.000,-685.340
671230.597,4646400.000,-685.680
671230.597,4646300.000,-686.310
671230.597,4646200.000,-686.030
671230.597,4646100.000,-685.250
671230.597,4646000.000,-684.910
671230.597,4645900.000,-684.760
671230.597,4645800.000,-684.880
671230.597,4645700.000,-685.440
671230.597,4645600.000,-685.750
671230.597,4645500.000,-685.290
671230.597,4645400.000,-685.160
671230.597,4645300.000,-686.230
671230.597,4645200.000,-686.750
671230.597,4645100.000,-687.260
671230.597,4645000.000,-686.840
671230.597,4644900.000,-686.330
671230.597,4644800.000,-686.090
671230.597,4644700.000,-686.030
671230.597,4644600.000,-688.540
671230.597,4644500.000,-691.270
671230.597,4644400.000,-692.130
671230.597,4644300.000,-692.160
671230.597,4644200.000,-692.630
671230.597,4644100.000,-694.190
671230.597,4644000.000,-693.840
671230.597,4643900.000,-692.580
671230.597,4643800.000,-692.910
671230.597,4643700.000,-695.250
671230.597,4643600.000,-695.760
671230.597,4643500.000,-695.140
671230.597,4643400.000,-693.480
671230.597,4643300.000,-691.770
671230.597,4643200.000,-690.830
671230.597,4643100.000,-689.340
671230.597,4643000.000,-686.700
671230.597,4642900.000,-683.900
671230.597,4642800.000,-681.950
671230.597,4642700.000,-680.890
671230.597,4642600.000,-682.290
671230.597,4642500.000,-686.140
671230.597,4642400.000,-689.540
671230.597,4642300.000,-689.430
671230.597,4642200.000,-688.220
671230.597,4642100.000,-686.820
671230.597,4642000.000,-685.520
671230.597,4641900.000,-685.070
671230.597,4641800.000,-685.260
671230.597,4641700.000,-685.130
671230.597,4641600.000,-685.060
671230.597,4641500.000,-684.870
671230.597,4641400.000,-684.590
671230.597,4641300.000,-684.560
671230.597,4641200.000,-684.550
671230.597,4641100.000,-684.920
671230.597,4641000.000,-685.370
671230.597,4640900.000,-685.710
671230.597,4640800.000,-686.050
671230.597,4640700.000,-686.730
671230.597,4640600.000,-687.840
671230.597,4640500.000,-688.500
671230.597,4640400.000,-689.620
671230.597,4640300.000,-689.800
671230.597,4640200.000,-689.760
671230.597,4640100.000,-689.920
671230.597,4640000.000,-690.440
671230.597,4639900.000,-690.440
671230.597,4639800.000,-690.050
671230.597,4639700.000,-690.140
671230.597,4639600.000,-690.400
671230.597,4639500.000,-690.890
671230.597,4639400.000,-691.860
671230.597,4639300.000,-692.640
671230.597,4639200.000,-693.210
671230.597,4639100.000,-693.420
671230.597,4639000.000,-693.420
671230.597,4638900.000,-693.710
671230.597,4638800.000,-694.110
671230.597,4638700.000,-695.060
671230.597,4638600.000,-697.040
671230.597,4638500.000,-701.830
671230.597,4638400.000,-707.060
671230.597,4638300.000,-707.230
671230.597,4638200.000,-706.270
671230.597,4638100.000,-706.560
671230.597,4638000.000,-710.170
671230.597,4637900.000,-713.620
671230.597,4637800.000,-715.800
671230.597,4637700.000,-718.590
671230.597,4637600.000,-721.150
671230.597,4637500.000,-721.960
671230.597,4637400.000,-722.320
671230.597,4637300.000,-723.850
671230.597,4637200.000,-724.590
671230.597,4637100.000,-725.460
671230.597,4637000.000,-726.320
671230.597,4636900.000,-727.900
671230.597,4636800.000,-730.070
671230.597,4636700.000,-732.100
671230.597,4636600.000,-733.520
671230.597,4636500.000,-735.840
671230.597,4636400.000,-737.120
671230.597,4636300.000,-734.750
671230.597,4636200.000,-733.610
671230.597,4636100.000,-734.410
671230.597,4636000.000,-737.370
671230.597,4635900.000,-741.270
671230.597,4635800.000,-745.510
671230.597,4635700.000,-748.650
671230.597,4635600.000,-748.740
671230.597,4635500.000,-749.730
671230.597,4635400.000,-749.760
671230.597,4635300.000,-749.790
671230.597,4635200.000,-749.820
671230.597,4635100.000,-749.850
671230.597,4635000.000,-749.870
671330.597,4668300.000,-744.990
671330.597,4668200.000,-739.390
671330.597,4668100.000,-733.560
671330.597,4668000.000,-728.290
671330.597,4667900.000,-723.650
671330.597,4667800.000,-721.160
671330.597,4667700.000,-719.360
671330.597,4667600.000,-717.580
671330.597,4667500.000,-716.580
671330.597,4667400.000,-715.500
671330.597,4667300.000,-714.620
671330.597,4667200.000,-713.590
671330.597,4667100.000,-712.200
671330.597,4667000.000,-711.110
671330.597,4666900.000,-709.940
671330.597,4666800.000,-708.290
671330.597,4666700.000,-706.730
671330.597,4666600.000,-705.550
