676080.597,4661350.000,-767.130
676080.597,4661150.000,-765.370
676080.597,4660950.000,-763.570
676080.597,4660750.000,-763.390
676080.597,4660550.000,-761.090
676080.597,4660350.000,-760.810
676080.597,4660150.000,-761.920
676080.597,4659950.000,-762.380
676080.597,4659750.000,-762.540
676080.597,4659550.000,-761.360
676080.597,4659350.000,-763.630
676080.597,4659150.000,-765.610
676080.597,4658950.000,-765.290
676080.597,4658750.000,-765.900
676080.597,4658550.000,-768.640
676080.597,4658350.000,-768.760
676080.597,4658150.000,-767.730
676080.597,4657950.000,-770.220
676080.597,4657750.000,-771.370
676080.597,4657550.000,-771.520
676080.597,4657350.000,-772.220
676080.597,4657150.000,-773.480
676080.597,4656950.000,-774.990
676080.597,4656750.000,-774.810
676080.597,4656550.000,-773.890
676080.597,4656350.000,-775.790
676080.597,4656150.000,-773.520
676080.597,4655950.000,-772.700
676080.597,4655750.000,-771.070
676080.597,4655550.000,-771.050
676080.597,4655350.000,-771.480
676080.597,4655150.000,-770.870
676080.597,4654950.000,-770.340
676080.597,4654750.000,-770.780
676080.597,4654550.000,-771.550
676080.597,4654350.000,-772.000
676080.597,4654150.000,-773.870
676080.597,4653950.000,-775.840
676080.597,4653750.000,-776.850
676080.597,4653550.000,-777.240
676080.597,4653350.000,-777.680
676080.597,4653150.000,-777.520
676080.597,4652950.000,-777.730
676080.597,4652750.000,-780.090
676080.597,4652550.000,-781.450
676080.597,4652350.000,-783.190
676080.597,4652150.000,-783.330
676080.597,4651950.000,-782.800
676080.597,4651750.000,-784.190
676080.597,4651550.000,-784.870
676080.597,4651350.000,-784.360
676080.597,4651150.000,-784.340
676080.597,4650950.000,-784.100
676080.597,4650750.000,-784.120
676080.597,4650550.000,-785.000
676080.597,4650350.000,-785.120
676080.597,4650150.000,-786.520
676080.597,4649950.000,-787.530
676080.597,4649750.000,-787.730
676080.597,4649550.000,-788.350
676080.597,4649350.000,-788.110
676080.597,4649150.000,-788.680
676080.597,4648950.000,-788.690
676080.597,4648750.000,-789.580
676080.597,4648550.000,-790.730
676080.597,4648350.000,-792.290
676080.597,4648150.000,-794.150
676080.597,4647950.000,-797.180
676080.597,4647750.000,-799.000
676080.597,4647550.000,-802.580
676080.597,4647350.000,-806.480
676080.597,4647150.000,-808.260
676080.597,4646950.000,-808.650
676080.597,4646750.000,-808.090
676080.597,4646550.000,-807.660
676080.597,4646350.000,-807.660
676080.597,4646150.000,-806.360
676080.597,4645950.000,-804.220
676080.597,4645750.000,-802.940
676080.597,4645550.000,-802.240
676080.597,4645350.000,-802.970
676080.597,4645150.000,-803.080
676080.597,4644950.000,-802.260
676080.597,4644750.000,-800.740
676080.597,4644550.000,-800.110
676080.597,4644350.000,-801.050
676080.597,4644150.000,-802.570
676080.597,4643950.000,-803.230
676080.597,4643750.000,-803.080
676080.597,4643550.000,-805.180
676080.597,4643350.000,-801.480
676080.597,4643150.000,-800.590
676080.597,4642950.000,-798.550
676080.597,4642750.000,-794.040
676080.597,4642550.000,-792.600
676080.597,4642350.000,-790.450
676080.597,4642150.000,-789.710
676080.597,4641950.000,-793.760
676080.597,4641750.000,-797.630
676080.597,4641550.000,-801.080
676080.597,4641350.000,-801.630
676080.597,4641150.000,-802.430
676080.597,4640950.000,-804.110
676080.597,4640750.000,-805.620
676080.597,4640550.000,-808.150
676080.597,4640350.000,-809.600
676080.597,4640150.000,-811.050
676080.597,4639950.000,-813.610
676080.597,4639750.000,-815.680
676080.597,4639550.000,-817.720
676080.597,4639350.000,-819.280
676080.597,4639150.000,-819.660
676080.597,4638950.000,-822.290
676080.597,4638750.000,-827.190
676080.597,4638550.000,-832.420
676080.597,4638350.000,-833.620
676080.597,4638150.000,-838.860
676080.597,4637950.000,-845.100
676080.597,4637750.000,-850.970
676080.597,4637550.000,-855.770
676080.597,4637350.000,-856.550
676080.597,4637150.000,-857.740
676080.597,4636950.000,-858.860
676080.597,4636750.000,-860.710
676080.597,4636550.000,-862.300
676080.597,4636350.000,-863.950
676080.597,4636150.000,-866.480
676080.597,4635950.000,-867.270
676080.597,4635750.000,-868.920
676080.597,4635550.000,-870.920
676080.597,4635350.000,-872.350
676080.597,4635150.000,-873.170
676080.597,4634950.000,-876.340
676080.597,4634750.000,-877.950
676080.597,4634550.000,-879.490
676080.597,4634350.000,-883.570
676080.597,4634150.000,-885.060
676080.597,4633950.000,-887.570
676080.597,4633750.000,-889.470
676080.597,4633550.000,-891.320
676080.597,4633350.000,-892.190
676080.597,4633150.000,-891.590
676080.597,4632950.000,-892.210
676080.597,4632750.000,-894.040
676080.597,4632550.000,-894.810
676080.597,4632350.000,-894.910
676080.597,4632150.000,-895.650
676080.597,4631950.000,-896.080
676080.597,4631750.000,-896.160
676080.597,4631550.000,-896.770
676080.597,4631350.000,-897.450
676080.597,4631150.000,-898.940
676080.597,4630950.000,-898.270
676080.597,4630750.000,-899.950
676080.597,4630550.000,-901.400
676080.597,4630350.000,-900.480
676080.597,4630150.000,-901.820
676080.597,4629950.000,-901.060
676080.597,4629750.000,-902.000
676080.597,4629550.000,-900.060
676080.597,4629350.000,-896.640
676080.597,4629150.000,-894.020
676080.597,4628950.000,-893.020
676080.597,4628750.000,-890.900
676080.597,4628550.000,-886.150
676080.597,4628350.000,-879.780
676280.597,4670750.000,-934.260
676280.597,4670550.000,-936.287
676280.597,4670350.000,-937.503
676280.597,4670150.000,-938.428
676280.597,4669950.000,-938.652
676280.597,4669750.000,-932.983
676280.597,4669550.000,-932.580
676280.597,4669350.000,-930.590
676280.597,4669150.000,-929.900
676280.597,4668950.000,-930.360
676280.597,4668750.000,-929.960
676280.597,4668550.000,-929.740
676280.597,4668350.000,-930.710
676280.597,4668150.000,-929.820
676280.597,4667950.000,-929.670
676280.597,4667750.000,-927.900
676280.597,4667550.000,-926.660
676280.597,4667350.000,-926.110
676280.597,4667150.000,-927.230
676280.597,4666950.000,-928.570
676280.597,4666750.000,-929.640
676280.597,4666550.000,-929.270
676280.597,4666350.000,-928.030
676280.597,4666150.000,-926.490
676280.597,4665950.000,-923.930
676280.597,4665750.000,-919.610
676280.597,4665550.000,-911.770
676280.597,4665350.000,-903.490
676280.597,4665150.000,-897.990
676280.597,4664950.000,-889.670
676280.597,4664750.000,-876.670
676280.597,4664550.000,-867.670
676280.597,4664350.000,-859.840
676280.597,4664150.000,-852.850
676280.597,4663950.000,-848.450
676280.597,4663750.000,-843.210
676280.597,4663550.000,-838.660
676280.597,4663350.000,-835.990
676280.597,4663150.000,-832.220
676280.597,4662950.000,-826.300
676280.597,4662750.000,-814.280
676280.597,4662550.000,-802.270
676280.597,4662350.000,-799.010
676280.597,4662150.000,-795.240
676280.597,4661950.000,-788.100
676280.597,4661750.000,-782.040
676280.597,4661550.000,-775.790
676280.597,4661350.000,-772.260
676280.597,4661150.000,-770.550
676280.597,4660950.000,-770.560
676280.597,4660750.000,-766.650
676280.597,4660550.000,-765.980
676280.597,4660350.000,-766.100
676280.597,4660150.000,-767.590
676280.597,4659950.000,-766.810
676280.597,4659750.000,-766.390
676280.597,4659550.000,-765.060
676280.597,4659350.000,-766.970
676280.597,4659150.000,-768.480
676280.597,4658950.000,-767.460
676280.597,4658750.000,-769.810
676280.597,4658550.000,-768.850
676280.597,4658350.000,-770.920
676280.597,4658150.000,-771.810
676280.597,4657950.000,-771.650
676280.597,4657750.000,-771.490
676280.597,4657550.000,-772.100
676280.597,4657350.000,-772.250
676280.597,4657150.000,-773.100
676280.597,4656950.000,-775.080
676280.597,4656750.000,-775.770
676280.597,4656550.000,-775.640
676280.597,4656350.000,-776.230
676280.597,4656150.000,-776.270
676280.597,4655950.000,-774.090
676280.597,4655750.000,-773.070
676280.597,4655550.000,-772.970
676280.597,4655350.000,-773.330
676280.597,4655150.000,-771.860
676280.597,4654950.000,-771.700
676280.597,4654750.000,-772.180
676280.597,4654550.000,-772.540
676280.597,4654350.000,-773.420
676280.597,4654150.000,-774.740
676280.597,4653950.000,-776.570
676280.597,4653750.000,-777.580
676280.597,4653550.000,-778.290
676280.597,4653350.000,-779.020
676280.597,4653150.000,-779.100
676280.597,4652950.000,-779.340
676280.597,4652750.000,-782.070
676280.597,4652550.000,-782.960
676280.597,4652350.000,-785.230
676280.597,4652150.000,-785.270
676280.597,4651950.000,-784.120
676280.597,4651750.000,-785.590
676280.597,4651550.000,-786.340
676280.597,4651350.000,-786.580
676280.597,4651150.000,-787.190
676280.597,4650950.000,-787.640
676280.597,4650750.000,-788.130
676280.597,4650550.000,-788.130
676280.597,4650350.000,-788.580
676280.597,4650150.000,-789.230
676280.597,4649950.000,-789.100
676280.597,4649750.000,-789.230
676280.597,4649550.000,-790.140
676280.597,4649350.000,-791.030
676280.597,4649150.000,-791.240
676280.597,4648950.000,-791.160
676280.597,4648750.000,-791.430
676280.597,4648550.000,-791.890
676280.597,4648350.000,-793.640
676280.597,4648150.000,-795.760
676280.597,4647950.000,-798.180
676280.597,4647750.000,-799.610
676280.597,4647550.000,-804.680
676280.597,4647350.000,-808.890
676280.597,4647150.000,-809.560
676280.597,4646950.000,-809.960
676280.597,4646750.000,-809.790
676280.597,4646550.000,-809.710
676280.597,4646350.000,-809.510
676280.597,4646150.000,-809.670
676280.597,4645950.000,-807.550
676280.597,4645750.000,-805.310
676280.597,4645550.000,-804.040
676280.597,4645350.000,-805.310
676280.597,4645150.000,-804.580
676280.597,4644950.000,-803.800
676280.597,4644750.000,-803.030
676280.597,4644550.000,-803.240
676280.597,4644350.000,-803.900
676280.597,4644150.000,-804.330
676280.597,4643950.000,-804.390
676280.597,4643750.000,-804.420
676280.597,4643550.000,-806.260
676280.597,4643350.000,-802.830
676280.597,4643150.000,-802.190
676280.597,4642950.000,-801.050
676280.597,4642750.000,-799.260
676280.597,4642550.000,-796.390
676280.597,4642350.000,-793.790
676280.597,4642150.000,-794.100
676280.597,4641950.000,-799.040
676280.597,4641750.000,-802.210
676280.597,4641550.000,-806.980
676280.597,4641350.000,-806.710
676280.597,4641150.000,-804.670
676280.597,4640950.000,-805.800
676280.597,4640750.000,-808.840
676280.597,4640550.000,-810.900
676280.597,4640350.000,-812.790
676280.597,4640150.000,-814.980
676280.597,4639950.000,-816.880
676280.597,4639750.000,-820.070
676280.597,4639550.000,-821.480
676280.597,4639350.000,-823.780
676280.597,4639150.000,-827.460
676280.597,4638950.000,-829.240
676280.597,4638750.000,-831.070
676280.597,4638550.000,-835.790
676280.597,4638350.000,-836.460
676280.597,4638150.000,-840.500
676280.597,4637950.000,-845.820
676280.597,4637750.000,-851.200
676280.597,4637550.000,-857.460
676280.597,4637350.000,-859.150
676280.597,4637150.000,-861.440
676280.597,4636950.000,-863.000
676280.597,4636750.000,-864.250
676280.597,4636550.000,-866.500
676280.597,4636350.000,-868.170
676280.597,4636150.000,-869.650
676280.597,4635950.000,-870.530
676280.597,4635750.000,-872.610
676280.597,4635550.000,-874.110
676280.597,4635350.000,-874.790
676280.597,4635150.000,-875.960
676280.597,4634950.000,-878.310
676280.597,4634750.000,-879.370
676280.597,4634550.000,-883.110
676280.597,4634350.000,-886.490
676280.597,4634150.000,-888.220
676280.597,4633950.000,-889.990
676280.597,4633750.000,-892.420
676280.597,4633550.000,-893.770
676280.597,4633350.000,-894.040
676280.597,4633150.000,-893.780
676280.597,4632950.000,-893.880
676280.597,4632750.000,-895.660
676280.597,4632550.000,-896.840
676280.597,4632350.000,-896.910
676280.597,4632150.000,-897.510
676280.597,4631950.000,-898.690
676280.597,4631750.000,-898.460
676280.597,4631550.000,-899.170
676280.597,4631350.000,-900.090
676280.597,4631150.000,-901.620
676280.597,4630950.000,-903.510
676280.597,4630750.000,-906.980
676280.597,4630550.000,-909.430
676280.597,4630350.000,-910.040
676280.597,4630150.000,-910.230
676280.597,4629950.000,-905.780
676280.597,4629750.000,-902.340
676280.597,4629550.000,-900.210
676280.597,4629350.000,-897.200
676280.597,4629150.000,-895.220
676280.597,4628950.000,-893.120
676280.597,4628750.000,-887.000
676280.597,4628550.000,-885.840
676280.597,4628350.000,-882.670
676480.597,4670750.000,-936.750
676480.597,4670550.000,-938.939
676480.597,4670350.000,-940.270
676480.597,4670150.000,-941.225
676480.597,4669950.000,-941.407
676480.597,4669750.000,-936.387
676480.597,4669550.000,-936.280
676480.597,4669350.000,-935.890
676480.597,4669150.000,-934.540
676480.597,4668950.000,-934.130
676480.597,4668750.000,-932.930
676480.597,4668550.000,-932.580
676480.597,4668350.000,-932.210
676480.597,4668150.000,-932.060
676480.597,4667950.000,-930.510
676480.597,4667750.000,-928.080
676480.597,4667550.000,-926.930
676480.597,4667350.000,-926.500
676480.597,4667150.000,-926.720
676480.597,4666950.000,-927.420
676480.597,4666750.000,-928.080
676480.597,4666550.000,-927.900
676480.597,4666350.000,-927.600
676480.597,4666150.000,-926.660
676480.597,4665950.000,-925.490
676480.597,4665750.000,-923.020
676480.597,4665550.000,-919.980
676480.597,4665350.000,-913.800
676480.597,4665150.000,-906.920
676480.597,4664950.000,-901.830
676480.597,4664750.000,-895.010
676480.597,4664550.000,-883.810
676480.597,4664350.000,-873.870
676480.597,4664150.000,-868.660
676480.597,4663950.000,-861.350
676480.597,4663750.000,-853.710
676480.597,4663550.000,-846.950
676480.597,4663350.000,-844.230
676480.597,4663150.000,-840.550
676480.597,4662950.000,-832.790
676480.597,4662750.000,-820.400
676480.597,4662550.000,-813.170
676480.597,4662350.000,-807.760
676480.597,4662150.000,-802.670
676480.597,4661950.000,-797.070
676480.597,4661750.000,-792.310
676480.597,4661550.000,-784.780
676480.597,4661350.000,-780.350
676480.597,4661150.000,-779.280
676480.597,4660950.000,-776.950
676480.597,4660750.000,-773.940
676480.597,4660550.000,-773.010
676480.597,4660350.000,-772.280
676480.597,4660150.000,-772.940
676480.597,4659950.000,-772.820
676480.597,4659750.000,-769.990
676480.597,4659550.000,-770.150
676480.597,4659350.000,-770.570
676480.597,4659150.000,-770.090
676480.597,4658950.000,-771.530
676480.597,4658750.000,-771.800
676480.597,4658550.000,-772.570
676480.597,4658350.000,-772.520
676480.597,4658150.000,-773.540
676480.597,4657950.000,-773.440
676480.597,4657750.000,-772.040
676480.597,4657550.000,-773.200
676480.597,4657350.000,-772.870
676480.597,4657150.000,-773.760
676480.597,4656950.000,-774.900
676480.597,4656750.000,-776.410
676480.597,4656550.000,-776.080
676480.597,4656350.000,-775.570
676480.597,4656150.000,-778.380
676480.597,4655950.000,-775.690
676480.597,4655750.000,-773.320
676480.597,4655550.000,-774.420
676480.597,4655350.000,-774.540
676480.597,4655150.000,-774.340
676480.597,4654950.000,-773.080
676480.597,4654750.000,-773.180
676480.597,4654550.000,-773.740
676480.597,4654350.000,-774.850
676480.597,4654150.000,-775.990
676480.597,4653950.000,-777.860
676480.597,4653750.000,-779.080
676480.597,4653550.000,-779.550
676480.597,4653350.000,-780.230
676480.597,4653150.000,-780.580
676480.597,4652950.000,-781.250
676480.597,4652750.000,-783.300
676480.597,4652550.000,-785.270
676480.597,4652350.000,-787.130
676480.597,4652150.000,-787.090
676480.597,4651950.000,-786.030
676480.597,4651750.000,-786.820
676480.597,4651550.000,-787.930
676480.597,4651350.000,-787.890
676480.597,4651150.000,-788.560
676480.597,4650950.000,-789.020
676480.597,4650750.000,-790.860
676480.597,4650550.000,-790.890
676480.597,4650350.000,-790.900
676480.597,4650150.000,-791.930
676480.597,4649950.000,-791.460
676480.597,4649750.000,-791.910
676480.597,4649550.000,-792.480
676480.597,4649350.000,-793.700
676480.597,4649150.000,-794.200
676480.597,4648950.000,-794.000
676480.597,4648750.000,-794.090
676480.597,4648550.000,-795.090
676480.597,4648350.000,-795.890
676480.597,4648150.000,-796.660
676480.597,4647950.000,-799.340
676480.597,4647750.000,-802.090
676480.597,4647550.000,-806.080
676480.597,4647350.000,-809.880
676480.597,4647150.000,-810.310
676480.597,4646950.000,-810.260
676480.597,4646750.000,-811.090
676480.597,4646550.000,-810.350
676480.597,4646350.000,-810.720
676480.597,4646150.000,-810.850
676480.597,4645950.000,-810.890
676480.597,4645750.000,-809.050
676480.597,4645550.000,-806.380
676480.597,4645350.000,-807.470
676480.597,4645150.000,-806.780
676480.597,4644950.000,-805.970
676480.597,4644750.000,-804.880
676480.597,4644550.000,-804.930
676480.597,4644350.000,-805.550
676480.597,4644150.000,-805.000
676480.597,4643950.000,-804.820
676480.597,4643750.000,-805.660
676480.597,4643550.000,-807.420
676480.597,4643350.000,-805.460
676480.597,4643150.000,-804.690
676480.597,4642950.000,-803.480
676480.597,4642750.000,-801.240
676480.597,4642550.000,-798.740
676480.597,4642350.000,-797.690
676480.597,4642150.000,-800.900
676480.597,4641950.000,-805.790
676480.597,4641750.000,-807.540
676480.597,4641550.000,-811.250
676480.597,4641350.000,-812.110
676480.597,4641150.000,-809.440
676480.597,4640950.000,-809.860
676480.597,4640750.000,-813.090
676480.597,4640550.000,-815.210
676480.597,4640350.000,-817.890
676480.597,4640150.000,-819.350
676480.597,4639950.000,-820.580
676480.597,4639750.000,-822.850
676480.597,4639550.000,-823.980
676480.597,4639350.000,-827.630
676480.597,4639150.000,-831.460
676480.597,4638950.000,-833.880
676480.597,4638750.000,-835.680
676480.597,4638550.000,-838.990
676480.597,4638350.000,-840.570
676480.597,4638150.000,-843.210
676480.597,4637950.000,-847.920
676480.597,4637750.000,-853.270
676480.597,4637550.000,-858.290
676480.597,4637350.000,-861.470
676480.597,4637150.000,-864.240
676480.597,4636950.000,-864.930
676480.597,4636750.000,-866.440
676480.597,4636550.000,-869.070
676480.597,4636350.000,-870.320
676480.597,4636150.000,-871.170
676480.597,4635950.000,-873.320
676480.597,4635750.000,-876.250
676480.597,4635550.000,-876.940
676480.597,4635350.000,-878.590
676480.597,4635150.000,-880.530
676480.597,4634950.000,-882.470
676480.597,4634750.000,-883.330
676480.597,4634550.000,-886.740
676480.597,4634350.000,-889.120
676480.597,4634150.000,-890.420
676480.597,4633950.000,-892.590
676480.597,4633750.000,-894.350
676480.597,4633550.000,-894.950
676480.597,4633350.000,-896.060
676480.597,4633150.000,-896.340
676480.597,4632950.000,-896.650
676480.597,4632750.000,-897.890
676480.597,4632550.000,-898.280
676480.597,4632350.000,-899.090
676480.597,4632150.000,-899.960
676480.597,4631950.000,-902.320
676480.597,4631750.000,-904.400
676480.597,4631550.000,-905.150
676480.597,4631350.000,-904.220
676480.597,4631150.000,-905.190
676480.597,4630950.000,-907.470
676480.597,4630750.000,-909.400
676480.597,4630550.000,-911.470
676480.597,4630350.000,-912.080
676480.597,4630150.000,-914.150
676480.597,4629950.000,-913.030
676480.597,4629750.000,-908.090
676480.597,4629550.000,-904.640
676480.597,4629350.000,-901.610
676480.597,4629150.000,-896.380
676480.597,4628950.000,-894.400
676480.597,4628750.000,-890.250
676480.597,4628550.000,-887.550
676480.597,4628350.000,-883.370
676680.597,4670750.000,-939.240
676680.597,4670550.000,-941.591
676680.597,4670350.000,-943.037
676680.597,4670150.000,-944.023
676680.597,4669950.000,-944.161
676680.597,4669750.000,-939.790
676680.597,4669550.000,-940.110
676680.597,4669350.000,-939.290
676680.597,4669150.000,-937.850
676680.597,4668950.000,-937.240
676680.597,4668750.000,-936.570
676680.597,4668550.000,-936.160
676680.597,4668350.000,-935.050
676680.597,4668150.000,-933.430
676680.597,4667950.000,-931.220
676680.597,4667750.000,-927.940
676680.597,4667550.000,-926.830
676680.597,4667350.000,-926.280
676680.597,4667150.000,-925.900
676680.597,4666950.000,-926.890
676680.597,4666750.000,-927.100
676680.597,4666550.000,-927.180
676680.597,4666350.000,-927.140
676680.597,4666150.000,-926.960
676680.597,4665950.000,-926.580
676680.597,4665750.000,-925.770
676680.597,4665550.000,-924.430
676680.597,4665350.000,-921.020
676680.597,4665150.000,-916.460
676680.597,4664950.000,-911.480
676680.597,4664750.000,-906.060
676680.597,4664550.000,-901.820
676680.597,4664350.000,-892.570
676680.597,4664150.000,-883.430
676680.597,4663950.000,-876.440
676680.597,4663750.000,-868.220
676680.597,4663550.000,-861.560
676680.597,4663350.000,-852.830
676680.597,4663150.000,-848.950
676680.597,4662950.000,-838.600
676680.597,4662750.000,-828.840
676680.597,4662550.000,-823.100
676680.597,4662350.000,-815.650
676680.597,4662150.000,-809.320
676680.597,4661950.000,-804.230
676680.597,4661750.000,-800.480
676680.597,4661550.000,-795.640
676680.597,4661350.000,-792.870
676680.597,4661150.000,-794.910
676680.597,4660950.000,-788.990
676680.597,4660750.000,-782.970
676680.597,4660550.000,-779.090
676680.597,4660350.000,-777.540
676680.597,4660150.000,-778.380
676680.597,4659950.000,-778.110
676680.597,4659750.000,-775.680
676680.597,4659550.000,-775.360
676680.597,4659350.000,-773.940
676680.597,4659150.000,-772.380
676680.597,4658950.000,-775.020
676680.597,4658750.000,-775.210
676680.597,4658550.000,-776.240
676680.597,4658350.000,-776.860
676680.597,4658150.000,-774.450
676680.597,4657950.000,-775.420
676680.597,4657750.000,-773.700
676680.597,4657550.000,-774.030
676680.597,4657350.000,-773.450
676680.597,4657150.000,-774.700
676680.597,4656950.000,-776.840
676680.597,4656750.000,-776.960
676680.597,4656550.000,-776.210
676680.597,4656350.000,-778.020
676680.597,4656150.000,-778.340
676680.597,4655950.000,-775.990
676680.597,4655750.000,-773.790
676680.597,4655550.000,-774.260
676680.597,4655350.000,-775.420
676680.597,4655150.000,-775.570
676680.597,4654950.000,-775.080
676680.597,4654750.000,-774.100
676680.597,4654550.000,-774.580
676680.597,4654350.000,-775.900
676680.597,4654150.000,-776.120
676680.597,4653950.000,-777.970
676680.597,4653750.000,-779.920
676680.597,4653550.000,-780.950
676680.597,4653350.000,-781.830
676680.597,4653150.000,-782.090
676680.597,4652950.000,-783.410
676680.597,4652750.000,-785.940
676680.597,4652550.000,-787.810
676680.597,4652350.000,-788.960
676680.597,4652150.000,-789.460
676680.597,4651950.000,-789.160
676680.597,4651750.000,-789.220
676680.597,4651550.000,-789.860
676680.597,4651350.000,-789.960
676680.597,4651150.000,-789.670
676680.597,4650950.000,-789.740
676680.597,4650750.000,-790.760
676680.597,4650550.000,-791.980
676680.597,4650350.000,-792.920
676680.597,4650150.000,-794.090
676680.597,4649950.000,-793.110
676680.597,4649750.000,-793.270
676680.597,4649550.000,-793.920
676680.597,4649350.000,-794.960
676680.597,4649150.000,-796.590
676680.597,4648950.000,-796.960
676680.597,4648750.000,-797.460
676680.597,4648550.000,-797.990
676680.597,4648350.000,-798.630
676680.597,4648150.000,-800.150
676680.597,4647950.000,-801.610
676680.597,4647750.000,-804.360
676680.597,4647550.000,-808.040
676680.597,4647350.000,-810.700
676680.597,4647150.000,-811.480
676680.597,4646950.000,-810.770
676680.597,4646750.000,-811.400
676680.597,4646550.000,-811.630
676680.597,4646350.000,-811.910
676680.597,4646150.000,-811.590
676680.597,4645950.000,-810.730
676680.597,4645750.000,-808.810
676680.597,4645550.000,-807.500
676680.597,4645350.000,-809.710
676680.597,4645150.000,-808.960
676680.597,4644950.000,-807.660
676680.597,4644750.000,-806.830
676680.597,4644550.000,-806.500
676680.597,4644350.000,-806.330
676680.597,4644150.000,-805.520
676680.597,4643950.000,-805.590
676680.597,4643750.000,-806.790
676680.597,4643550.000,-809.090
676680.597,4643350.000,-806.000
676680.597,4643150.000,-805.800
676680.597,4642950.000,-804.440
676680.597,4642750.000,-803.440
676680.597,4642550.000,-801.870
676680.597,4642350.000,-802.270
676680.597,4642150.000,-806.930
676680.597,4641950.000,-811.400
676680.597,4641750.000,-813.060
676680.597,4641550.000,-814.880
676680.597,4641350.000,-815.630
676680.597,4641150.000,-812.920
676680.597,4640950.000,-813.600
676680.597,4640750.000,-816.820
676680.597,4640550.000,-820.030
676680.597,4640350.000,-823.180
676680.597,4640150.000,-825.040
676680.597,4639950.000,-827.020
676680.597,4639750.000,-828.580
676680.597,4639550.000,-830.390
676680.597,4639350.000,-832.350
676680.597,4639150.000,-835.800
676680.597,4638950.000,-838.450
676680.597,4638750.000,-840.470
676680.597,4638550.000,-843.030
676680.597,4638350.000,-844.400
676680.597,4638150.000,-846.000
676680.597,4637950.000,-848.200
676680.597,4637750.000,-852.710
676680.597,4637550.000,-857.950
676680.597,4637350.000,-862.090
676680.597,4637150.000,-865.710
676680.597,4636950.000,-867.300
676680.597,4636750.000,-868.910
676680.597,4636550.000,-870.690
676680.597,4636350.000,-872.330
676680.597,4636150.000,-873.200
676680.597,4635950.000,-875.380
676680.597,4635750.000,-878.180
676680.597,4635550.000,-880.110
676680.597,4635350.000,-880.700
676680.597,4635150.000,-883.660
676680.597,4634950.000,-885.370
676680.597,4634750.000,-887.200
676680.597,4634550.000,-890.350
676680.597,4634350.000,-892.170
676680.597,4634150.000,-894.640
676680.597,4633950.000,-897.140
676680.597,4633750.000,-897.540
676680.597,4633550.000,-898.970
676680.597,4633350.000,-897.410
676680.597,4633150.000,-898.050
676680.597,4632950.000,-899.110
676680.597,4632750.000,-900.630
676680.597,4632550.000,-900.070
676680.597,4632350.000,-901.340
676680.597,4632150.000,-904.620
676680.597,4631950.000,-909.330
676680.597,4631750.000,-911.200
676680.597,4631550.000,-910.810
676680.597,4631350.000,-910.700
676680.597,4631150.000,-909.730
676680.597,4630950.000,-910.000
676680.597,4630750.000,-912.320
676680.597,4630550.000,-913.650
676680.597,4630350.000,-913.960
676680.597,4630150.000,-913.150
676680.597,4629950.000,-912.450
676680.597,4629750.000,-910.990
676680.597,4629550.000,-906.800
676680.597,4629350.000,-902.250
676680.597,4629150.000,-899.170
676680.597,4628950.000,-895.940
676680.597,4628750.000,-892.210
676680.597,4628550.000,-886.400
676680.597,4628350.000,-885.510
676880.597,4670750.000,-941.730
676880.597,4670550.000,-944.244
676880.597,4670350.000,-945.803
676880.597,4670150.000,-946.821
676880.597,4669950.000,-946.916
676880.597,4669750.000,-943.193
676880.597,4669550.000,-942.670
676880.597,4669350.000,-941.660
676880.597,4669150.000,-940.520
676880.597,4668950.000,-940.190
676880.597,4668750.000,-939.260
676880.597,4668550.000,-938.550
676880.597,4668350.000,-937.480
676880.597,4668150.000,-936.430
676880.597,4667950.000,-933.800
676880.597,4667750.000,-931.160
676880.597,4667550.000,-929.440
676880.597,4667350.000,-927.340
676880.597,4667150.000,-926.390
676880.597,4666950.000,-926.450
676880.597,4666750.000,-925.950
676880.597,4666550.000,-925.570
676880.597,4666350.000,-926.000
676880.597,4666150.000,-927.120
676880.597,4665950.000,-927.080
676880.597,4665750.000,-927.960
676880.597,4665550.000,-927.020
676880.597,4665350.000,-926.070
676880.597,4665150.000,-923.270
676880.597,4664950.000,-919.660
676880.597,4664750.000,-915.240
676880.597,4664550.000,-911.960
676880.597,4664350.000,-906.530
676880.597,4664150.000,-897.620
676880.597,4663950.000,-888.100
676880.597,4663750.000,-879.970
676880.597,4663550.000,-871.500
676880.597,4663350.000,-863.350
676880.597,4663150.000,-857.130
676880.597,4662950.000,-849.450
676880.597,4662750.000,-837.390
676880.597,4662550.000,-830.740
676880.597,4662350.000,-825.320
676880.597,4662150.000,-820.320
676880.597,4661950.000,-813.660
676880.597,4661750.000,-809.550
676880.597,4661550.000,-805.150
676880.597,4661350.000,-802.230
676880.597,4661150.000,-804.180
676880.597,4660950.000,-799.560
676880.597,4660750.000,-793.470
676880.597,4660550.000,-788.460
676880.597,4660350.000,-786.410
676880.597,4660150.000,-786.320
676880.597,4659950.000,-782.710
676880.597,4659750.000,-779.950
676880.597,4659550.000,-778.580
676880.597,4659350.000,-776.610
676880.597,4659150.000,-777.320
676880.597,4658950.000,-779.330
676880.597,4658750.000,-778.740
676880.597,4658550.000,-779.130
676880.597,4658350.000,-777.090
676880.597,4658150.000,-776.700
676880.597,4657950.000,-778.270
676880.597,4657750.000,-776.090
676880.597,4657550.000,-777.100
676880.597,4657350.000,-776.300
676880.597,4657150.000,-776.320
676880.597,4656950.000,-778.160
676880.597,4656750.000,-778.810
676880.597,4656550.000,-777.230
676880.597,4656350.000,-778.510
676880.597,4656150.000,-779.600
676880.597,4655950.000,-779.080
676880.597,4655750.000,-776.510
676880.597,4655550.000,-774.540
676880.597,4655350.000,-776.210
676880.597,4655150.000,-777.220
676880.597,4654950.000,-776.800
676880.597,4654750.000,-776.240
676880.597,4654550.000,-776.570
676880.597,4654350.000,-777.400
676880.597,4654150.000,-777.510
676880.597,4653950.000,-778.600
676880.597,4653750.000,-780.570
676880.597,4653550.000,-781.380
676880.597,4653350.000,-782.350
676880.597,4653150.000,-783.700
676880.597,4652950.000,-784.240
676880.597,4652750.000,-786.650
676880.597,4652550.000,-788.370
676880.597,4652350.000,-790.400
676880.597,4652150.000,-791.490
676880.597,4651950.000,-791.220
676880.597,4651750.000,-791.080
676880.597,4651550.000,-791.770
676880.597,4651350.000,-791.630
676880.597,4651150.000,-791.070
676880.597,4650950.000,-791.110
676880.597,4650750.000,-791.630
676880.597,4650550.000,-792.710
676880.597,4650350.000,-793.870
676880.597,4650150.000,-795.820
676880.597,4649950.000,-795.670
676880.597,4649750.000,-795.450
676880.597,4649550.000,-794.980
676880.597,4649350.000,-795.830
676880.597,4649150.000,-797.830
676880.597,4648950.000,-799.610
676880.597,4648750.000,-800.530
676880.597,4648550.000,-801.020
676880.597,4648350.000,-801.780
676880.597,4648150.000,-802.950
676880.597,4647950.000,-803.820
676880.597,4647750.000,-806.970
676880.597,4647550.000,-810.490
676880.597,4647350.000,-812.580
676880.597,4647150.000,-813.020
676880.597,4646950.000,-813.030
676880.597,4646750.000,-812.630
676880.597,4646550.000,-812.740
676880.597,4646350.000,-813.170
676880.597,4646150.000,-812.660
676880.597,4645950.000,-811.410
676880.597,4645750.000,-810.090
676880.597,4645550.000,-808.470
676880.597,4645350.000,-811.600
676880.597,4645150.000,-810.460
676880.597,4644950.000,-809.420
676880.597,4644750.000,-808.050
676880.597,4644550.000,-808.010
676880.597,4644350.000,-808.460
676880.597,4644150.000,-807.600
676880.597,4643950.000,-806.820
676880.597,4643750.000,-808.360
676880.597,4643550.000,-810.620
676880.597,4643350.000,-807.910
676880.597,4643150.000,-807.660
676880.597,4642950.000,-805.470
676880.597,4642750.000,-805.100
676880.597,4642550.000,-804.920
676880.597,4642350.000,-807.940
676880.597,4642150.000,-810.980
676880.597,4641950.000,-815.100
676880.597,4641750.000,-816.920
676880.597,4641550.000,-818.970
676880.597,4641350.000,-818.480
676880.597,4641150.000,-816.920
676880.597,4640950.000,-817.780
676880.597,4640750.000,-821.770
676880.597,4640550.000,-824.780
676880.597,4640350.000,-828.110
676880.597,4640150.000,-830.450
676880.597,4639950.000,-832.510
676880.597,4639750.000,-834.350
676880.597,4639550.000,-835.490
676880.597,4639350.000,-837.680
676880.597,4639150.000,-840.370
676880.597,4638950.000,-843.220
676880.597,4638750.000,-846.650
676880.597,4638550.000,-848.640
676880.597,4638350.000,-849.900
676880.597,4638150.000,-851.280
676880.597,4637950.000,-851.460
676880.597,4637750.000,-853.480
676880.597,4637550.000,-858.350
676880.597,4637350.000,-862.160
676880.597,4637150.000,-866.330
676880.597,4636950.000,-868.180
676880.597,4636750.000,-869.780
676880.597,4636550.000,-871.450
676880.597,4636350.000,-872.920
676880.597,4636150.000,-874.410
676880.597,4635950.000,-876.680
676880.597,4635750.000,-879.680
676880.597,4635550.000,-881.640
676880.597,4635350.000,-883.680
676880.597,4635150.000,-886.470
676880.597,4634950.000,-887.940
676880.597,4634750.000,-891.300
676880.597,4634550.000,-892.190
676880.597,4634350.000,-895.570
676880.597,4634150.000,-897.740
676880.597,4633950.000,-899.960
676880.597,4633750.000,-901.620
676880.597,4633550.000,-902.560
676880.597,4633350.000,-900.910
676880.597,4633150.000,-902.010
676880.597,4632950.000,-903.670
676880.597,4632750.000,-903.520
676880.597,4632550.000,-903.010
676880.597,4632350.000,-903.700
676880.597,4632150.000,-909.370
676880.597,4631950.000,-912.410
676880.597,4631750.000,-912.040
676880.597,4631550.000,-912.030
676880.597,4631350.000,-912.240
676880.597,4631150.000,-912.340
676880.597,4630950.000,-912.150
676880.597,4630750.000,-913.360
676880.597,4630550.000,-914.650
676880.597,4630350.000,-914.660
676880.597,4630150.000,-914.380
676880.597,4629950.000,-913.860
676880.597,4629750.000,-912.670
676880.597,4629550.000,-911.740
676880.597,4629350.000,-906.390
676880.597,4629150.000,-902.740
676880.597,4628950.000,-899.300
676880.597,4628750.000,-896.380
676880.597,4628550.000,-891.170
676880.597,4628350.000,-889.030
677080.597,4670750.000,-944.220
677080.597,4670550.000,-946.896
677080.597,4670350.000,-948.570
677080.597,4670150.000,-949.618
677080.597,4669950.000,-949.671
677080.597,4669750.000,-946.597
677080.597,4669550.000,-946.380
677080.597,4669350.000,-945.330
677080.597,4669150.000,-944.320
677080.597,4668950.000,-943.730
677080.597,4668750.000,-942.850
677080.597,4668550.000,-941.840
677080.597,4668350.000,-940.190
677080.597,4668150.000,-938.430
677080.597,4667950.000,-936.720
677080.597,4667750.000,-934.270
677080.597,4667550.000,-932.550
677080.597,4667350.000,-931.340
677080.597,4667150.000,-930.050
677080.597,4666950.000,-929.260
677080.597,4666750.000,-927.930
677080.597,4666550.000,-926.270
677080.597,4666350.000,-926.560
677080.597,4666150.000,-927.150
677080.597,4665950.000,-928.220
677080.597,4665750.000,-928.040
677080.597,4665550.000,-928.540
677080.597,4665350.000,-928.160
677080.597,4665150.000,-926.570
677080.597,4664950.000,-924.810
677080.597,4664750.000,-920.830
677080.597,4664550.000,-916.990
677080.597,4664350.000,-912.570
677080.597,4664150.000,-906.810
677080.597,4663950.000,-900.330
677080.597,4663750.000,-891.890
677080.597,4663550.000,-881.280
677080.597,4663350.000,-873.590
677080.597,4663150.000,-865.700
677080.597,4662950.000,-859.780
677080.597,4662750.000,-851.000
677080.597,4662550.000,-838.940
677080.597,4662350.000,-833.200
677080.597,4662150.000,-828.240
677080.597,4661950.000,-823.400
677080.597,4661750.000,-818.930
677080.597,4661550.000,-813.760
677080.597,4661350.000,-811.740
677080.597,4661150.000,-809.470
677080.597,4660950.000,-803.760
677080.597,4660750.000,-799.130
677080.597,4660550.000,-797.060
677080.597,4660350.000,-795.140
677080.597,4660150.000,-791.080
677080.597,4659950.000,-786.250
677080.597,4659750.000,-785.300
677080.597,4659550.000,-785.030
677080.597,4659350.000,-781.930
677080.597,4659150.000,-781.920
677080.597,4658950.000,-783.410
677080.597,4658750.000,-782.160
677080.597,4658550.000,-780.080
677080.597,4658350.000,-779.070
677080.597,4658150.000,-780.740
677080.597,4657950.000,-780.780
677080.597,4657750.000,-778.960
677080.597,4657550.000,-777.580
677080.597,4657350.000,-778.540
677080.597,4657150.000,-779.800
677080.597,4656950.000,-779.830
677080.597,4656750.000,-780.320
677080.597,4656550.000,-779.040
677080.597,4656350.000,-779.740
677080.597,4656150.000,-780.570
677080.597,4655950.000,-781.070
677080.597,4655750.000,-778.400
677080.597,4655550.000,-777.240
677080.597,4655350.000,-777.600
677080.597,4655150.000,-778.410
677080.597,4654950.000,-777.980
677080.597,4654750.000,-777.450
677080.597,4654550.000,-778.140
677080.597,4654350.000,-778.910
677080.597,4654150.000,-779.890
677080.597,4653950.000,-781.150
677080.597,4653750.000,-781.540
677080.597,4653550.000,-781.590
677080.597,4653350.000,-783.530
677080.597,4653150.000,-784.290
677080.597,4652950.000,-785.500
677080.597,4652750.000,-786.930
677080.597,4652550.000,-788.540
677080.597,4652350.000,-790.150
677080.597,4652150.000,-792.390
677080.597,4651950.000,-793.200
677080.597,4651750.000,-793.280
677080.597,4651550.000,-793.650
677080.597,4651350.000,-793.950
677080.597,4651150.000,-793.150
677080.597,4650950.000,-792.380
677080.597,4650750.000,-793.520
677080.597,4650550.000,-793.990
677080.597,4650350.000,-794.760
677080.597,4650150.000,-796.190
677080.597,4649950.000,-797.110
677080.597,4649750.000,-798.070
677080.597,4649550.000,-798.080
677080.597,4649350.000,-797.750
677080.597,4649150.000,-798.430
677080.597,4648950.000,-801.140
677080.597,4648750.000,-802.570
677080.597,4648550.000,-803.470
677080.597,4648350.000,-803.880
677080.597,4648150.000,-804.470
677080.597,4647950.000,-805.470
677080.597,4647750.000,-808.700
677080.597,4647550.000,-812.230
677080.597,4647350.000,-815.540
677080.597,4647150.000,-815.300
677080.597,4646950.000,-814.260
677080.597,4646750.000,-814.220
677080.597,4646550.000,-814.390
677080.597,4646350.000,-814.910
677080.597,4646150.000,-814.670
677080.597,4645950.000,-813.840
677080.597,4645750.000,-812.990
677080.597,4645550.000,-812.010
677080.597,4645350.000,-813.230
677080.597,4645150.000,-813.090
677080.597,4644950.000,-812.870
677080.597,4644750.000,-809.930
677080.597,4644550.000,-810.360
677080.597,4644350.000,-810.180
677080.597,4644150.000,-810.190
677080.597,4643950.000,-809.960
677080.597,4643750.000,-810.350
677080.597,4643550.000,-811.570
677080.597,4643350.000,-810.140
677080.597,4643150.000,-809.470
677080.597,4642950.000,-808.380
677080.597,4642750.000,-807.500
677080.597,4642550.000,-809.110
677080.597,4642350.000,-810.580
677080.597,4642150.000,-812.840
677080.597,4641950.000,-815.560
677080.597,4641750.000,-818.490
677080.597,4641550.000,-820.180
677080.597,4641350.000,-820.430
677080.597,4641150.000,-820.340
677080.597,4640950.000,-821.320
677080.597,4640750.000,-825.330
677080.597,4640550.000,-828.930
677080.597,4640350.000,-833.740
677080.597,4640150.000,-836.720
677080.597,4639950.000,-840.010
677080.597,4639750.000,-841.570
677080.597,4639550.000,-840.450
677080.597,4639350.000,-842.630
677080.597,4639150.000,-844.020
677080.597,4638950.000,-845.840
677080.597,4638750.000,-849.230
677080.597,4638550.000,-851.350
677080.597,4638350.000,-853.230
677080.597,4638150.000,-854.670
677080.597,4637950.000,-855.020
677080.597,4637750.000,-856.820
677080.597,4637550.000,-860.670
677080.597,4637350.000,-864.360
677080.597,4637150.000,-868.550
677080.597,4636950.000,-870.900
677080.597,4636750.000,-871.550
677080.597,4636550.000,-872.710
677080.597,4636350.000,-873.910
677080.597,4636150.000,-875.170
677080.597,4635950.000,-877.120
677080.597,4635750.000,-879.440
677080.597,4635550.000,-880.990
677080.597,4635350.000,-883.270
677080.597,4635150.000,-886.360
677080.597,4634950.000,-889.010
677080.597,4634750.000,-892.580
677080.597,4634550.000,-894.470
677080.597,4634350.000,-898.070
677080.597,4634150.000,-900.890
677080.597,4633950.000,-903.400
677080.597,4633750.000,-904.660
677080.597,4633550.000,-904.770
677080.597,4633350.000,-905.170
677080.597,4633150.000,-906.210
677080.597,4632950.000,-907.330
677080.597,4632750.000,-907.080
677080.597,4632550.000,-906.200
677080.597,4632350.000,-907.790
677080.597,4632150.000,-912.540
677080.597,4631950.000,-914.780
677080.597,4631750.000,-913.660
677080.597,4631550.000,-913.520
677080.597,4631350.000,-914.260
677080.597,4631150.000,-914.240
677080.597,4630950.000,-914.360
677080.597,4630750.000,-915.000
677080.597,4630550.000,-916.140
677080.597,4630350.000,-916.800
677080.597,4630150.000,-915.970
677080.597,4629950.000,-915.100
677080.597,4629750.000,-915.650
677080.597,4629550.000,-914.230
677080.597,4629350.000,-912.960
677080.597,4629150.000,-908.370
677080.597,4628950.000,-905.260
677080.597,4628750.000,-897.620
677080.597,4628550.000,-893.900
677080.597,4628350.000,-891.600
677280.597,4670750.000,-946.710
677280.597,4670550.000,-949.549
677280.597,4670350.000,-951.337
677280.597,4670150.000,-952.416
677280.597,4669950.000,-952.426
677280.597,4669750.000,-950.000
677280.597,4669550.000,-949.710
677280.597,4669350.000,-948.900
677280.597,4669150.000,-947.950
677280.597,4668950.000,-947.230
677280.597,4668750.000,-946.850
677280.597,4668550.000,-945.900
677280.597,4668350.000,-944.320
677280.597,4668150.000,-942.950
677280.597,4667950.000,-941.010
677280.597,4667750.000,-938.810
677280.597,4667550.000,-936.800
677280.597,4667350.000,-935.610
677280.597,4667150.000,-934.570
677280.597,4666950.000,-933.340
677280.597,4666750.000,-930.880
677280.597,4666550.000,-928.320
677280.597,4666350.000,-927.800
677280.597,4666150.000,-928.780
677280.597,4665950.000,-929.230
677280.597,4665750.000,-928.660
677280.597,4665550.000,-929.030
677280.597,4665350.000,-928.290
677280.597,4665150.000,-927.780
677280.597,4664950.000,-924.790
677280.597,4664750.000,-921.450
677280.597,4664550.000,-918.610
677280.597,4664350.000,-915.750
677280.597,4664150.000,-911.590
677280.597,4663950.000,-906.230
677280.597,4663750.000,-899.020
677280.597,4663550.000,-891.090
677280.597,4663350.000,-882.110
677280.597,4663150.000,-875.640
677280.597,4662950.000,-869.070
677280.597,4662750.000,-860.690
677280.597,4662550.000,-850.090
677280.597,4662350.000,-842.220
677280.597,4662150.000,-837.120
677280.597,4661950.000,-831.790
677280.597,4661750.000,-826.580
677280.597,4661550.000,-822.710
677280.597,4661350.000,-820.290
677280.597,4661150.000,-815.930
677280.597,4660950.000,-810.940
677280.597,4660750.000,-807.800
677280.597,4660550.000,-804.290
677280.597,4660350.000,-800.850
677280.597,4660150.000,-797.220
677280.597,4659950.000,-792.140
677280.597,4659750.000,-787.850
677280.597,4659550.000,-787.670
677280.597,4659350.000,-786.560
677280.597,4659150.000,-787.660
677280.597,4658950.000,-787.260
677280.597,4658750.000,-785.740
677280.597,4658550.000,-783.520
677280.597,4658350.000,-782.740
677280.597,4658150.000,-783.680
677280.597,4657950.000,-782.970
677280.597,4657750.000,-781.050
677280.597,4657550.000,-779.140
677280.597,4657350.000,-779.720
677280.597,4657150.000,-780.730
677280.597,4656950.000,-781.540
677280.597,4656750.000,-781.280
677280.597,4656550.000,-780.780
677280.597,4656350.000,-780.860
677280.597,4656150.000,-782.170
677280.597,4655950.000,-782.710
677280.597,4655750.000,-782.040
677280.597,4655550.000,-779.810
677280.597,4655350.000,-779.000
677280.597,4655150.000,-780.100
677280.597,4654950.000,-779.540
677280.597,4654750.000,-780.150
677280.597,4654550.000,-780.980
677280.597,4654350.000,-781.230
677280.597,4654150.000,-781.320
677280.597,4653950.000,-782.830
677280.597,4653750.000,-784.290
677280.597,4653550.000,-784.150
677280.597,4653350.000,-784.890
677280.597,4653150.000,-785.380
677280.597,4652950.000,-786.090
677280.597,4652750.000,-787.060
677280.597,4652550.000,-788.820
677280.597,4652350.000,-791.060
677280.597,4652150.000,-792.850
677280.597,4651950.000,-794.040
677280.597,4651750.000,-794.860
677280.597,4651550.000,-795.340
677280.597,4651350.000,-795.020
677280.597,4651150.000,-794.490
677280.597,4650950.000,-794.300
677280.597,4650750.000,-794.660
677280.597,4650550.000,-795.240
677280.597,4650350.000,-795.650
677280.597,4650150.000,-796.820
677280.597,4649950.000,-798.170
677280.597,4649750.000,-799.570
677280.597,4649550.000,-800.120
677280.597,4649350.000,-800.590
677280.597,4649150.000,-801.280
677280.597,4648950.000,-802.590
677280.597,4648750.000,-804.130
677280.597,4648550.000,-805.180
677280.597,4648350.000,-806.390
677280.597,4648150.000,-807.050
677280.597,4647950.000,-806.400
677280.597,4647750.000,-809.640
677280.597,4647550.000,-814.730
677280.597,4647350.000,-816.260
677280.597,4647150.000,-817.260
677280.597,4646950.000,-817.130
677280.597,4646750.000,-816.550
677280.597,4646550.000,-816.930
677280.597,4646350.000,-817.200
677280.597,4646150.000,-817.360
677280.597,4645950.000,-817.660
677280.597,4645750.000,-816.580
677280.597,4645550.000,-816.290
677280.597,4645350.000,-817.160
677280.597,4645150.000,-817.250
677280.597,4644950.000,-815.220
677280.597,4644750.000,-813.570
677280.597,4644550.000,-812.950
677280.597,4644350.000,-811.780
677280.597,4644150.000,-811.860
677280.597,4643950.000,-811.910
677280.597,4643750.000,-812.890
677280.597,4643550.000,-813.840
677280.597,4643350.000,-812.500
677280.597,4643150.000,-811.740
677280.597,4642950.000,-810.810
677280.597,4642750.000,-810.240
677280.597,4642550.000,-811.540
677280.597,4642350.000,-814.690
677280.597,4642150.000,-816.610
677280.597,4641950.000,-817.180
677280.597,4641750.000,-820.200
677280.597,4641550.000,-821.650
677280.597,4641350.000,-823.600
677280.597,4641150.000,-823.970
677280.597,4640950.000,-823.900
677280.597,4640750.000,-827.430
677280.597,4640550.000,-831.900
677280.597,4640350.000,-835.540
677280.597,4640150.000,-840.770
677280.597,4639950.000,-844.620
677280.597,4639750.000,-845.660
677280.597,4639550.000,-846.170
677280.597,4639350.000,-847.060
677280.597,4639150.000,-849.390
677280.597,4638950.000,-850.400
677280.597,4638750.000,-852.390
677280.597,4638550.000,-853.860
677280.597,4638350.000,-854.890
677280.597,4638150.000,-855.280
677280.597,4637950.000,-855.820
677280.597,4637750.000,-858.840
677280.597,4637550.000,-862.630
677280.597,4637350.000,-866.420
677280.597,4637150.000,-869.410
677280.597,4636950.000,-872.380
677280.597,4636750.000,-874.190
677280.597,4636550.000,-875.540
677280.597,4636350.000,-876.740
677280.597,4636150.000,-877.740
677280.597,4635950.000,-879.010
677280.597,4635750.000,-880.540
677280.597,4635550.000,-881.380
677280.597,4635350.000,-882.660
677280.597,4635150.000,-886.400
677280.597,4634950.000,-889.430
677280.597,4634750.000,-892.440
677280.597,4634550.000,-894.820
677280.597,4634350.000,-898.340
677280.597,4634150.000,-901.080
677280.597,4633950.000,-903.750
677280.597,4633750.000,-904.900
677280.597,4633550.000,-906.290
677280.597,4633350.000,-907.760
677280.597,4633150.000,-908.740
677280.597,4632950.000,-909.580
677280.597,4632750.000,-909.230
677280.597,4632550.000,-909.740
677280.597,4632350.000,-914.310
677280.597,4632150.000,-916.050
677280.597,4631950.000,-915.980
677280.597,4631750.000,-916.590
677280.597,4631550.000,-916.820
677280.597,4631350.000,-917.090
677280.597,4631150.000,-917.140
677280.597,4630950.000,-916.920
677280.597,4630750.000,-917.890
677280.597,4630550.000,-918.790
677280.597,4630350.000,-919.450
677280.597,4630150.000,-917.270
677280.597,4629950.000,-915.760
677280.597,4629750.000,-915.670
677280.597,4629550.000,-915.040
677280.597,4629350.000,-914.500
677280.597,4629150.000,-912.030
677280.597,4628950.000,-907.470
677280.597,4628750.000,-901.290
677280.597,4628550.000,-897.250
677280.597,4628350.000,-899.350
677480.597,4670750.000,-949.200
677480.597,4670550.000,-952.201
677480.597,4670350.000,-954.103
677480.597,4670150.000,-955.214
677480.597,4669950.000,-955.180
677480.597,4669750.000,-953.630
677480.597,4669550.000,-953.410
677480.597,4669350.000,-952.930
677480.597,4669150.000,-952.280
677480.597,4668950.000,-952.290
