692852.313,4464063.865,-317.164
692852.313,4463963.865,-322.003
692852.313,4463863.865,-326.889
692852.313,4463763.865,-331.679
692852.313,4463663.865,-334.912
692852.313,4463563.865,-336.539
692852.313,4463463.865,-338.950
692852.313,4463363.865,-341.704
692852.313,4463263.865,-345.550
692852.313,4463163.865,-348.603
692852.313,4463063.865,-352.824
692852.313,4462963.865,-356.534
692852.313,4462863.865,-359.452
692852.313,4462763.865,-362.533
692852.313,4462663.865,-364.624
692852.313,4462563.865,-368.002
692852.313,4462463.865,-371.448
692852.313,4462363.865,-373.080
692852.313,4462263.865,-375.720
692852.313,4462163.865,-379.214
692852.313,4462063.865,-383.699
692852.313,4461963.865,-387.012
692852.313,4461863.865,-391.155
692852.313,4461763.865,-395.773
692852.313,4461663.865,-399.713
692852.313,4461563.865,-406.700
692852.313,4461463.865,-410.620
692852.313,4461363.865,-414.466
692852.313,4461263.865,-420.588
692852.313,4461163.865,-425.260
692852.313,4461063.865,-428.990
692852.313,4460963.865,-433.979
692852.313,4460863.865,-437.829
692852.313,4460763.865,-442.820
692852.313,4460663.865,-447.831
692852.313,4460563.865,-452.628
692852.313,4460463.865,-456.132
692852.313,4460363.865,-460.070
692852.313,4460263.865,-461.545
692852.313,4460163.865,-465.355
692852.313,4460063.865,-469.865
692852.313,4459963.865,-476.193
692852.313,4459863.865,-479.577
692852.313,4459763.865,-488.946
692852.313,4459663.865,-495.598
692852.313,4459563.865,-499.893
692852.313,4459463.865,-506.428
692852.313,4459363.865,-517.840
692852.313,4459263.865,-506.832
692852.313,4459163.865,-508.668
692852.313,4459063.865,-523.119
692852.313,4458963.865,-534.148
692852.313,4458863.865,-538.546
692852.313,4458763.865,-543.426
692852.313,4458663.865,-545.508
692852.313,4458563.865,-553.009
692852.313,4458463.865,-559.278
692852.313,4458363.865,-564.496
692852.313,4458263.865,-571.784
692852.313,4458163.865,-578.754
692852.313,4458063.865,-585.771
692852.313,4457963.865,-593.163
692852.313,4457863.865,-599.877
692852.313,4457763.865,-606.838
692852.313,4457663.865,-611.434
692852.313,4457563.865,-619.631
692852.313,4457463.865,-626.499
692852.313,4457363.865,-635.079
692852.313,4457263.865,-638.537
692852.313,4457163.865,-647.429
692852.313,4457063.865,-646.874
692952.313,4468763.865,-148.787
692952.313,4468663.865,-162.471
692952.313,4468563.865,-163.747
692952.313,4468463.865,-160.379
692952.313,4468363.865,-166.736
692952.313,4468263.865,-172.602
692952.313,4468163.865,-176.238
692952.313,4468063.865,-176.765
692952.313,4467963.865,-177.987
692952.313,4467863.865,-180.332
692952.313,4467763.865,-183.697
692952.313,4467663.865,-188.876
692952.313,4467563.865,-194.105
692952.313,4467463.865,-198.835
692952.313,4467363.865,-203.569
692952.313,4467263.865,-206.755
692952.313,4467163.865,-210.068
692952.313,4467063.865,-213.325
692952.313,4466963.865,-215.505
692952.313,4466863.865,-217.310
692952.313,4466763.865,-221.878
692952.313,4466663.865,-229.049
692952.313,4466563.865,-236.449
692952.313,4466463.865,-240.815
692952.313,4466363.865,-243.878
692952.313,4466263.865,-248.151
692952.313,4466163.865,-251.657
692952.313,4466063.865,-254.424
692952.313,4465963.865,-258.116
692952.313,4465863.865,-262.368
692952.313,4465763.865,-266.014
692952.313,4465663.865,-268.327
692952.313,4465563.865,-269.592
692952.313,4465463.865,-271.777
692952.313,4465363.865,-273.104
692952.313,4465263.865,-274.310
692952.313,4465163.865,-275.989
692952.313,4465063.865,-278.123
692952.313,4464963.865,-281.518
692952.313,4464863.865,-285.016
692952.313,4464763.865,-289.969
692952.313,4464663.865,-294.816
692952.313,4464563.865,-298.344
692952.313,4464463.865,-301.671
692952.313,4464363.865,-304.640
692952.313,4464263.865,-307.681
692952.313,4464163.865,-312.751
692952.313,4464063.865,-316.387
692952.313,4463963.865,-320.453
692952.313,4463863.865,-324.746
692952.313,4463763.865,-328.333
692952.313,4463663.865,-331.254
692952.313,4463563.865,-334.366
692952.313,4463463.865,-336.660
692952.313,4463363.865,-338.734
692952.313,4463263.865,-342.195
692952.313,4463163.865,-345.889
692952.313,4463063.865,-350.051
692952.313,4462963.865,-354.564
692952.313,4462863.865,-357.372
692952.313,4462763.865,-360.220
692952.313,4462663.865,-363.540
692952.313,4462563.865,-366.651
692952.313,4462463.865,-369.769
692952.313,4462363.865,-371.711
692952.313,4462263.865,-373.936
692952.313,4462163.865,-376.879
692952.313,4462063.865,-380.570
692952.313,4461963.865,-384.331
692952.313,4461863.865,-387.772
692952.313,4461763.865,-392.481
692952.313,4461663.865,-396.896
692952.313,4461563.865,-400.451
692952.313,4461463.865,-406.527
692952.313,4461363.865,-409.705
692952.313,4461263.865,-415.057
692952.313,4461163.865,-419.396
692952.313,4461063.865,-424.503
692952.313,4460963.865,-428.142
692952.313,4460863.865,-434.413
692952.313,4460763.865,-439.260
692952.313,4460663.865,-442.518
692952.313,4460563.865,-448.307
692952.313,4460463.865,-452.412
692952.313,4460363.865,-456.884
692952.313,4460263.865,-459.900
692952.313,4460163.865,-463.435
692952.313,4460063.865,-467.465
692952.313,4459963.865,-471.081
692952.313,4459863.865,-474.908
692952.313,4459763.865,-479.732
692952.313,4459663.865,-487.975
692952.313,4459563.865,-491.458
692952.313,4459463.865,-493.896
692952.313,4459363.865,-498.091
692952.313,4459263.865,-500.901
692952.313,4459163.865,-508.275
692952.313,4459063.865,-525.998
692952.313,4458963.865,-533.127
692952.313,4458863.865,-536.437
692952.313,4458763.865,-541.864
692952.313,4458663.865,-544.765
692952.313,4458563.865,-553.112
692952.313,4458463.865,-556.838
692952.313,4458363.865,-563.088
692952.313,4458263.865,-569.355
692952.313,4458163.865,-576.897
692952.313,4458063.865,-584.850
692952.313,4457963.865,-591.339
692952.313,4457863.865,-598.315
692952.313,4457763.865,-605.340
692952.313,4457663.865,-610.289
692952.313,4457563.865,-620.242
692952.313,4457463.865,-631.152
692952.313,4457363.865,-635.137
692952.313,4457263.865,-645.205
692952.313,4457163.865,-647.488
692952.313,4457063.865,-646.837
693052.313,4468763.865,-143.032
693052.313,4468663.865,-158.729
693052.313,4468563.865,-160.748
693052.313,4468463.865,-157.458
693052.313,4468363.865,-165.023
693052.313,4468263.865,-170.058
693052.313,4468163.865,-173.450
693052.313,4468063.865,-175.859
693052.313,4467963.865,-177.217
693052.313,4467863.865,-179.623
693052.313,4467763.865,-181.966
693052.313,4467663.865,-187.245
693052.313,4467563.865,-193.113
693052.313,4467463.865,-197.369
693052.313,4467363.865,-201.086
693052.313,4467263.865,-206.145
693052.313,4467163.865,-209.205
693052.313,4467063.865,-211.687
693052.313,4466963.865,-213.888
693052.313,4466863.865,-214.968
693052.313,4466763.865,-217.280
693052.313,4466663.865,-223.932
693052.313,4466563.865,-233.085
693052.313,4466463.865,-238.951
693052.313,4466363.865,-242.013
693052.313,4466263.865,-245.742
693052.313,4466163.865,-249.048
693052.313,4466063.865,-252.956
693052.313,4465963.865,-255.954
693052.313,4465863.865,-259.924
693052.313,4465763.865,-263.787
693052.313,4465663.865,-267.245
693052.313,4465563.865,-268.424
693052.313,4465463.865,-271.061
693052.313,4465363.865,-272.964
693052.313,4465263.865,-273.933
693052.313,4465163.865,-275.568
693052.313,4465063.865,-277.525
693052.313,4464963.865,-280.168
693052.313,4464863.865,-284.059
693052.313,4464763.865,-288.409
693052.313,4464663.865,-293.156
693052.313,4464563.865,-297.011
693052.313,4464463.865,-300.329
693052.313,4464363.865,-303.207
693052.313,4464263.865,-306.508
693052.313,4464163.865,-310.205
693052.313,4464063.865,-315.235
693052.313,4463963.865,-318.535
693052.313,4463863.865,-322.402
693052.313,4463763.865,-325.616
693052.313,4463663.865,-329.282
693052.313,4463563.865,-332.247
693052.313,4463463.865,-333.924
693052.313,4463363.865,-336.696
693052.313,4463263.865,-339.087
693052.313,4463163.865,-343.402
693052.313,4463063.865,-347.249
693052.313,4462963.865,-351.322
693052.313,4462863.865,-354.838
693052.313,4462763.865,-357.168
693052.313,4462663.865,-361.575
693052.313,4462563.865,-365.771
693052.313,4462463.865,-367.939
693052.313,4462363.865,-371.144
693052.313,4462263.865,-372.697
693052.313,4462163.865,-374.592
693052.313,4462063.865,-377.687
693052.313,4461963.865,-380.430
693052.313,4461863.865,-384.380
693052.313,4461763.865,-388.955
693052.313,4461663.865,-392.634
693052.313,4461563.865,-396.545
693052.313,4461463.865,-399.647
693052.313,4461363.865,-403.307
693052.313,4461263.865,-409.871
693052.313,4461163.865,-415.144
693052.313,4461063.865,-419.920
693052.313,4460963.865,-424.809
693052.313,4460863.865,-429.945
693052.313,4460763.865,-434.600
693052.313,4460663.865,-438.616
693052.313,4460563.865,-444.069
693052.313,4460463.865,-448.337
693052.313,4460363.865,-452.830
693052.313,4460263.865,-456.741
693052.313,4460163.865,-457.667
693052.313,4460063.865,-463.278
693052.313,4459963.865,-467.974
693052.313,4459863.865,-471.921
693052.313,4459763.865,-475.834
693052.313,4459663.865,-482.957
693052.313,4459563.865,-486.096
693052.313,4459463.865,-491.720
693052.313,4459363.865,-497.094
693052.313,4459263.865,-502.017
693052.313,4459163.865,-517.615
693052.313,4459063.865,-526.300
693052.313,4458963.865,-530.721
693052.313,4458863.865,-535.658
693052.313,4458763.865,-541.681
693052.313,4458663.865,-546.533
693052.313,4458563.865,-552.439
693052.313,4458463.865,-557.821
693052.313,4458363.865,-563.372
693052.313,4458263.865,-569.343
693052.313,4458163.865,-576.905
693052.313,4458063.865,-583.376
693052.313,4457963.865,-589.219
693052.313,4457863.865,-596.081
693052.313,4457763.865,-603.632
693052.313,4457663.865,-612.354
693052.313,4457563.865,-620.232
693052.313,4457463.865,-631.051
693052.313,4457363.865,-637.971
693052.313,4457263.865,-642.210
693052.313,4457163.865,-647.546
693052.313,4457063.865,-646.799
693152.313,4468663.865,-155.268
693152.313,4468563.865,-157.964
693152.313,4468463.865,-155.808
693152.313,4468363.865,-162.458
693152.313,4468263.865,-167.375
693152.313,4468163.865,-170.675
693152.313,4468063.865,-174.117
693152.313,4467963.865,-176.281
693152.313,4467863.865,-178.652
693152.313,4467763.865,-181.511
693152.313,4467663.865,-185.877
693152.313,4467563.865,-191.715
693152.313,4467463.865,-196.632
693152.313,4467363.865,-200.050
693152.313,4467263.865,-204.655
693152.313,4467163.865,-208.514
693152.313,4467063.865,-210.988
693152.313,4466963.865,-213.060
693152.313,4466863.865,-214.660
693152.313,4466763.865,-214.327
693152.313,4466663.865,-218.970
693152.313,4466563.865,-228.337
693152.313,4466463.865,-236.205
693152.313,4466363.865,-240.017
693152.313,4466263.865,-243.896
693152.313,4466163.865,-246.384
693152.313,4466063.865,-250.096
693152.313,4465963.865,-253.801
693152.313,4465863.865,-256.898
693152.313,4465763.865,-261.255
693152.313,4465663.865,-265.575
693152.313,4465563.865,-267.840
693152.313,4465463.865,-269.846
693152.313,4465363.865,-271.804
693152.313,4465263.865,-273.102
693152.313,4465163.865,-275.335
693152.313,4465063.865,-277.226
693152.313,4464963.865,-279.817
693152.313,4464863.865,-283.351
693152.313,4464763.865,-287.177
693152.313,4464663.865,-291.900
693152.313,4464563.865,-295.892
693152.313,4464463.865,-299.425
693152.313,4464363.865,-302.552
693152.313,4464263.865,-305.890
693152.313,4464163.865,-309.819
693152.313,4464063.865,-314.410
693152.313,4463963.865,-316.739
693152.313,4463863.865,-319.737
693152.313,4463763.865,-322.611
693152.313,4463663.865,-325.563
693152.313,4463563.865,-329.308
693152.313,4463463.865,-331.329
693152.313,4463363.865,-333.350
693152.313,4463263.865,-335.867
693152.313,4463163.865,-339.224
693152.313,4463063.865,-343.527
693152.313,4462963.865,-348.231
693152.313,4462863.865,-352.307
693152.313,4462763.865,-355.518
693152.313,4462663.865,-358.949
693152.313,4462563.865,-363.801
693152.313,4462463.865,-366.801
693152.313,4462363.865,-369.495
693152.313,4462263.865,-371.025
693152.313,4462163.865,-372.889
693152.313,4462063.865,-375.157
693152.313,4461963.865,-378.753
693152.313,4461863.865,-381.600
693152.313,4461763.865,-385.334
693152.313,4461663.865,-389.429
693152.313,4461563.865,-392.819
693152.313,4461463.865,-397.031
693152.313,4461363.865,-398.561
693152.313,4461263.865,-403.513
693152.313,4461163.865,-410.444
693152.313,4461063.865,-415.292
693152.313,4460963.865,-419.710
693152.313,4460863.865,-423.871
693152.313,4460763.865,-431.409
693152.313,4460663.865,-435.598
693152.313,4460563.865,-439.373
693152.313,4460463.865,-444.145
693152.313,4460363.865,-449.336
693152.313,4460263.865,-453.036
693152.313,4460163.865,-456.226
693152.313,4460063.865,-460.488
693152.313,4459963.865,-464.745
693152.313,4459863.865,-469.983
693152.313,4459763.865,-475.492
693152.313,4459663.865,-478.944
693152.313,4459563.865,-483.377
693152.313,4459463.865,-489.086
693152.313,4459363.865,-494.192
693152.313,4459263.865,-513.438
693152.313,4459163.865,-519.936
693152.313,4459063.865,-525.181
693152.313,4458963.865,-529.797
693152.313,4458863.865,-533.390
693152.313,4458763.865,-539.763
693152.313,4458663.865,-547.375
693152.313,4458563.865,-553.107
693152.313,4458463.865,-558.693
693152.313,4458363.865,-563.410
693152.313,4458263.865,-568.966
693152.313,4458163.865,-574.147
693152.313,4458063.865,-581.007
693152.313,4457963.865,-588.143
693152.313,4457863.865,-593.566
693152.313,4457763.865,-601.488
693152.313,4457663.865,-609.857
693152.313,4457563.865,-619.659
693152.313,4457463.865,-625.476
693152.313,4457363.865,-635.903
693152.313,4457263.865,-643.966
693152.313,4457163.865,-647.605
693152.313,4457063.865,-646.761
693252.313,4468663.865,-151.361
693252.313,4468563.865,-156.524
693252.313,4468463.865,-154.421
693252.313,4468363.865,-159.521
693252.313,4468263.865,-163.742
693252.313,4468163.865,-167.359
693252.313,4468063.865,-171.854
693252.313,4467963.865,-175.688
693252.313,4467863.865,-177.728
693252.313,4467763.865,-180.795
693252.313,4467663.865,-184.526
693252.313,4467563.865,-190.666
693252.313,4467463.865,-195.707
693252.313,4467363.865,-199.911
693252.313,4467263.865,-203.440
693252.313,4467163.865,-208.022
693252.313,4467063.865,-210.215
693252.313,4466963.865,-212.485
693252.313,4466863.865,-214.442
693252.313,4466763.865,-213.520
693252.313,4466663.865,-213.252
693252.313,4466563.865,-223.578
693252.313,4466463.865,-233.027
693252.313,4466363.865,-238.159
693252.313,4466263.865,-243.107
693252.313,4466163.865,-244.476
693252.313,4466063.865,-246.535
693252.313,4465963.865,-251.269
693252.313,4465863.865,-254.545
693252.313,4465763.865,-259.367
693252.313,4465663.865,-263.342
693252.313,4465563.865,-266.478
693252.313,4465463.865,-268.876
693252.313,4465363.865,-271.904
693252.313,4465263.865,-273.314
693252.313,4465163.865,-274.616
693252.313,4465063.865,-277.006
693252.313,4464963.865,-279.125
693252.313,4464863.865,-282.310
693252.313,4464763.865,-286.607
693252.313,4464663.865,-290.761
693252.313,4464563.865,-294.755
693252.313,4464463.865,-298.891
693252.313,4464363.865,-301.936
693252.313,4464263.865,-304.886
693252.313,4464163.865,-308.946
693252.313,4464063.865,-312.335
693252.313,4463963.865,-315.473
693252.313,4463863.865,-316.099
693252.313,4463763.865,-318.578
693252.313,4463663.865,-321.423
693252.313,4463563.865,-324.102
693252.313,4463463.865,-328.235
693252.313,4463363.865,-330.100
693252.313,4463263.865,-332.851
693252.313,4463163.865,-336.106
693252.313,4463063.865,-340.503
693252.313,4462963.865,-344.497
693252.313,4462863.865,-348.947
693252.313,4462763.865,-352.615
693252.313,4462663.865,-355.731
693252.313,4462563.865,-361.449
693252.313,4462463.865,-364.357
693252.313,4462363.865,-366.918
693252.313,4462263.865,-369.361
693252.313,4462163.865,-370.974
693252.313,4462063.865,-373.206
693252.313,4461963.865,-376.323
693252.313,4461863.865,-378.716
693252.313,4461763.865,-381.346
693252.313,4461663.865,-385.511
693252.313,4461563.865,-388.422
693252.313,4461463.865,-391.602
693252.313,4461363.865,-396.155
693252.313,4461263.865,-399.378
693252.313,4461163.865,-404.699
693252.313,4461063.865,-410.055
693252.313,4460963.865,-414.955
693252.313,4460863.865,-420.186
693252.313,4460763.865,-425.161
693252.313,4460663.865,-430.788
693252.313,4460563.865,-435.341
693252.313,4460463.865,-440.702
693252.313,4460363.865,-445.758
693252.313,4460263.865,-448.513
693252.313,4460163.865,-453.999
693252.313,4460063.865,-457.460
693252.313,4459963.865,-460.949
693252.313,4459863.865,-468.528
693252.313,4459763.865,-473.792
693252.313,4459663.865,-478.708
693252.313,4459563.865,-483.266
693252.313,4459463.865,-489.360
693252.313,4459363.865,-495.382
693252.313,4459263.865,-511.861
693252.313,4459163.865,-517.578
693252.313,4459063.865,-521.847
693252.313,4458963.865,-528.240
693252.313,4458863.865,-533.689
693252.313,4458763.865,-540.912
693252.313,4458663.865,-548.458
693252.313,4458563.865,-553.816
693252.313,4458463.865,-559.421
693252.313,4458363.865,-562.917
693252.313,4458263.865,-568.335
693252.313,4458163.865,-573.718
693252.313,4458063.865,-579.579
693252.313,4457963.865,-586.132
693252.313,4457863.865,-592.627
693252.313,4457763.865,-599.675
693252.313,4457663.865,-607.235
693252.313,4457563.865,-616.204
693252.313,4457463.865,-623.966
693252.313,4457363.865,-634.169
693252.313,4457263.865,-639.357
693252.313,4457163.865,-645.977
693252.313,4457063.865,-646.724
693352.313,4468663.865,-145.913
693352.313,4468563.865,-156.626
693352.313,4468463.865,-154.373
693352.313,4468363.865,-156.375
693352.313,4468263.865,-158.670
693352.313,4468163.865,-162.569
693352.313,4468063.865,-168.403
693352.313,4467963.865,-174.610
693352.313,4467863.865,-176.938
693352.313,4467763.865,-179.494
693352.313,4467663.865,-183.057
693352.313,4467563.865,-188.861
693352.313,4467463.865,-195.088
693352.313,4467363.865,-199.886
693352.313,4467263.865,-203.140
693352.313,4467163.865,-207.151
693352.313,4467063.865,-209.266
693352.313,4466963.865,-211.932
693352.313,4466863.865,-213.381
693352.313,4466763.865,-213.021
693352.313,4466663.865,-210.294
693352.313,4466563.865,-219.194
693352.313,4466463.865,-230.048
693352.313,4466363.865,-235.609
693352.313,4466263.865,-240.409
693352.313,4466163.865,-243.080
693352.313,4466063.865,-244.172
693352.313,4465963.865,-247.802
693352.313,4465863.865,-252.535
693352.313,4465763.865,-255.795
693352.313,4465663.865,-259.557
693352.313,4465563.865,-264.339
693352.313,4465463.865,-268.166
693352.313,4465363.865,-271.046
693352.313,4465263.865,-273.223
693352.313,4465163.865,-274.205
693352.313,4465063.865,-276.614
693352.313,4464963.865,-278.992
693352.313,4464863.865,-282.224
693352.313,4464763.865,-286.130
693352.313,4464663.865,-290.128
693352.313,4464563.865,-294.803
693352.313,4464463.865,-299.123
693352.313,4464363.865,-301.621
693352.313,4464263.865,-303.870
693352.313,4464163.865,-307.574
693352.313,4464063.865,-310.677
693352.313,4463963.865,-313.188
693352.313,4463863.865,-313.579
693352.313,4463763.865,-314.946
693352.313,4463663.865,-317.261
693352.313,4463563.865,-320.333
693352.313,4463463.865,-323.611
693352.313,4463363.865,-326.532
693352.313,4463263.865,-329.378
693352.313,4463163.865,-332.058
693352.313,4463063.865,-336.515
693352.313,4462963.865,-341.122
693352.313,4462863.865,-345.969
693352.313,4462763.865,-349.930
693352.313,4462663.865,-354.730
693352.313,4462563.865,-356.416
693352.313,4462463.865,-357.726
693352.313,4462363.865,-362.714
693352.313,4462263.865,-368.581
693352.313,4462163.865,-370.540
693352.313,4462063.865,-371.754
693352.313,4461963.865,-374.152
693352.313,4461863.865,-377.220
693352.313,4461763.865,-378.897
693352.313,4461663.865,-382.570
693352.313,4461563.865,-386.559
693352.313,4461463.865,-387.782
693352.313,4461363.865,-392.283
693352.313,4461263.865,-396.097
693352.313,4461163.865,-398.691
693352.313,4461063.865,-404.057
693352.313,4460963.865,-409.273
693352.313,4460863.865,-414.559
693352.313,4460763.865,-420.736
693352.313,4460663.865,-427.059
693352.313,4460563.865,-432.123
693352.313,4460463.865,-437.590
693352.313,4460363.865,-442.595
693352.313,4460263.865,-447.329
693352.313,4460163.865,-451.480
693352.313,4460063.865,-455.754
693352.313,4459963.865,-462.605
693352.313,4459863.865,-466.501
693352.313,4459763.865,-472.987
693352.313,4459663.865,-478.949
693352.313,4459563.865,-484.754
693352.313,4459463.865,-490.611
693352.313,4459363.865,-497.556
693352.313,4459263.865,-507.575
693352.313,4459163.865,-513.320
693352.313,4459063.865,-519.552
693352.313,4458963.865,-525.705
693352.313,4458863.865,-532.927
693352.313,4458763.865,-541.069
693352.313,4458663.865,-549.925
693352.313,4458563.865,-554.965
693352.313,4458463.865,-559.689
693352.313,4458363.865,-563.632
693352.313,4458263.865,-567.976
693352.313,4458163.865,-573.398
693352.313,4458063.865,-577.897
693352.313,4457963.865,-584.163
693352.313,4457863.865,-591.768
693352.313,4457763.865,-597.674
693352.313,4457663.865,-604.640
693352.313,4457563.865,-613.441
693352.313,4457463.865,-622.131
693352.313,4457363.865,-631.543
693352.313,4457263.865,-637.776
693352.313,4457163.865,-647.965
693352.313,4457063.865,-646.686
693452.313,4468563.865,-154.898
693452.313,4468463.865,-155.199
693452.313,4468363.865,-154.407
693452.313,4468263.865,-155.650
693452.313,4468163.865,-159.739
693452.313,4468063.865,-165.528
693452.313,4467963.865,-172.286
693452.313,4467863.865,-175.950
693452.313,4467763.865,-177.865
693452.313,4467663.865,-182.096
693452.313,4467563.865,-186.612
693452.313,4467463.865,-193.677
693452.313,4467363.865,-199.829
693452.313,4467263.865,-203.271
693452.313,4467163.865,-205.184
693452.313,4467063.865,-209.115
693452.313,4466963.865,-211.408
693452.313,4466863.865,-213.452
693452.313,4466763.865,-212.509
693452.313,4466663.865,-210.892
693452.313,4466563.865,-214.327
693452.313,4466463.865,-226.966
693452.313,4466363.865,-233.700
693452.313,4466263.865,-239.094
693452.313,4466163.865,-240.015
693452.313,4466063.865,-242.353
693452.313,4465963.865,-244.878
693452.313,4465863.865,-249.412
693452.313,4465763.865,-253.231
693452.313,4465663.865,-256.100
693452.313,4465563.865,-261.329
693452.313,4465463.865,-266.508
693452.313,4465363.865,-269.475
693452.313,4465263.865,-272.643
693452.313,4465163.865,-273.874
693452.313,4465063.865,-276.306
693452.313,4464963.865,-278.686
693452.313,4464863.865,-282.334
693452.313,4464763.865,-286.101
693452.313,4464663.865,-290.357
693452.313,4464563.865,-295.104
693452.313,4464463.865,-299.059
693452.313,4464363.865,-302.702
693452.313,4464263.865,-303.916
693452.313,4464163.865,-307.032
693452.313,4464063.865,-309.194
693452.313,4463963.865,-310.659
693452.313,4463863.865,-310.724
693452.313,4463763.865,-310.816
693452.313,4463663.865,-313.130
693452.313,4463563.865,-316.152
693452.313,4463463.865,-320.184
693452.313,4463363.865,-324.174
693452.313,4463263.865,-325.657
693452.313,4463163.865,-329.451
693452.313,4463063.865,-333.140
693452.313,4462963.865,-337.328
693452.313,4462863.865,-341.885
693452.313,4462763.865,-346.698
693452.313,4462663.865,-349.755
693452.313,4462563.865,-353.332
693452.313,4462463.865,-357.854
693452.313,4462363.865,-361.685
693452.313,4462263.865,-365.317
693452.313,4462163.865,-367.893
693452.313,4462063.865,-369.668
693452.313,4461963.865,-371.961
693452.313,4461863.865,-374.140
693452.313,4461763.865,-377.045
693452.313,4461663.865,-379.537
693452.313,4461563.865,-383.309
693452.313,4461463.865,-386.608
693452.313,4461363.865,-387.960
693452.313,4461263.865,-392.532
693452.313,4461163.865,-395.279
693452.313,4461063.865,-400.801
693452.313,4460963.865,-404.874
693452.313,4460863.865,-410.353
693452.313,4460763.865,-416.157
693452.313,4460663.865,-422.643
693452.313,4460563.865,-428.441
693452.313,4460463.865,-434.022
693452.313,4460363.865,-439.453
693452.313,4460263.865,-444.650
693452.313,4460163.865,-449.669
693452.313,4460063.865,-455.287
693452.313,4459963.865,-461.101
693452.313,4459863.865,-466.739
693452.313,4459763.865,-473.477
693452.313,4459663.865,-479.849
693452.313,4459563.865,-485.216
693452.313,4459463.865,-493.102
693452.313,4459363.865,-500.370
693452.313,4459263.865,-505.809
693452.313,4459163.865,-512.407
693452.313,4459063.865,-518.696
693452.313,4458963.865,-525.429
693452.313,4458863.865,-533.419
693452.313,4458763.865,-540.762
693452.313,4458663.865,-548.675
693452.313,4458563.865,-555.223
693452.313,4458463.865,-558.551
693452.313,4458363.865,-563.039
693452.313,4458263.865,-567.182
693452.313,4458163.865,-571.696
693452.313,4458063.865,-577.383
693452.313,4457963.865,-584.919
693452.313,4457863.865,-591.104
693452.313,4457763.865,-596.801
693452.313,4457663.865,-605.270
693452.313,4457563.865,-611.602
693452.313,4457463.865,-619.698
693452.313,4457363.865,-629.031
693452.313,4457263.865,-637.198
693452.313,4457163.865,-642.703
693452.313,4457063.865,-646.648
693552.313,4468563.865,-149.123
693552.313,4468463.865,-156.183
693552.313,4468363.865,-154.461
693552.313,4468263.865,-154.523
693552.313,4468163.865,-158.302
693552.313,4468063.865,-163.773
693552.313,4467963.865,-169.848
693552.313,4467863.865,-174.684
693552.313,4467763.865,-177.013
693552.313,4467663.865,-180.590
693552.313,4467563.865,-185.026
693552.313,4467463.865,-191.718
693552.313,4467363.865,-198.930
693552.313,4467263.865,-202.767
693552.313,4467163.865,-204.271
693552.313,4467063.865,-207.016
693552.313,4466963.865,-210.128
693552.313,4466863.865,-213.250
693552.313,4466763.865,-213.927
693552.313,4466663.865,-212.349
693552.313,4466563.865,-212.006
693552.313,4466463.865,-224.426
693552.313,4466363.865,-231.385
693552.313,4466263.865,-236.969
693552.313,4466163.865,-240.651
693552.313,4466063.865,-240.828
693552.313,4465963.865,-242.776
693552.313,4465863.865,-246.362
693552.313,4465763.865,-250.918
693552.313,4465663.865,-253.263
693552.313,4465563.865,-258.410
693552.313,4465463.865,-264.213
693552.313,4465363.865,-267.965
693552.313,4465263.865,-270.875
693552.313,4465163.865,-273.681
693552.313,4465063.865,-276.415
693552.313,4464963.865,-278.874
693552.313,4464863.865,-282.786
693552.313,4464763.865,-287.376
693552.313,4464663.865,-291.000
693552.313,4464563.865,-295.524
693552.313,4464463.865,-299.379
693552.313,4464363.865,-302.416
693552.313,4464263.865,-304.038
693552.313,4464163.865,-305.654
693552.313,4464063.865,-307.228
693552.313,4463963.865,-307.608
693552.313,4463863.865,-307.507
693552.313,4463763.865,-307.736
693552.313,4463663.865,-309.656
693552.313,4463563.865,-312.659
693552.313,4463463.865,-316.460
693552.313,4463363.865,-320.603
693552.313,4463263.865,-323.089
693552.313,4463163.865,-326.036
693552.313,4463063.865,-329.390
693552.313,4462963.865,-333.825
693552.313,4462863.865,-337.890
693552.313,4462763.865,-342.987
693552.313,4462663.865,-347.844
693552.313,4462563.865,-351.850
693552.313,4462463.865,-355.085
693552.313,4462363.865,-359.827
693552.313,4462263.865,-364.469
693552.313,4462163.865,-366.799
693552.313,4462063.865,-368.129
693552.313,4461963.865,-370.755
693552.313,4461863.865,-373.670
693552.313,4461763.865,-375.474
693552.313,4461663.865,-377.826
693552.313,4461563.865,-380.651
693552.313,4461463.865,-384.339
693552.313,4461363.865,-386.483
693552.313,4461263.865,-389.130
693552.313,4461163.865,-393.806
693552.313,4461063.865,-397.126
693552.313,4460963.865,-400.915
693552.313,4460863.865,-405.912
693552.313,4460763.865,-411.206
693552.313,4460663.865,-418.365
693552.313,4460563.865,-424.667
693552.313,4460463.865,-431.010
693552.313,4460363.865,-437.342
693552.313,4460263.865,-442.494
693552.313,4460163.865,-448.500
693552.313,4460063.865,-453.877
693552.313,4459963.865,-459.906
693552.313,4459863.865,-467.513
693552.313,4459763.865,-473.536
693552.313,4459663.865,-481.195
693552.313,4459563.865,-487.592
693552.313,4459463.865,-495.214
693552.313,4459363.865,-501.468
693552.313,4459263.865,-508.267
693552.313,4459163.865,-513.146
693552.313,4459063.865,-519.590
693552.313,4458963.865,-525.344
693552.313,4458863.865,-532.629
693552.313,4458763.865,-539.813
693552.313,4458663.865,-546.951
693552.313,4458563.865,-553.886
693552.313,4458463.865,-558.883
693552.313,4458363.865,-564.004
693552.313,4458263.865,-567.584
693552.313,4458163.865,-572.453
693552.313,4458063.865,-578.653
693552.313,4457963.865,-584.805
693552.313,4457863.865,-590.285
693552.313,4457763.865,-597.948
693552.313,4457663.865,-604.284
693552.313,4457563.865,-612.506
693552.313,4457463.865,-619.786
693552.313,4457363.865,-626.044
693552.313,4457263.865,-632.416
693552.313,4457163.865,-638.986
693552.313,4457063.865,-641.472
693652.313,4468463.865,-152.995
693652.313,4468363.865,-154.361
693652.313,4468263.865,-154.971
693652.313,4468163.865,-158.274
693652.313,4468063.865,-162.836
693652.313,4467963.865,-167.669
693652.313,4467863.865,-172.734
693652.313,4467763.865,-176.063
693652.313,4467663.865,-179.091
693652.313,4467563.865,-183.280
693652.313,4467463.865,-188.753
693652.313,4467363.865,-195.258
693652.313,4467263.865,-202.707
693652.313,4467163.865,-204.220
693652.313,4467063.865,-205.361
693652.313,4466963.865,-209.424
693652.313,4466863.865,-212.114
693652.313,4466763.865,-214.343
693652.313,4466663.865,-214.343
693652.313,4466563.865,-212.007
693652.313,4466463.865,-221.822
693652.313,4466363.865,-229.566
693652.313,4466263.865,-234.967
693652.313,4466163.865,-238.566
693652.313,4466063.865,-239.354
693652.313,4465963.865,-241.229
693652.313,4465863.865,-244.079
693652.313,4465763.865,-248.566
693652.313,4465663.865,-251.656
693652.313,4465563.865,-255.668
693652.313,4465463.865,-261.197
693652.313,4465363.865,-265.530
693652.313,4465263.865,-269.424
693652.313,4465163.865,-274.037
693652.313,4465063.865,-277.685
693652.313,4464963.865,-279.514
693652.313,4464863.865,-283.708
693652.313,4464763.865,-287.640
693652.313,4464663.865,-291.836
693652.313,4464563.865,-295.624
693652.313,4464463.865,-299.211
693652.313,4464363.865,-301.874
693652.313,4464263.865,-304.064
693652.313,4464163.865,-304.285
693652.313,4464063.865,-304.847
693652.313,4463963.865,-304.601
693652.313,4463863.865,-304.927
693652.313,4463763.865,-306.244
693652.313,4463663.865,-306.453
693652.313,4463563.865,-309.528
693652.313,4463463.865,-312.809
693652.313,4463363.865,-318.752
693652.313,4463263.865,-320.752
693652.313,4463163.865,-322.778
693652.313,4463063.865,-326.792
693652.313,4462963.865,-330.438
693652.313,4462863.865,-334.715
693652.313,4462763.865,-340.372
693652.313,4462663.865,-344.176
693652.313,4462563.865,-348.414
693652.313,4462463.865,-351.421
693652.313,4462363.865,-356.399
693652.313,4462263.865,-359.881
693652.313,4462163.865,-364.258
693652.313,4462063.865,-367.077
693652.313,4461963.865,-369.652
693652.313,4461863.865,-371.754
693652.313,4461763.865,-374.062
693652.313,4461663.865,-377.077
693652.313,4461563.865,-379.001
693652.313,4461463.865,-382.582
693652.313,4461363.865,-384.237
693652.313,4461263.865,-387.911
693652.313,4461163.865,-390.030
693652.313,4461063.865,-392.940
693652.313,4460963.865,-398.908
693652.313,4460863.865,-402.898
693652.313,4460763.865,-408.041
693652.313,4460663.865,-414.474
693652.313,4460563.865,-421.551
693652.313,4460463.865,-429.320
693652.313,4460363.865,-434.343
693652.313,4460263.865,-440.510
693652.313,4460163.865,-446.328
693652.313,4460063.865,-452.475
693652.313,4459963.865,-459.031
693652.313,4459863.865,-465.636
693652.313,4459763.865,-473.618
693652.313,4459663.865,-480.398
693652.313,4459563.865,-489.156
693652.313,4459463.865,-497.969
693652.313,4459363.865,-504.204
693652.313,4459263.865,-509.824
693652.313,4459163.865,-515.211
693652.313,4459063.865,-521.928
693652.313,4458963.865,-527.431
693652.313,4458863.865,-533.273
693652.313,4458763.865,-539.765
693652.313,4458663.865,-545.996
693652.313,4458563.865,-553.596
693652.313,4458463.865,-559.171
693652.313,4458363.865,-563.966
693652.313,4458263.865,-567.746
693652.313,4458163.865,-574.086
693652.313,4458063.865,-579.321
693652.313,4457963.865,-585.753
693652.313,4457863.865,-592.648
693652.313,4457763.865,-600.022
693652.313,4457663.865,-605.343
693652.313,4457563.865,-612.536
693652.313,4457463.865,-617.627
693652.313,4457363.865,-623.064
693652.313,4457263.865,-627.734
693652.313,4457163.865,-633.208
693652.313,4457063.865,-636.863
693652.313,4456963.865,-642.972
693652.313,4456863.865,-642.899
693752.313,4468463.865,-140.884
693752.313,4468363.865,-150.514
693752.313,4468263.865,-153.519
693752.313,4468163.865,-157.291
693752.313,4468063.865,-160.282
693752.313,4467963.865,-164.172
693752.313,4467863.865,-169.171
693752.313,4467763.865,-174.148
693752.313,4467663.865,-177.586
693752.313,4467563.865,-181.855
693752.313,4467463.865,-186.918
693752.313,4467363.865,-194.199
693752.313,4467263.865,-201.968
693752.313,4467163.865,-204.910
693752.313,4467063.865,-205.515
693752.313,4466963.865,-208.917
693752.313,4466863.865,-211.099
693752.313,4466763.865,-213.364
693752.313,4466663.865,-214.780
693752.313,4466563.865,-212.111
693752.313,4466463.865,-217.775
693752.313,4466363.865,-228.001
693752.313,4466263.865,-233.145
693752.313,4466163.865,-235.703
693752.313,4466063.865,-237.198
693752.313,4465963.865,-240.283
693752.313,4465863.865,-242.739
693752.313,4465763.865,-246.836
693752.313,4465663.865,-249.594
693752.313,4465563.865,-253.479
693752.313,4465463.865,-258.103
693752.313,4465363.865,-263.086
693752.313,4465263.865,-267.556
693752.313,4465163.865,-274.117
693752.313,4465063.865,-279.962
693752.313,4464963.865,-281.291
693752.313,4464863.865,-284.859
693752.313,4464763.865,-288.601
693752.313,4464663.865,-292.207
693752.313,4464563.865,-295.805
693752.313,4464463.865,-298.340
693752.313,4464363.865,-300.871
693752.313,4464263.865,-302.537
693752.313,4464163.865,-303.165
693752.313,4464063.865,-302.531
693752.313,4463963.865,-302.678
693752.313,4463863.865,-301.728
693752.313,4463763.865,-303.373
693752.313,4463663.865,-303.662
693752.313,4463563.865,-306.662
693752.313,4463463.865,-309.640
693752.313,4463363.865,-313.752
693752.313,4463263.865,-317.671
693752.313,4463163.865,-321.338
693752.313,4463063.865,-323.165
693752.313,4462963.865,-327.371
693752.313,4462863.865,-331.496
693752.313,4462763.865,-336.679
693752.313,4462663.865,-341.030
693752.313,4462563.865,-345.428
693752.313,4462463.865,-349.246
693752.313,4462363.865,-354.773
693752.313,4462263.865,-358.204
693752.313,4462163.865,-362.175
693752.313,4462063.865,-365.366
693752.313,4461963.865,-367.390
693752.313,4461863.865,-370.474
693752.313,4461763.865,-374.085
693752.313,4461663.865,-375.473
693752.313,4461563.865,-378.036
693752.313,4461463.865,-381.142
693752.313,4461363.865,-384.071
693752.313,4461263.865,-386.281
693752.313,4461163.865,-390.273
693752.313,4461063.865,-392.823
693752.313,4460963.865,-395.918
693752.313,4460863.865,-400.679
693752.313,4460763.865,-405.970
693752.313,4460663.865,-411.653
693752.313,4460563.865,-419.343
693752.313,4460463.865,-426.360
693752.313,4460363.865,-432.843
693752.313,4460263.865,-439.419
693752.313,4460163.865,-445.348
693752.313,4460063.865,-451.043
693752.313,4459963.865,-459.244
693752.313,4459863.865,-464.425
693752.313,4459763.865,-471.519
693752.313,4459663.865,-480.609
693752.313,4459563.865,-490.116
693752.313,4459463.865,-499.863
693752.313,4459363.865,-506.646
693752.313,4459263.865,-513.032
693752.313,4459163.865,-519.155
693752.313,4459063.865,-523.748
693752.313,4458963.865,-529.260
693752.313,4458863.865,-534.071
693752.313,4458763.865,-541.419
693752.313,4458663.865,-547.379
693752.313,4458563.865,-554.002
693752.313,4458463.865,-560.660
693752.313,4458363.865,-566.440
693752.313,4458263.865,-571.097
693752.313,4458163.865,-575.334
693752.313,4458063.865,-580.581
693752.313,4457963.865,-585.536
693752.313,4457863.865,-592.414
693752.313,4457763.865,-598.350
693752.313,4457663.865,-604.816
693752.313,4457563.865,-609.464
693752.313,4457463.865,-614.063
693752.313,4457363.865,-618.529
693752.313,4457263.865,-621.594
693752.313,4457163.865,-626.548
693752.313,4457063.865,-630.152
693752.313,4456963.865,-634.868
693752.313,4456863.865,-643.104
693752.313,4456763.865,-648.572
693852.313,4468363.865,-141.944
693852.313,4468263.865,-150.117
693852.313,4468163.865,-153.291
693852.313,4468063.865,-154.466
693852.313,4467963.865,-157.631
693852.313,4467863.865,-164.068
693852.313,4467763.865,-171.263
693852.313,4467663.865,-175.607
693852.313,4467563.865,-179.966
693852.313,4467463.865,-185.090
693852.313,4467363.865,-192.545
693852.313,4467263.865,-200.208
693852.313,4467163.865,-205.554
693852.313,4467063.865,-206.115
693852.313,4466963.865,-208.169
693852.313,4466863.865,-210.233
693852.313,4466763.865,-212.752
693852.313,4466663.865,-214.358
693852.313,4466563.865,-213.316
693852.313,4466463.865,-215.332
693852.313,4466363.865,-223.184
693852.313,4466263.865,-230.348
693852.313,4466163.865,-233.282
693852.313,4466063.865,-235.602
693852.313,4465963.865,-238.444
693852.313,4465863.865,-241.658
693852.313,4465763.865,-245.321
693852.313,4465663.865,-248.418
693852.313,4465563.865,-252.572
693852.313,4465463.865,-256.039
693852.313,4465363.865,-261.243
693852.313,4465263.865,-266.084
693852.313,4465163.865,-273.315
693852.313,4465063.865,-280.346
693852.313,4464963.865,-282.739
693852.313,4464863.865,-286.306
693852.313,4464763.865,-288.881
693852.313,4464663.865,-291.860
693852.313,4464563.865,-294.985
693852.313,4464463.865,-297.767
693852.313,4464363.865,-298.892
693852.313,4464263.865,-300.406
693852.313,4464163.865,-300.793
693852.313,4464063.865,-300.082
693852.313,4463963.865,-300.091
693852.313,4463863.865,-299.822
693852.313,4463763.865,-301.008
693852.313,4463663.865,-302.991
693852.313,4463563.865,-304.784
693852.313,4463463.865,-307.830
693852.313,4463363.865,-311.058
693852.313,4463263.865,-315.013
693852.313,4463163.865,-319.419
693852.313,4463063.865,-320.701
693852.313,4462963.865,-323.351
693852.313,4462863.865,-327.710
693852.313,4462763.865,-332.572
693852.313,4462663.865,-338.034
693852.313,4462563.865,-343.555
693852.313,4462463.865,-347.165
693852.313,4462363.865,-351.719
693852.313,4462263.865,-355.709
693852.313,4462163.865,-359.327
693852.313,4462063.865,-363.895
693852.313,4461963.865,-366.807
693852.313,4461863.865,-369.084
693852.313,4461763.865,-372.046
693852.313,4461663.865,-374.829
693852.313,4461563.865,-377.358
693852.313,4461463.865,-380.470
693852.313,4461363.865,-384.224
693852.313,4461263.865,-386.562
693852.313,4461163.865,-389.335
693852.313,4461063.865,-390.820
693852.313,4460963.865,-394.476
693852.313,4460863.865,-400.199
693852.313,4460763.865,-404.247
693852.313,4460663.865,-410.722
693852.313,4460563.865,-416.951
693852.313,4460463.865,-424.773
693852.313,4460363.865,-431.775
693852.313,4460263.865,-437.675
693852.313,4460163.865,-444.127
693852.313,4460063.865,-451.027
693852.313,4459963.865,-458.033
693852.313,4459863.865,-466.634
693852.313,4459763.865,-472.471
693852.313,4459663.865,-481.125
693852.313,4459563.865,-491.542
693852.313,4459463.865,-502.043
693852.313,4459363.865,-509.998
693852.313,4459263.865,-516.584
693852.313,4459163.865,-522.468
693852.313,4459063.865,-527.458
693852.313,4458963.865,-533.516
693852.313,4458863.865,-537.506
693852.313,4458763.865,-543.973
693852.313,4458663.865,-549.321
693852.313,4458563.865,-556.456
693852.313,4458463.865,-562.150
693852.313,4458363.865,-568.261
693852.313,4458263.865,-572.265
693852.313,4458163.865,-577.070
693852.313,4458063.865,-580.528
693852.313,4457963.865,-586.003
693852.313,4457863.865,-589.722
693852.313,4457763.865,-599.596
693852.313,4457663.865,-601.648
693852.313,4457563.865,-605.987
693852.313,4457463.865,-610.311
693852.313,4457363.865,-612.430
693852.313,4457263.865,-617.714
693852.313,4457163.865,-621.610
693852.313,4457063.865,-626.374
693852.313,4456963.865,-629.972
693852.313,4456863.865,-634.043
693852.313,4456763.865,-644.636
693952.313,4468263.865,-143.574
693952.313,4468163.865,-147.098
693952.313,4468063.865,-147.713
693952.313,4467963.865,-150.234
693952.313,4467863.865,-157.400
693952.313,4467763.865,-166.735
693952.313,4467663.865,-173.203
693952.313,4467563.865,-177.595
693952.313,4467463.865,-183.574
693952.313,4467363.865,-190.444
693952.313,4467263.865,-198.747
693952.313,4467163.865,-204.567
693952.313,4467063.865,-206.632
693952.313,4466963.865,-207.316
693952.313,4466863.865,-210.562
693952.313,4466763.865,-211.963
693952.313,4466663.865,-213.928
693952.313,4466563.865,-213.967
693952.313,4466463.865,-215.035
693952.313,4466363.865,-217.416
693952.313,4466263.865,-225.328
693952.313,4466163.865,-229.566
693952.313,4466063.865,-231.454
693952.313,4465963.865,-236.289
693952.313,4465863.865,-239.914
693952.313,4465763.865,-243.517
693952.313,4465663.865,-247.912
693952.313,4465563.865,-251.976
693952.313,4465463.865,-254.759
693952.313,4465363.865,-260.762
693952.313,4465263.865,-266.771
693952.313,4465163.865,-272.951
693952.313,4465063.865,-280.005
693952.313,4464963.865,-285.332
693952.313,4464863.865,-287.926
693952.313,4464763.865,-290.203
693952.313,4464663.865,-291.187
693952.313,4464563.865,-294.081
693952.313,4464463.865,-295.592
693952.313,4464363.865,-295.694
693952.313,4464263.865,-296.279
693952.313,4464163.865,-297.873
693952.313,4464063.865,-296.846
693952.313,4463963.865,-297.353
693952.313,4463863.865,-297.912
693952.313,4463763.865,-299.613
693952.313,4463663.865,-301.436
693952.313,4463563.865,-303.193
693952.313,4463463.865,-306.168
693952.313,4463363.865,-309.221
693952.313,4463263.865,-312.712
693952.313,4463163.865,-317.460
693952.313,4463063.865,-319.061
693952.313,4462963.865,-320.860
693952.313,4462863.865,-324.797
693952.313,4462763.865,-329.432
693952.313,4462663.865,-334.767
693952.313,4462563.865,-339.747
693952.313,4462463.865,-344.162
693952.313,4462363.865,-348.187
693952.313,4462263.865,-352.659
693952.313,4462163.865,-355.470
693952.313,4462063.865,-361.611
693952.313,4461963.865,-365.002
693952.313,4461863.865,-367.572
693952.313,4461763.865,-370.326
693952.313,4461663.865,-374.794
693952.313,4461563.865,-377.521
693952.313,4461463.865,-380.122
693952.313,4461363.865,-384.193
693952.313,4461263.865,-386.956
693952.313,4461163.865,-388.510
693952.313,4461063.865,-391.644
693952.313,4460963.865,-395.777
693952.313,4460863.865,-399.818
693952.313,4460763.865,-403.462
693952.313,4460663.865,-408.830
693952.313,4460563.865,-416.123
693952.313,4460463.865,-423.247
693952.313,4460363.865,-431.311
693952.313,4460263.865,-436.887
693952.313,4460163.865,-442.386
693952.313,4460063.865,-450.108
693952.313,4459963.865,-458.222
693952.313,4459863.865,-467.325
693952.313,4459763.865,-475.410
693952.313,4459663.865,-478.836
693952.313,4459563.865,-491.999
693952.313,4459463.865,-503.016
693952.313,4459363.865,-512.984
693952.313,4459263.865,-520.252
693952.313,4459163.865,-526.658
693952.313,4459063.865,-532.694
693952.313,4458963.865,-537.409
693952.313,4458863.865,-542.146
693952.313,4458763.865,-546.418
693952.313,4458663.865,-552.765
693952.313,4458563.865,-558.953
693952.313,4458463.865,-563.784
693952.313,4458363.865,-569.852
693952.313,4458263.865,-573.298
693952.313,4458163.865,-577.147
693952.313,4458063.865,-579.641
693952.313,4457963.865,-583.223
693952.313,4457863.865,-587.259
693952.313,4457763.865,-591.976
693952.313,4457663.865,-595.652
693952.313,4457563.865,-600.628
693952.313,4457463.865,-604.333
693952.313,4457363.865,-607.370
693952.313,4457263.865,-611.722
693952.313,4457163.865,-616.283
693952.313,4457063.865,-620.916
693952.313,4456963.865,-627.691
693952.313,4456863.865,-636.630
693952.313,4456763.865,-638.037
693952.313,4456663.865,-647.588
694052.313,4468163.865,-141.523
694052.313,4468063.865,-143.679
694052.313,4467963.865,-145.967
694052.313,4467863.865,-151.550
694052.313,4467763.865,-160.835
694052.313,4467663.865,-170.537
694052.313,4467563.865,-175.499
694052.313,4467463.865,-181.181
694052.313,4467363.865,-187.603
694052.313,4467263.865,-196.156
694052.313,4467163.865,-203.918
694052.313,4467063.865,-206.632
694052.313,4466963.865,-207.599
694052.313,4466863.865,-209.211
694052.313,4466763.865,-211.227
694052.313,4466663.865,-213.311
694052.313,4466563.865,-215.117
694052.313,4466463.865,-215.711
694052.313,4466363.865,-216.024
694052.313,4466263.865,-220.066
694052.313,4466163.865,-225.003
694052.313,4466063.865,-229.351
694052.313,4465963.865,-232.075
694052.313,4465863.865,-236.817
694052.313,4465763.865,-241.591
694052.313,4465663.865,-246.180
694052.313,4465563.865,-250.438
694052.313,4465463.865,-255.176
694052.313,4465363.865,-260.769
694052.313,4465263.865,-267.729
694052.313,4465163.865,-273.520
694052.313,4465063.865,-279.407
694052.313,4464963.865,-284.392
694052.313,4464863.865,-287.622
694052.313,4464763.865,-290.440
694052.313,4464663.865,-290.959
694052.313,4464563.865,-292.500
694052.313,4464463.865,-292.111
694052.313,4464363.865,-291.985
694052.313,4464263.865,-292.597
694052.313,4464163.865,-293.625
694052.313,4464063.865,-294.066
694052.313,4463963.865,-294.183
694052.313,4463863.865,-296.216
694052.313,4463763.865,-298.009
694052.313,4463663.865,-300.142
694052.313,4463563.865,-302.690
694052.313,4463463.865,-305.173
694052.313,4463363.865,-308.152
694052.313,4463263.865,-311.309
694052.313,4463163.865,-315.677
694052.313,4463063.865,-317.794
694052.313,4462963.865,-319.888
694052.313,4462863.865,-321.471
694052.313,4462763.865,-327.055
694052.313,4462663.865,-331.179
694052.313,4462563.865,-336.301
694052.313,4462463.865,-340.901
694052.313,4462363.865,-345.364
694052.313,4462263.865,-348.615
694052.313,4462163.865,-355.794
694052.313,4462063.865,-359.596
694052.313,4461963.865,-363.542
694052.313,4461863.865,-366.679
694052.313,4461763.865,-369.488
694052.313,4461663.865,-373.115
694052.313,4461563.865,-376.937
694052.313,4461463.865,-379.617
694052.313,4461363.865,-383.956
694052.313,4461263.865,-388.087
694052.313,4461163.865,-390.387
694052.313,4461063.865,-393.758
694052.313,4460963.865,-396.805
694052.313,4460863.865,-398.864
694052.313,4460763.865,-403.690
694052.313,4460663.865,-409.231
694052.313,4460563.865,-415.203
694052.313,4460463.865,-422.861
694052.313,4460363.865,-429.764
694052.313,4460263.865,-437.341
694052.313,4460163.865,-442.684
694052.313,4460063.865,-449.761
694052.313,4459963.865,-458.044
694052.313,4459863.865,-466.941
694052.313,4459763.865,-475.297
694052.313,4459663.865,-480.101
694052.313,4459563.865,-492.934
694052.313,4459463.865,-504.238
694052.313,4459363.865,-514.838
694052.313,4459263.865,-523.559
694052.313,4459163.865,-531.332
694052.313,4459063.865,-536.321
694052.313,4458963.865,-540.828
694052.313,4458863.865,-545.974
694052.313,4458763.865,-549.040
