694252.313,4435253.811,-1488.734
694252.313,4435053.811,-1489.021
694252.313,4434853.811,-1489.192
694452.313,4457053.811,-608.396
694452.313,4456853.811,-618.989
694452.313,4456653.811,-625.674
694452.313,4456453.811,-639.985
694452.313,4456253.811,-659.875
694452.313,4456053.811,-675.740
694452.313,4455853.811,-687.335
694452.313,4455653.811,-694.754
694452.313,4455453.811,-706.911
694452.313,4455253.811,-718.448
694452.313,4455053.811,-741.181
694452.313,4454853.811,-750.153
694452.313,4454653.811,-759.558
694452.313,4454453.811,-771.410
694452.313,4454253.811,-785.653
694452.313,4454053.811,-794.392
694452.313,4453853.811,-793.789
694452.313,4453653.811,-795.298
694452.313,4453453.811,-797.693
694452.313,4453253.811,-798.539
694452.313,4453053.811,-799.168
694452.313,4452853.811,-801.773
694452.313,4452653.811,-806.014
694452.313,4452453.811,-807.761
694452.313,4452253.811,-808.943
694452.313,4452053.811,-811.329
694452.313,4451853.811,-813.623
694452.313,4451653.811,-818.378
694452.313,4451453.811,-823.710
694452.313,4451253.811,-827.151
694452.313,4451053.811,-832.829
694452.313,4450853.811,-837.347
694452.313,4450653.811,-842.476
694452.313,4450453.811,-847.932
694452.313,4450253.811,-853.342
694452.313,4450053.811,-854.369
694452.313,4449853.811,-855.699
694452.313,4449653.811,-857.765
694452.313,4449453.811,-858.993
694452.313,4449253.811,-861.993
694452.313,4449053.811,-863.456
694452.313,4448853.811,-863.245
694452.313,4448653.811,-866.156
694452.313,4448453.811,-871.219
694452.313,4448253.811,-874.946
694452.313,4448053.811,-885.223
694452.313,4447853.811,-899.906
694452.313,4447653.811,-911.658
694452.313,4447453.811,-935.081
694452.313,4447253.811,-910.929
694452.313,4447053.811,-885.992
694452.313,4446853.811,-886.317
694452.313,4446653.811,-889.334
694452.313,4446453.811,-893.635
694452.313,4446253.811,-901.248
694452.313,4446053.811,-903.320
694452.313,4445853.811,-905.991
694452.313,4445653.811,-924.387
694452.313,4445453.811,-918.262
694452.313,4445253.811,-919.826
694452.313,4445053.811,-921.122
694452.313,4444853.811,-923.234
694452.313,4444653.811,-928.549
694452.313,4444453.811,-938.755
694452.313,4444253.811,-942.961
694452.313,4444053.811,-948.402
694452.313,4443853.811,-954.692
694452.313,4443653.811,-962.233
694452.313,4443453.811,-967.829
694452.313,4443253.811,-974.379
694452.313,4443053.811,-974.704
694452.313,4442853.811,-976.194
694452.313,4442653.811,-984.274
694452.313,4442453.811,-985.839
694452.313,4442253.811,-991.429
694452.313,4442053.811,-998.715
694452.313,4441853.811,-1007.610
694452.313,4441653.811,-1013.612
694452.313,4441453.811,-1022.138
694452.313,4441253.811,-1023.985
694452.313,4441053.811,-1029.565
694452.313,4440853.811,-1038.999
694452.313,4440653.811,-1045.712
694452.313,4440453.811,-1057.997
694452.313,4440253.811,-1069.674
694452.313,4440053.811,-1082.498
694452.313,4439853.811,-1097.576
694452.313,4439653.811,-1113.891
694452.313,4439453.811,-1131.628
694452.313,4439253.811,-1146.284
694452.313,4439053.811,-1168.602
694452.313,4438853.811,-1185.578
694452.313,4438653.811,-1199.775
694452.313,4438453.811,-1217.166
694452.313,4438253.811,-1234.167
694452.313,4438053.811,-1254.854
694452.313,4437853.811,-1272.357
694452.313,4437653.811,-1283.020
694452.313,4437453.811,-1301.513
694452.313,4437253.811,-1314.676
694452.313,4437053.811,-1344.911
694452.313,4436853.811,-1379.792
694452.313,4436653.811,-1397.446
694452.313,4436453.811,-1419.348
694452.313,4436253.811,-1427.524
694452.313,4436053.811,-1445.827
694452.313,4435853.811,-1450.010
694452.313,4435653.811,-1459.750
694452.313,4435453.811,-1469.380
694452.313,4435253.811,-1484.068
694452.313,4435053.811,-1483.331
694452.313,4434853.811,-1494.244
694652.313,4457053.811,-601.640
694652.313,4456853.811,-615.432
694652.313,4456653.811,-625.463
694652.313,4456453.811,-631.812
694652.313,4456253.811,-649.909
694652.313,4456053.811,-672.287
694652.313,4455853.811,-686.549
694652.313,4455653.811,-695.256
694652.313,4455453.811,-702.532
694652.313,4455253.811,-713.887
694652.313,4455053.811,-727.714
694652.313,4454853.811,-744.963
694652.313,4454653.811,-756.228
694652.313,4454453.811,-766.741
694652.313,4454253.811,-783.234
694652.313,4454053.811,-787.135
694652.313,4453853.811,-793.298
694652.313,4453653.811,-792.634
694652.313,4453453.811,-792.296
694652.313,4453253.811,-794.233
694652.313,4453053.811,-797.365
694652.313,4452853.811,-799.391
694652.313,4452653.811,-798.770
694652.313,4452453.811,-806.789
694652.313,4452253.811,-807.691
694652.313,4452053.811,-810.113
694652.313,4451853.811,-813.424
694652.313,4451653.811,-816.634
694652.313,4451453.811,-822.483
694652.313,4451253.811,-828.297
694652.313,4451053.811,-830.641
694652.313,4450853.811,-835.405
694652.313,4450653.811,-841.703
694652.313,4450453.811,-847.384
694652.313,4450253.811,-853.878
694652.313,4450053.811,-856.708
694652.313,4449853.811,-857.830
694652.313,4449653.811,-859.622
694652.313,4449453.811,-860.314
694652.313,4449253.811,-861.740
694652.313,4449053.811,-864.792
694652.313,4448853.811,-864.681
694652.313,4448653.811,-863.598
694652.313,4448453.811,-865.625
694652.313,4448253.811,-883.921
694652.313,4448053.811,-921.341
694652.313,4447853.811,-949.347
694652.313,4447653.811,-969.238
694652.313,4447453.811,-969.576
694652.313,4447253.811,-971.665
694652.313,4447053.811,-962.340
694652.313,4446853.811,-954.990
694652.313,4446653.811,-950.970
694652.313,4446453.811,-917.218
694652.313,4446253.811,-892.442
694652.313,4446053.811,-900.319
694652.313,4445853.811,-903.003
694652.313,4445653.811,-938.175
694652.313,4445453.811,-921.425
694652.313,4445253.811,-923.421
694652.313,4445053.811,-923.148
694652.313,4444853.811,-921.185
694652.313,4444653.811,-921.846
694652.313,4444453.811,-924.598
694652.313,4444253.811,-927.477
694652.313,4444053.811,-936.386
694652.313,4443853.811,-943.166
694652.313,4443653.811,-953.390
694652.313,4443453.811,-961.672
694652.313,4443253.811,-969.715
694652.313,4443053.811,-974.896
694652.313,4442853.811,-977.903
694652.313,4442653.811,-981.805
694652.313,4442453.811,-985.727
694652.313,4442253.811,-987.220
694652.313,4442053.811,-992.306
694652.313,4441853.811,-1001.089
694652.313,4441653.811,-1014.244
694652.313,4441453.811,-1020.132
694652.313,4441253.811,-1021.630
694652.313,4441053.811,-1027.624
694652.313,4440853.811,-1034.028
694652.313,4440653.811,-1047.738
694652.313,4440453.811,-1054.313
694652.313,4440253.811,-1062.787
694652.313,4440053.811,-1074.331
694652.313,4439853.811,-1092.256
694652.313,4439653.811,-1109.595
694652.313,4439453.811,-1124.313
694652.313,4439253.811,-1136.646
694652.313,4439053.811,-1156.117
694652.313,4438853.811,-1176.519
694652.313,4438653.811,-1194.764
694652.313,4438453.811,-1207.187
694652.313,4438253.811,-1224.637
694652.313,4438053.811,-1246.988
694652.313,4437853.811,-1265.923
694652.313,4437653.811,-1286.629
694652.313,4437453.811,-1315.526
694652.313,4437253.811,-1331.283
694652.313,4437053.811,-1353.960
694652.313,4436853.811,-1369.323
694652.313,4436653.811,-1385.635
694652.313,4436453.811,-1400.458
694652.313,4436253.811,-1416.383
694652.313,4436053.811,-1426.731
694652.313,4435853.811,-1442.058
694652.313,4435653.811,-1444.604
694652.313,4435453.811,-1454.872
694652.313,4435253.811,-1476.319
694652.313,4435053.811,-1483.769
694652.313,4434853.811,-1486.019
694852.313,4456853.811,-608.841
694852.313,4456653.811,-617.295
694852.313,4456453.811,-631.305
694852.313,4456253.811,-643.594
694852.313,4456053.811,-668.949
694852.313,4455853.811,-684.112
694852.313,4455653.811,-693.877
694852.313,4455453.811,-701.023
694852.313,4455253.811,-710.240
694852.313,4455053.811,-719.457
694852.313,4454853.811,-738.575
694852.313,4454653.811,-753.218
694852.313,4454453.811,-759.367
694852.313,4454253.811,-775.615
694852.313,4454053.811,-780.536
694852.313,4453853.811,-788.580
694852.313,4453653.811,-790.536
694852.313,4453453.811,-790.398
694852.313,4453253.811,-790.249
694852.313,4453053.811,-791.724
694852.313,4452853.811,-796.752
694852.313,4452653.811,-797.580
694852.313,4452453.811,-803.614
694852.313,4452253.811,-807.945
694852.313,4452053.811,-810.278
694852.313,4451853.811,-812.440
694852.313,4451653.811,-816.024
694852.313,4451453.811,-819.869
694852.313,4451253.811,-825.127
694852.313,4451053.811,-829.921
694852.313,4450853.811,-834.518
694852.313,4450653.811,-840.279
694852.313,4450453.811,-846.370
694852.313,4450253.811,-854.645
694852.313,4450053.811,-859.047
694852.313,4449853.811,-860.046
694852.313,4449653.811,-862.348
694852.313,4449453.811,-863.378
694852.313,4449253.811,-863.793
694852.313,4449053.811,-863.096
694852.313,4448853.811,-861.683
694852.313,4448653.811,-859.260
694852.313,4448453.811,-890.769
694852.313,4448253.811,-930.924
694852.313,4448053.811,-975.183
694852.313,4447853.811,-978.701
694852.313,4447653.811,-985.283
694852.313,4447453.811,-973.415
694852.313,4447253.811,-977.245
694852.313,4447053.811,-983.021
694852.313,4446853.811,-979.623
694852.313,4446653.811,-984.571
694852.313,4446453.811,-980.389
694852.313,4446253.811,-941.953
694852.313,4446053.811,-913.670
694852.313,4445853.811,-917.317
694852.313,4445653.811,-951.964
694852.313,4445453.811,-939.975
694852.313,4445253.811,-930.617
694852.313,4445053.811,-929.227
694852.313,4444853.811,-930.820
694852.313,4444653.811,-930.478
694852.313,4444453.811,-932.550
694852.313,4444253.811,-934.783
694852.313,4444053.811,-937.347
694852.313,4443853.811,-941.077
694852.313,4443653.811,-946.961
694852.313,4443453.811,-955.572
694852.313,4443253.811,-966.330
694852.313,4443053.811,-972.659
694852.313,4442853.811,-979.612
694852.313,4442653.811,-977.630
694852.313,4442453.811,-987.362
694852.313,4442253.811,-988.252
694852.313,4442053.811,-993.880
694852.313,4441853.811,-993.453
694852.313,4441653.811,-1004.461
694852.313,4441453.811,-1010.581
694852.313,4441253.811,-1019.856
694852.313,4441053.811,-1024.894
694852.313,4440853.811,-1031.626
694852.313,4440653.811,-1041.494
694852.313,4440453.811,-1049.998
694852.313,4440253.811,-1057.194
694852.313,4440053.811,-1066.854
694852.313,4439853.811,-1081.601
694852.313,4439653.811,-1099.636
694852.313,4439453.811,-1113.803
694852.313,4439253.811,-1128.207
694852.313,4439053.811,-1144.357
694852.313,4438853.811,-1165.346
694852.313,4438653.811,-1180.207
694852.313,4438453.811,-1199.619
694852.313,4438253.811,-1213.239
694852.313,4438053.811,-1236.032
694852.313,4437853.811,-1271.435
694852.313,4437653.811,-1300.224
694852.313,4437453.811,-1311.779
694852.313,4437253.811,-1328.297
694852.313,4437053.811,-1339.994
694852.313,4436853.811,-1360.714
694852.313,4436653.811,-1373.064
694852.313,4436453.811,-1387.998
694852.313,4436253.811,-1402.829
694852.313,4436053.811,-1416.404
694852.313,4435853.811,-1424.385
694852.313,4435653.811,-1439.797
694852.313,4435453.811,-1454.119
694852.313,4435253.811,-1462.354
694852.313,4435053.811,-1475.842
694852.313,4434853.811,-1481.070
695052.313,4456853.811,-602.272
695052.313,4456653.811,-613.098
695052.313,4456453.811,-624.282
695052.313,4456253.811,-634.711
695052.313,4456053.811,-657.569
695052.313,4455853.811,-676.603
695052.313,4455653.811,-692.469
695052.313,4455453.811,-701.186
695052.313,4455253.811,-707.924
695052.313,4455053.811,-717.215
695052.313,4454853.811,-730.704
695052.313,4454653.811,-740.698
695052.313,4454453.811,-753.097
695052.313,4454253.811,-770.880
695052.313,4454053.811,-778.824
695052.313,4453853.811,-785.497
695052.313,4453653.811,-791.257
695052.313,4453453.811,-786.750
695052.313,4453253.811,-786.913
695052.313,4453053.811,-789.629
695052.313,4452853.811,-794.998
695052.313,4452653.811,-798.582
695052.313,4452453.811,-800.217
695052.313,4452253.811,-807.283
695052.313,4452053.811,-810.606
695052.313,4451853.811,-812.552
695052.313,4451653.811,-815.536
695052.313,4451453.811,-820.122
695052.313,4451253.811,-824.160
695052.313,4451053.811,-830.097
695052.313,4450853.811,-834.123
695052.313,4450653.811,-839.164
695052.313,4450453.811,-846.390
695052.313,4450253.811,-853.138
695052.313,4450053.811,-861.386
695052.313,4449853.811,-864.035
695052.313,4449653.811,-864.555
695052.313,4449453.811,-864.967
695052.313,4449253.811,-864.181
695052.313,4449053.811,-864.259
695052.313,4448853.811,-867.097
695052.313,4448653.811,-888.610
695052.313,4448453.811,-927.164
695052.313,4448253.811,-953.178
695052.313,4448053.811,-963.771
695052.313,4447853.811,-964.724
695052.313,4447653.811,-986.963
695052.313,4447453.811,-992.809
695052.313,4447253.811,-995.407
695052.313,4447053.811,-991.070
695052.313,4446853.811,-988.453
695052.313,4446653.811,-990.793
695052.313,4446453.811,-998.041
695052.313,4446253.811,-999.431
695052.313,4446053.811,-960.673
695052.313,4445853.811,-980.537
695052.313,4445653.811,-965.753
695052.313,4445453.811,-958.525
695052.313,4445253.811,-936.663
695052.313,4445053.811,-938.507
695052.313,4444853.811,-941.100
695052.313,4444653.811,-941.676
695052.313,4444453.811,-941.397
695052.313,4444253.811,-944.867
695052.313,4444053.811,-946.466
695052.313,4443853.811,-951.081
695052.313,4443653.811,-950.856
695052.313,4443453.811,-961.858
695052.313,4443253.811,-978.396
695052.313,4443053.811,-985.796
695052.313,4442853.811,-990.831
695052.313,4442653.811,-993.377
695052.313,4442453.811,-988.751
695052.313,4442253.811,-994.112
695052.313,4442053.811,-995.311
695052.313,4441853.811,-997.184
695052.313,4441653.811,-1001.589
695052.313,4441453.811,-1008.824
695052.313,4441253.811,-1016.043
695052.313,4441053.811,-1019.645
695052.313,4440853.811,-1026.310
695052.313,4440653.811,-1035.940
695052.313,4440453.811,-1047.301
695052.313,4440253.811,-1054.274
695052.313,4440053.811,-1059.651
695052.313,4439853.811,-1072.949
695052.313,4439653.811,-1088.430
695052.313,4439453.811,-1108.108
695052.313,4439253.811,-1121.014
695052.313,4439053.811,-1136.713
695052.313,4438853.811,-1156.937
695052.313,4438653.811,-1177.143
695052.313,4438453.811,-1188.420
695052.313,4438253.811,-1206.121
695052.313,4438053.811,-1224.039
695052.313,4437853.811,-1269.839
695052.313,4437653.811,-1291.475
695052.313,4437453.811,-1304.553
695052.313,4437253.811,-1318.797
695052.313,4437053.811,-1332.759
695052.313,4436853.811,-1352.560
695052.313,4436653.811,-1362.765
695052.313,4436453.811,-1377.166
695052.313,4436253.811,-1388.243
695052.313,4436053.811,-1406.371
695052.313,4435853.811,-1415.270
695052.313,4435653.811,-1430.563
695052.313,4435453.811,-1444.552
695052.313,4435253.811,-1449.843
695052.313,4435053.811,-1462.550
695052.313,4434853.811,-1480.357
695252.313,4456653.811,-607.282
695252.313,4456453.811,-616.841
695252.313,4456253.811,-628.068
695252.313,4456053.811,-645.580
695252.313,4455853.811,-667.504
695252.313,4455653.811,-683.335
695252.313,4455453.811,-699.189
695252.313,4455253.811,-709.070
695252.313,4455053.811,-718.595
695252.313,4454853.811,-725.753
695252.313,4454653.811,-738.744
695252.313,4454453.811,-750.626
695252.313,4454253.811,-767.097
695252.313,4454053.811,-776.365
695252.313,4453853.811,-780.189
695252.313,4453653.811,-784.573
695252.313,4453453.811,-786.741
695252.313,4453253.811,-787.193
695252.313,4453053.811,-789.803
695252.313,4452853.811,-793.516
695252.313,4452653.811,-798.893
695252.313,4452453.811,-799.610
695252.313,4452253.811,-806.755
695252.313,4452053.811,-812.071
695252.313,4451853.811,-813.547
695252.313,4451653.811,-815.854
695252.313,4451453.811,-818.483
695252.313,4451253.811,-824.491
695252.313,4451053.811,-827.968
695252.313,4450853.811,-834.802
695252.313,4450653.811,-838.895
695252.313,4450453.811,-845.166
695252.313,4450253.811,-853.083
695252.313,4450053.811,-860.270
695252.313,4449853.811,-864.736
695252.313,4449653.811,-863.894
695252.313,4449453.811,-862.979
695252.313,4449253.811,-866.289
695252.313,4449053.811,-871.354
695252.313,4448853.811,-895.254
695252.313,4448653.811,-908.938
695252.313,4448453.811,-947.358
695252.313,4448253.811,-956.833
695252.313,4448053.811,-972.689
695252.313,4447853.811,-986.516
695252.313,4447653.811,-989.608
695252.313,4447453.811,-995.660
695252.313,4447253.811,-1005.322
695252.313,4447053.811,-1009.948
695252.313,4446853.811,-1009.481
695252.313,4446653.811,-1003.345
695252.313,4446453.811,-1007.951
695252.313,4446253.811,-1005.364
695252.313,4446053.811,-1010.460
695252.313,4445853.811,-999.848
695252.313,4445653.811,-983.712
695252.313,4445453.811,-977.075
695252.313,4445253.811,-943.300
695252.313,4445053.811,-947.405
695252.313,4444853.811,-951.605
695252.313,4444653.811,-953.487
695252.313,4444453.811,-953.203
695252.313,4444253.811,-957.661
695252.313,4444053.811,-957.884
695252.313,4443853.811,-958.588
695252.313,4443653.811,-963.108
695252.313,4443453.811,-970.765
695252.313,4443253.811,-986.979
695252.313,4443053.811,-999.274
695252.313,4442853.811,-1006.553
695252.313,4442653.811,-1009.124
695252.313,4442453.811,-1001.838
695252.313,4442253.811,-1006.636
695252.313,4442053.811,-1007.825
695252.313,4441853.811,-1002.755
695252.313,4441653.811,-1002.862
695252.313,4441453.811,-1009.506
695252.313,4441253.811,-1014.275
695252.313,4441053.811,-1018.936
695252.313,4440853.811,-1020.290
695252.313,4440653.811,-1028.537
695252.313,4440453.811,-1038.727
695252.313,4440253.811,-1047.305
695252.313,4440053.811,-1055.030
695252.313,4439853.811,-1065.307
695252.313,4439653.811,-1080.821
695252.313,4439453.811,-1098.847
695252.313,4439253.811,-1115.680
695252.313,4439053.811,-1130.915
695252.313,4438853.811,-1149.858
695252.313,4438653.811,-1164.394
695252.313,4438453.811,-1178.871
695252.313,4438253.811,-1198.274
695252.313,4438053.811,-1214.473
695252.313,4437853.811,-1264.181
695252.313,4437653.811,-1281.965
695252.313,4437453.811,-1290.361
695252.313,4437253.811,-1306.933
695252.313,4437053.811,-1319.464
695252.313,4436853.811,-1335.821
695252.313,4436653.811,-1349.107
695252.313,4436453.811,-1365.595
695252.313,4436253.811,-1377.462
695252.313,4436053.811,-1395.445
695252.313,4435853.811,-1407.931
695252.313,4435653.811,-1416.348
695252.313,4435453.811,-1426.772
695252.313,4435253.811,-1445.680
695252.313,4435053.811,-1457.664
695252.313,4434853.811,-1467.084
695452.313,4456653.811,-600.659
695452.313,4456453.811,-611.146
695452.313,4456253.811,-623.860
695452.313,4456053.811,-636.067
695452.313,4455853.811,-658.235
695452.313,4455653.811,-674.923
695452.313,4455453.811,-689.581
695452.313,4455253.811,-705.001
695452.313,4455053.811,-718.073
695452.313,4454853.811,-729.161
695452.313,4454653.811,-733.127
695452.313,4454453.811,-755.926
695452.313,4454253.811,-770.424
695452.313,4454053.811,-777.712
695452.313,4453853.811,-780.311
695452.313,4453653.811,-785.999
695452.313,4453453.811,-787.937
695452.313,4453253.811,-788.459
695452.313,4453053.811,-790.582
695452.313,4452853.811,-794.283
695452.313,4452653.811,-797.966
695452.313,4452453.811,-801.465
695452.313,4452253.811,-805.863
695452.313,4452053.811,-811.764
695452.313,4451853.811,-812.604
695452.313,4451653.811,-816.166
695452.313,4451453.811,-818.996
695452.313,4451253.811,-823.184
695452.313,4451053.811,-828.510
695452.313,4450853.811,-833.373
695452.313,4450653.811,-839.332
695452.313,4450453.811,-844.439
695452.313,4450253.811,-852.123
695452.313,4450053.811,-858.720
695452.313,4449853.811,-865.437
695452.313,4449653.811,-869.468
695452.313,4449453.811,-867.552
695452.313,4449253.811,-873.326
695452.313,4449053.811,-912.703
695452.313,4448853.811,-951.103
695452.313,4448653.811,-976.113
695452.313,4448453.811,-976.509
695452.313,4448253.811,-983.721
695452.313,4448053.811,-994.448
695452.313,4447853.811,-994.894
695452.313,4447653.811,-991.174
695452.313,4447453.811,-992.417
695452.313,4447253.811,-1006.642
695452.313,4447053.811,-1013.638
695452.313,4446853.811,-1018.030
695452.313,4446653.811,-1022.204
695452.313,4446453.811,-1014.760
695452.313,4446253.811,-1018.741
695452.313,4446053.811,-1021.947
695452.313,4445853.811,-1022.075
695452.313,4445653.811,-1017.280
695452.313,4445453.811,-992.073
695452.313,4445253.811,-972.556
695452.313,4445053.811,-953.940
695452.313,4444853.811,-959.231
695452.313,4444653.811,-962.586
695452.313,4444453.811,-963.370
695452.313,4444253.811,-964.560
695452.313,4444053.811,-966.523
695452.313,4443853.811,-969.009
695452.313,4443653.811,-972.987
695452.313,4443453.811,-983.904
695452.313,4443253.811,-997.661
695452.313,4443053.811,-1006.658
695452.313,4442853.811,-1017.589
695452.313,4442653.811,-1023.217
695452.313,4442453.811,-1016.070
695452.313,4442253.811,-1024.270
695452.313,4442053.811,-1025.273
695452.313,4441853.811,-1028.868
695452.313,4441653.811,-1024.746
695452.313,4441453.811,-1023.030
695452.313,4441253.811,-1023.041
695452.313,4441053.811,-1024.460
695452.313,4440853.811,-1032.747
695452.313,4440653.811,-1028.610
695452.313,4440453.811,-1030.811
695452.313,4440253.811,-1037.961
695452.313,4440053.811,-1046.770
695452.313,4439853.811,-1057.431
695452.313,4439653.811,-1073.681
695452.313,4439453.811,-1091.357
695452.313,4439253.811,-1108.108
695452.313,4439053.811,-1124.568
695452.313,4438853.811,-1139.405
695452.313,4438653.811,-1150.631
695452.313,4438453.811,-1168.478
695452.313,4438253.811,-1187.066
695452.313,4438053.811,-1208.442
695452.313,4437853.811,-1260.032
695452.313,4437653.811,-1274.873
695452.313,4437453.811,-1283.509
695452.313,4437253.811,-1294.970
695452.313,4437053.811,-1307.052
695452.313,4436853.811,-1320.458
695452.313,4436653.811,-1340.305
695452.313,4436453.811,-1355.157
695452.313,4436253.811,-1372.984
695452.313,4436053.811,-1385.416
695452.313,4435853.811,-1395.512
695452.313,4435653.811,-1407.442
695452.313,4435453.811,-1421.828
695452.313,4435253.811,-1436.161
695452.313,4435053.811,-1442.683
695452.313,4434853.811,-1456.372
695652.313,4456453.811,-605.647
695652.313,4456253.811,-616.731
695652.313,4456053.811,-633.438
695652.313,4455853.811,-650.225
695652.313,4455653.811,-670.182
695652.313,4455453.811,-682.472
695652.313,4455253.811,-697.444
695652.313,4455053.811,-709.245
695652.313,4454853.811,-723.305
695652.313,4454653.811,-730.350
695652.313,4454453.811,-747.683
695652.313,4454253.811,-767.527
695652.313,4454053.811,-778.652
695652.313,4453853.811,-783.005
695652.313,4453653.811,-787.454
695652.313,4453453.811,-792.674
695652.313,4453253.811,-793.175
695652.313,4453053.811,-793.098
695652.313,4452853.811,-795.651
695652.313,4452653.811,-798.625
695652.313,4452453.811,-805.732
695652.313,4452253.811,-806.457
695652.313,4452053.811,-811.769
695652.313,4451853.811,-814.375
695652.313,4451653.811,-817.461
695652.313,4451453.811,-820.374
695652.313,4451253.811,-822.583
695652.313,4451053.811,-826.651
695652.313,4450853.811,-832.048
695652.313,4450653.811,-838.303
695652.313,4450453.811,-843.619
695652.313,4450253.811,-850.901
695652.313,4450053.811,-857.982
695652.313,4449853.811,-863.974
695652.313,4449653.811,-870.558
695652.313,4449453.811,-869.568
695652.313,4449253.811,-894.817
695652.313,4449053.811,-956.910
695652.313,4448853.811,-991.160
695652.313,4448653.811,-997.953
695652.313,4448453.811,-993.223
695652.313,4448253.811,-995.669
695652.313,4448053.811,-1003.432
695652.313,4447853.811,-1000.132
695652.313,4447653.811,-1003.844
695652.313,4447453.811,-1002.193
695652.313,4447253.811,-1004.984
695652.313,4447053.811,-1019.953
695652.313,4446853.811,-1023.726
695652.313,4446653.811,-1027.725
695652.313,4446453.811,-1030.681
695652.313,4446253.811,-1033.852
695652.313,4446053.811,-1034.569
695652.313,4445853.811,-1034.323
695652.313,4445653.811,-1030.449
695652.313,4445453.811,-1001.619
695652.313,4445253.811,-1001.813
695652.313,4445053.811,-959.182
695652.313,4444853.811,-962.988
695652.313,4444653.811,-966.501
695652.313,4444453.811,-969.940
695652.313,4444253.811,-971.984
695652.313,4444053.811,-974.173
695652.313,4443853.811,-979.412
695652.313,4443653.811,-989.626
695652.313,4443453.811,-999.462
695652.313,4443253.811,-1004.956
695652.313,4443053.811,-1014.430
695652.313,4442853.811,-1026.248
695652.313,4442653.811,-1036.752
695652.313,4442453.811,-1036.519
695652.313,4442253.811,-1033.662
695652.313,4442053.811,-1043.411
695652.313,4441853.811,-1046.583
695652.313,4441653.811,-1043.768
695652.313,4441453.811,-1041.837
695652.313,4441253.811,-1038.435
695652.313,4441053.811,-1046.780
695652.313,4440853.811,-1057.402
695652.313,4440653.811,-1055.221
695652.313,4440453.811,-1052.866
695652.313,4440253.811,-1057.230
695652.313,4440053.811,-1068.245
695652.313,4439853.811,-1067.490
695652.313,4439653.811,-1068.563
695652.313,4439453.811,-1080.705
695652.313,4439253.811,-1097.084
695652.313,4439053.811,-1113.113
695652.313,4438853.811,-1126.243
695652.313,4438653.811,-1139.475
695652.313,4438453.811,-1159.354
695652.313,4438253.811,-1173.880
695652.313,4438053.811,-1204.259
695652.313,4437853.811,-1242.564
695652.313,4437653.811,-1262.705
695652.313,4437453.811,-1273.786
695652.313,4437253.811,-1284.897
695652.313,4437053.811,-1299.733
695652.313,4436853.811,-1311.845
695652.313,4436653.811,-1320.722
695652.313,4436453.811,-1343.622
695652.313,4436253.811,-1359.043
695652.313,4436053.811,-1372.453
695652.313,4435853.811,-1385.290
695652.313,4435653.811,-1401.968
695652.313,4435453.811,-1416.011
695652.313,4435253.811,-1420.086
695652.313,4435053.811,-1437.578
695652.313,4434853.811,-1451.688
695852.313,4456453.811,-605.233
695852.313,4456253.811,-613.560
695852.313,4456053.811,-628.398
695852.313,4455853.811,-644.150
695852.313,4455653.811,-665.390
695852.313,4455453.811,-674.108
695852.313,4455253.811,-684.233
695852.313,4455053.811,-696.104
695852.313,4454853.811,-710.653
695852.313,4454653.811,-722.672
695852.313,4454453.811,-738.874
695852.313,4454253.811,-760.127
695852.313,4454053.811,-777.689
695852.313,4453853.811,-784.842
695852.313,4453653.811,-790.728
695852.313,4453453.811,-793.619
695852.313,4453253.811,-795.895
695852.313,4453053.811,-795.619
695852.313,4452853.811,-797.245
695852.313,4452653.811,-799.430
695852.313,4452453.811,-805.080
695852.313,4452253.811,-807.234
695852.313,4452053.811,-810.849
695852.313,4451853.811,-814.828
695852.313,4451653.811,-816.438
695852.313,4451453.811,-819.556
695852.313,4451253.811,-821.481
695852.313,4451053.811,-828.019
695852.313,4450853.811,-833.021
695852.313,4450653.811,-839.622
695852.313,4450453.811,-843.489
695852.313,4450253.811,-849.347
695852.313,4450053.811,-855.249
695852.313,4449853.811,-863.495
695852.313,4449653.811,-871.648
695852.313,4449453.811,-877.716
695852.313,4449253.811,-916.309
695852.313,4449053.811,-984.136
695852.313,4448853.811,-1005.058
695852.313,4448653.811,-1009.292
695852.313,4448453.811,-1004.518
695852.313,4448253.811,-1003.341
695852.313,4448053.811,-1006.829
695852.313,4447853.811,-1005.931
695852.313,4447653.811,-1013.900
695852.313,4447453.811,-1020.045
695852.313,4447253.811,-1009.305
695852.313,4447053.811,-1015.796
695852.313,4446853.811,-1026.322
695852.313,4446653.811,-1030.813
695852.313,4446453.811,-1038.861
695852.313,4446253.811,-1040.410
695852.313,4446053.811,-1042.294
695852.313,4445853.811,-1043.126
695852.313,4445653.811,-1038.032
695852.313,4445453.811,-1032.805
695852.313,4445253.811,-1024.939
695852.313,4445053.811,-991.088
695852.313,4444853.811,-965.604
695852.313,4444653.811,-968.785
695852.313,4444453.811,-973.196
695852.313,4444253.811,-977.388
695852.313,4444053.811,-980.180
695852.313,4443853.811,-985.968
695852.313,4443653.811,-994.827
695852.313,4443453.811,-1009.658
695852.313,4443253.811,-1015.508
695852.313,4443053.811,-1024.159
695852.313,4442853.811,-1035.082
695852.313,4442653.811,-1041.956
695852.313,4442453.811,-1053.206
695852.313,4442253.811,-1044.111
695852.313,4442053.811,-1054.842
695852.313,4441853.811,-1057.076
695852.313,4441653.811,-1060.542
695852.313,4441453.811,-1063.441
695852.313,4441253.811,-1057.195
695852.313,4441053.811,-1057.592
695852.313,4440853.811,-1072.914
695852.313,4440653.811,-1074.486
695852.313,4440453.811,-1078.228
695852.313,4440253.811,-1087.957
695852.313,4440053.811,-1100.825
695852.313,4439853.811,-1100.219
695852.313,4439653.811,-1098.528
695852.313,4439453.811,-1098.511
695852.313,4439253.811,-1100.540
695852.313,4439053.811,-1097.060
695852.313,4438853.811,-1109.787
695852.313,4438653.811,-1132.805
695852.313,4438453.811,-1148.552
695852.313,4438253.811,-1162.725
695852.313,4438053.811,-1190.971
695852.313,4437853.811,-1229.145
695852.313,4437653.811,-1250.657
695852.313,4437453.811,-1267.463
695852.313,4437253.811,-1280.023
695852.313,4437053.811,-1283.371
695852.313,4436853.811,-1297.080
695852.313,4436653.811,-1309.167
695852.313,4436453.811,-1328.508
695852.313,4436253.811,-1335.372
695852.313,4436053.811,-1361.236
695852.313,4435853.811,-1373.799
695852.313,4435653.811,-1394.461
695852.313,4435453.811,-1402.109
695852.313,4435253.811,-1419.609
695852.313,4435053.811,-1437.563
695852.313,4434853.811,-1453.473
696052.313,4456453.811,-604.820
696052.313,4456253.811,-610.785
696052.313,4456053.811,-628.293
696052.313,4455853.811,-634.255
696052.313,4455653.811,-653.125
696052.313,4455453.811,-661.870
696052.313,4455253.811,-672.848
696052.313,4455053.811,-682.931
696052.313,4454853.811,-696.303
696052.313,4454653.811,-715.427
696052.313,4454453.811,-730.058
696052.313,4454253.811,-753.668
696052.313,4454053.811,-774.099
696052.313,4453853.811,-787.424
696052.313,4453653.811,-793.066
696052.313,4453453.811,-795.712
696052.313,4453253.811,-799.941
696052.313,4453053.811,-800.557
696052.313,4452853.811,-801.715
696052.313,4452653.811,-801.885
696052.313,4452453.811,-804.573
696052.313,4452253.811,-809.800
696052.313,4452053.811,-810.126
696052.313,4451853.811,-814.331
696052.313,4451653.811,-817.226
696052.313,4451453.811,-819.037
696052.313,4451253.811,-822.046
696052.313,4451053.811,-824.990
696052.313,4450853.811,-832.353
696052.313,4450653.811,-838.235
696052.313,4450453.811,-842.738
696052.313,4450253.811,-847.576
696052.313,4450053.811,-854.247
696052.313,4449853.811,-861.703
696052.313,4449653.811,-875.091
696052.313,4449453.811,-885.865
696052.313,4449253.811,-921.730
696052.313,4449053.811,-997.716
696052.313,4448853.811,-1010.161
696052.313,4448653.811,-1019.497
696052.313,4448453.811,-1014.975
696052.313,4448253.811,-1009.650
696052.313,4448053.811,-1011.872
696052.313,4447853.811,-1014.581
696052.313,4447653.811,-1017.948
696052.313,4447453.811,-1020.056
696052.313,4447253.811,-1022.731
696052.313,4447053.811,-1020.081
696052.313,4446853.811,-1035.585
696052.313,4446653.811,-1035.547
696052.313,4446453.811,-1040.515
696052.313,4446253.811,-1045.727
696052.313,4446053.811,-1045.795
696052.313,4445853.811,-1045.267
696052.313,4445653.811,-1044.675
696052.313,4445453.811,-1037.935
696052.313,4445253.811,-1039.567
696052.313,4445053.811,-1022.994
696052.313,4444853.811,-1008.021
696052.313,4444653.811,-970.836
696052.313,4444453.811,-975.295
696052.313,4444253.811,-978.656
696052.313,4444053.811,-982.872
696052.313,4443853.811,-987.640
696052.313,4443653.811,-994.979
696052.313,4443453.811,-1008.049
696052.313,4443253.811,-1021.491
696052.313,4443053.811,-1028.978
696052.313,4442853.811,-1042.316
696052.313,4442653.811,-1050.457
696052.313,4442453.811,-1054.772
696052.313,4442253.811,-1061.570
696052.313,4442053.811,-1063.772
696052.313,4441853.811,-1074.653
696052.313,4441653.811,-1082.416
696052.313,4441453.811,-1089.137
696052.313,4441253.811,-1087.734
696052.313,4441053.811,-1092.751
696052.313,4440853.811,-1091.431
696052.313,4440653.811,-1099.111
696052.313,4440453.811,-1101.158
696052.313,4440253.811,-1120.325
696052.313,4440053.811,-1130.623
696052.313,4439853.811,-1125.107
696052.313,4439653.811,-1139.553
696052.313,4439453.811,-1130.592
696052.313,4439253.811,-1132.899
696052.313,4439053.811,-1127.300
696052.313,4438853.811,-1111.367
696052.313,4438653.811,-1113.889
696052.313,4438453.811,-1121.301
696052.313,4438253.811,-1143.012
696052.313,4438053.811,-1181.610
696052.313,4437853.811,-1211.137
696052.313,4437653.811,-1231.176
696052.313,4437453.811,-1255.155
696052.313,4437253.811,-1267.382
696052.313,4437053.811,-1274.521
696052.313,4436853.811,-1288.525
696052.313,4436653.811,-1299.887
696052.313,4436453.811,-1312.462
696052.313,4436253.811,-1328.871
696052.313,4436053.811,-1347.280
696052.313,4435853.811,-1366.995
696052.313,4435653.811,-1375.990
696052.313,4435453.811,-1392.516
696052.313,4435253.811,-1411.523
696052.313,4435053.811,-1424.315
696052.313,4434853.811,-1440.708
696252.313,4456453.811,-604.406
696252.313,4456253.811,-605.382
696252.313,4456053.811,-620.198
696252.313,4455853.811,-631.380
696252.313,4455653.811,-643.725
696252.313,4455453.811,-653.124
696252.313,4455253.811,-662.631
696252.313,4455053.811,-678.904
696252.313,4454853.811,-697.114
696252.313,4454653.811,-712.993
696252.313,4454453.811,-732.392
696252.313,4454253.811,-751.830
696252.313,4454053.811,-773.209
696252.313,4453853.811,-789.053
696252.313,4453653.811,-795.614
696252.313,4453453.811,-799.714
696252.313,4453253.811,-804.018
696252.313,4453053.811,-807.978
696252.313,4452853.811,-807.148
696252.313,4452653.811,-809.108
696252.313,4452453.811,-808.340
696252.313,4452253.811,-810.370
696252.313,4452053.811,-809.379
696252.313,4451853.811,-813.686
696252.313,4451653.811,-819.576
696252.313,4451453.811,-821.173
696252.313,4451253.811,-822.876
696252.313,4451053.811,-825.466
696252.313,4450853.811,-830.432
696252.313,4450653.811,-835.451
696252.313,4450453.811,-840.978
696252.313,4450253.811,-846.155
696252.313,4450053.811,-853.314
696252.313,4449853.811,-861.563
696252.313,4449653.811,-878.688
696252.313,4449453.811,-894.014
696252.313,4449253.811,-923.573
696252.313,4449053.811,-992.521
696252.313,4448853.811,-1017.081
696252.313,4448653.811,-1027.358
696252.313,4448453.811,-1022.596
696252.313,4448253.811,-1025.507
696252.313,4448053.811,-1023.831
696252.313,4447853.811,-1021.636
696252.313,4447653.811,-1021.025
696252.313,4447453.811,-1024.036
696252.313,4447253.811,-1030.255
696252.313,4447053.811,-1040.200
696252.313,4446853.811,-1047.964
696252.313,4446653.811,-1044.364
696252.313,4446453.811,-1043.603
696252.313,4446253.811,-1048.701
696252.313,4446053.811,-1048.883
696252.313,4445853.811,-1053.625
696252.313,4445653.811,-1055.345
696252.313,4445453.811,-1052.144
696252.313,4445253.811,-1049.738
696252.313,4445053.811,-1054.901
696252.313,4444853.811,-1050.438
696252.313,4444653.811,-1021.455
696252.313,4444453.811,-975.938
696252.313,4444253.811,-981.286
696252.313,4444053.811,-989.013
696252.313,4443853.811,-996.295
696252.313,4443653.811,-1000.180
696252.313,4443453.811,-1006.440
696252.313,4443253.811,-1018.434
696252.313,4443053.811,-1031.469
696252.313,4442853.811,-1041.182
696252.313,4442653.811,-1057.299
696252.313,4442453.811,-1069.100
696252.313,4442253.811,-1078.114
696252.313,4442053.811,-1073.781
696252.313,4441853.811,-1090.175
696252.313,4441653.811,-1098.918
696252.313,4441453.811,-1106.844
696252.313,4441253.811,-1108.306
696252.313,4441053.811,-1113.817
696252.313,4440853.811,-1119.379
696252.313,4440653.811,-1124.238
696252.313,4440453.811,-1122.462
696252.313,4440253.811,-1134.873
696252.313,4440053.811,-1145.398
696252.313,4439853.811,-1145.948
696252.313,4439653.811,-1150.915
696252.313,4439453.811,-1145.328
696252.313,4439253.811,-1148.691
696252.313,4439053.811,-1151.451
696252.313,4438853.811,-1148.450
696252.313,4438653.811,-1144.091
696252.313,4438453.811,-1135.914
696252.313,4438253.811,-1131.716
696252.313,4438053.811,-1163.670
696252.313,4437853.811,-1189.451
696252.313,4437653.811,-1203.632
696252.313,4437453.811,-1234.434
696252.313,4437253.811,-1242.627
696252.313,4437053.811,-1262.418
696252.313,4436853.811,-1275.300
696252.313,4436653.811,-1291.439
696252.313,4436453.811,-1303.588
696252.313,4436253.811,-1326.136
696252.313,4436053.811,-1337.272
696252.313,4435853.811,-1349.578
696252.313,4435653.811,-1364.724
696252.313,4435453.811,-1382.378
696252.313,4435253.811,-1399.642
696252.313,4435053.811,-1411.165
696252.313,4434853.811,-1427.831
696452.313,4456453.811,-603.992
696452.313,4456253.811,-608.823
696452.313,4456053.811,-620.872
696452.313,4455853.811,-632.600
696452.313,4455653.811,-642.758
696452.313,4455453.811,-652.395
696452.313,4455253.811,-661.733
696452.313,4455053.811,-680.081
696452.313,4454853.811,-699.774
696452.313,4454653.811,-711.132
696452.313,4454453.811,-727.654
696452.313,4454253.811,-742.700
696452.313,4454053.811,-770.223
696452.313,4453853.811,-785.890
696452.313,4453653.811,-797.140
696452.313,4453453.811,-803.383
696452.313,4453253.811,-807.468
696452.313,4453053.811,-811.703
696452.313,4452853.811,-812.236
696452.313,4452653.811,-814.579
696452.313,4452453.811,-813.175
696452.313,4452253.811,-814.233
696452.313,4452053.811,-816.858
696452.313,4451853.811,-817.085
696452.313,4451653.811,-818.874
696452.313,4451453.811,-821.664
696452.313,4451253.811,-824.276
696452.313,4451053.811,-826.175
696452.313,4450853.811,-829.967
696452.313,4450653.811,-834.287
696452.313,4450453.811,-841.585
696452.313,4450253.811,-846.288
696452.313,4450053.811,-852.354
696452.313,4449853.811,-862.295
696452.313,4449653.811,-884.569
696452.313,4449453.811,-905.159
696452.313,4449253.811,-946.574
696452.313,4449053.811,-1006.127
696452.313,4448853.811,-1025.135
696452.313,4448653.811,-1031.224
696452.313,4448453.811,-1032.523
696452.313,4448253.811,-1036.086
696452.313,4448053.811,-1031.583
696452.313,4447853.811,-1030.094
696452.313,4447653.811,-1032.689
696452.313,4447453.811,-1029.729
696452.313,4447253.811,-1035.690
696452.313,4447053.811,-1042.410
696452.313,4446853.811,-1052.249
696452.313,4446653.811,-1048.795
696452.313,4446453.811,-1045.783
696452.313,4446253.811,-1051.456
696452.313,4446053.811,-1054.806
696452.313,4445853.811,-1056.550
696452.313,4445653.811,-1062.891
696452.313,4445453.811,-1062.664
696452.313,4445253.811,-1063.155
696452.313,4445053.811,-1063.410
696452.313,4444853.811,-1061.467
696452.313,4444653.811,-1063.498
696452.313,4444453.811,-1038.301
696452.313,4444253.811,-986.986
696452.313,4444053.811,-991.189
696452.313,4443853.811,-998.681
696452.313,4443653.811,-1005.264
696452.313,4443453.811,-1013.994
696452.313,4443253.811,-1019.982
696452.313,4443053.811,-1026.063
696452.313,4442853.811,-1035.506
696452.313,4442653.811,-1047.861
696452.313,4442453.811,-1064.836
696452.313,4442253.811,-1082.120
696452.313,4442053.811,-1090.953
696452.313,4441853.811,-1097.773
696452.313,4441653.811,-1109.487
696452.313,4441453.811,-1118.521
696452.313,4441253.811,-1119.856
696452.313,4441053.811,-1126.285
696452.313,4440853.811,-1133.271
696452.313,4440653.811,-1130.313
696452.313,4440453.811,-1136.092
696452.313,4440253.811,-1143.221
696452.313,4440053.811,-1152.546
696452.313,4439853.811,-1159.022
696452.313,4439653.811,-1158.965
696452.313,4439453.811,-1159.257
696452.313,4439253.811,-1163.636
696452.313,4439053.811,-1163.351
696452.313,4438853.811,-1164.784
696452.313,4438653.811,-1162.230
696452.313,4438453.811,-1161.314
696452.313,4438253.811,-1158.949
696452.313,4438053.811,-1154.481
696452.313,4437853.811,-1146.892
696452.313,4437653.811,-1174.057
696452.313,4437453.811,-1201.954
696452.313,4437253.811,-1227.734
696452.313,4437053.811,-1253.202
696452.313,4436853.811,-1272.641
696452.313,4436653.811,-1283.891
696452.313,4436453.811,-1300.312
696452.313,4436253.811,-1316.617
696452.313,4436053.811,-1324.746
696452.313,4435853.811,-1340.565
696452.313,4435653.811,-1356.110
696452.313,4435453.811,-1372.183
696452.313,4435253.811,-1387.402
696452.313,4435053.811,-1395.659
696452.313,4434853.811,-1404.712
696652.313,4456453.811,-603.578
696652.313,4456253.811,-611.008
696652.313,4456053.811,-620.757
696652.313,4455853.811,-634.399
696652.313,4455653.811,-646.980
696652.313,4455453.811,-654.135
696652.313,4455253.811,-663.402
696652.313,4455053.811,-678.265
696652.313,4454853.811,-697.849
696652.313,4454653.811,-711.740
696652.313,4454453.811,-726.771
696652.313,4454253.811,-741.541
696652.313,4454053.811,-767.456
696652.313,4453853.811,-784.438
696652.313,4453653.811,-794.759
696652.313,4453453.811,-808.444
696652.313,4453253.811,-809.306
696652.313,4453053.811,-821.846
696652.313,4452853.811,-819.605
696652.313,4452653.811,-819.132
696652.313,4452453.811,-819.122
696652.313,4452253.811,-819.413
696652.313,4452053.811,-819.107
696652.313,4451853.811,-820.380
696652.313,4451653.811,-820.047
696652.313,4451453.811,-823.109
696652.313,4451253.811,-825.299
696652.313,4451053.811,-828.011
696652.313,4450853.811,-829.137
696652.313,4450653.811,-834.144
696652.313,4450453.811,-839.513
696652.313,4450253.811,-847.250
696652.313,4450053.811,-853.866
696652.313,4449853.811,-865.672
696652.313,4449653.811,-882.827
696652.313,4449453.811,-899.633
696652.313,4449253.811,-919.044
696652.313,4449053.811,-964.027
696652.313,4448853.811,-1020.379
696652.313,4448653.811,-1033.330
696652.313,4448453.811,-1041.040
696652.313,4448253.811,-1040.811
696652.313,4448053.811,-1043.858
696652.313,4447853.811,-1040.857
696652.313,4447653.811,-1040.608
696652.313,4447453.811,-1035.721
696652.313,4447253.811,-1037.432
696652.313,4447053.811,-1044.481
696652.313,4446853.811,-1053.606
696652.313,4446653.811,-1056.053
696652.313,4446453.811,-1053.128
696652.313,4446253.811,-1055.691
696652.313,4446053.811,-1056.305
696652.313,4445853.811,-1062.289
696652.313,4445653.811,-1065.685
696652.313,4445453.811,-1069.004
696652.313,4445253.811,-1071.947
696652.313,4445053.811,-1067.735
696652.313,4444853.811,-1070.032
696652.313,4444653.811,-1074.616
696652.313,4444453.811,-1042.196
696652.313,4444253.811,-1003.987
696652.313,4444053.811,-1001.306
696652.313,4443853.811,-999.784
696652.313,4443653.811,-1009.953
696652.313,4443453.811,-1016.408
696652.313,4443253.811,-1022.316
696652.313,4443053.811,-1027.682
696652.313,4442853.811,-1036.578
696652.313,4442653.811,-1041.020
696652.313,4442453.811,-1053.992
696652.313,4442253.811,-1078.228
696652.313,4442053.811,-1088.975
696652.313,4441853.811,-1112.074
696652.313,4441653.811,-1119.346
696652.313,4441453.811,-1126.913
696652.313,4441253.811,-1131.149
696652.313,4441053.811,-1133.310
696652.313,4440853.811,-1140.230
696652.313,4440653.811,-1145.722
696652.313,4440453.811,-1152.279
696652.313,4440253.811,-1156.559
696652.313,4440053.811,-1159.845
696652.313,4439853.811,-1158.040
696652.313,4439653.811,-1165.668
696652.313,4439453.811,-1167.316
696652.313,4439253.811,-1171.623
696652.313,4439053.811,-1181.853
696652.313,4438853.811,-1178.121
696652.313,4438653.811,-1180.432
696652.313,4438453.811,-1175.355
696652.313,4438253.811,-1175.751
696652.313,4438053.811,-1172.737
696652.313,4437853.811,-1168.462
696652.313,4437653.811,-1167.822
696652.313,4437453.811,-1176.269
696652.313,4437253.811,-1189.396
696652.313,4437053.811,-1225.457
696652.313,4436853.811,-1265.046
696652.313,4436653.811,-1277.184
696652.313,4436453.811,-1289.322
696652.313,4436253.811,-1297.607
696652.313,4436053.811,-1312.574
696652.313,4435853.811,-1323.512
696652.313,4435653.811,-1341.532
696652.313,4435453.811,-1359.531
696652.313,4435253.811,-1376.222
696652.313,4435053.811,-1372.101
696652.313,4434853.811,-1382.841
696852.313,4456453.811,-606.443
696852.313,4456253.811,-612.874
696852.313,4456053.811,-618.964
696852.313,4455853.811,-629.018
696852.313,4455653.811,-643.762
696852.313,4455453.811,-653.936
696852.313,4455253.811,-669.534
696852.313,4455053.811,-679.249
696852.313,4454853.811,-692.923
696852.313,4454653.811,-710.881
696852.313,4454453.811,-727.349
696852.313,4454253.811,-746.303
696852.313,4454053.811,-763.927
696852.313,4453853.811,-784.895
696852.313,4453653.811,-799.809
696852.313,4453453.811,-811.976
696852.313,4453253.811,-817.163
696852.313,4453053.811,-821.952
696852.313,4452853.811,-823.276
696852.313,4452653.811,-824.747
696852.313,4452453.811,-826.041
696852.313,4452253.811,-823.401
696852.313,4452053.811,-823.969
696852.313,4451853.811,-822.390
696852.313,4451653.811,-822.670
696852.313,4451453.811,-825.651
696852.313,4451253.811,-825.084
696852.313,4451053.811,-829.351
696852.313,4450853.811,-831.074
696852.313,4450653.811,-834.208
696852.313,4450453.811,-846.430
696852.313,4450253.811,-850.866
696852.313,4450053.811,-857.598
696852.313,4449853.811,-869.825
696852.313,4449653.811,-882.801
696852.313,4449453.811,-896.834
696852.313,4449253.811,-913.066
696852.313,4449053.811,-932.431
696852.313,4448853.811,-990.635
696852.313,4448653.811,-1039.970
696852.313,4448453.811,-1040.797
696852.313,4448253.811,-1046.755
696852.313,4448053.811,-1045.942
696852.313,4447853.811,-1045.754
696852.313,4447653.811,-1046.994
696852.313,4447453.811,-1046.819
696852.313,4447253.811,-1039.662
696852.313,4447053.811,-1046.344
696852.313,4446853.811,-1048.541
696852.313,4446653.811,-1058.912
696852.313,4446453.811,-1062.504
696852.313,4446253.811,-1056.519
696852.313,4446053.811,-1058.548
696852.313,4445853.811,-1067.446
696852.313,4445653.811,-1073.573
696852.313,4445453.811,-1075.195
696852.313,4445253.811,-1079.979
696852.313,4445053.811,-1088.193
696852.313,4444853.811,-1088.695
696852.313,4444653.811,-1085.045
696852.313,4444453.811,-1032.724
696852.313,4444253.811,-1030.796
696852.313,4444053.811,-1014.970
696852.313,4443853.811,-1012.937
696852.313,4443653.811,-1009.453
696852.313,4443453.811,-1014.537
696852.313,4443253.811,-1020.735
696852.313,4443053.811,-1030.947
696852.313,4442853.811,-1040.211
696852.313,4442653.811,-1049.614
696852.313,4442453.811,-1062.285
696852.313,4442253.811,-1074.335
696852.313,4442053.811,-1086.595
696852.313,4441853.811,-1112.923
696852.313,4441653.811,-1124.635
696852.313,4441453.811,-1142.298
696852.313,4441253.811,-1141.453
696852.313,4441053.811,-1149.747
696852.313,4440853.811,-1152.596
696852.313,4440653.811,-1150.443
696852.313,4440453.811,-1158.835
696852.313,4440253.811,-1164.068
696852.313,4440053.811,-1159.887
696852.313,4439853.811,-1167.670
696852.313,4439653.811,-1175.234
696852.313,4439453.811,-1181.473
696852.313,4439253.811,-1179.840
696852.313,4439053.811,-1184.196
696852.313,4438853.811,-1184.462
696852.313,4438653.811,-1193.187
696852.313,4438453.811,-1196.104
696852.313,4438253.811,-1190.247
696852.313,4438053.811,-1188.511
696852.313,4437853.811,-1185.520
696852.313,4437653.811,-1184.498
696852.313,4437453.811,-1189.224
696852.313,4437253.811,-1184.518
696852.313,4437053.811,-1202.726
696852.313,4436853.811,-1227.821
696852.313,4436653.811,-1250.988
696852.313,4436453.811,-1259.746
696852.313,4436253.811,-1257.825
696852.313,4436053.811,-1277.372
696852.313,4435853.811,-1296.602
696852.313,4435653.811,-1319.460
696852.313,4435453.811,-1346.207
696852.313,4435253.811,-1346.524
696852.313,4435053.811,-1363.009
696852.313,4434853.811,-1387.122
697052.313,4456453.811,-602.010
