669252.313,4480233.974,-91.889
669252.313,4480183.974,-94.542
669252.313,4480133.974,-97.116
669252.313,4480083.974,-99.688
669252.313,4480033.974,-102.493
669252.313,4479983.974,-106.408
669252.313,4479933.974,-109.918
669252.313,4479883.974,-112.582
669252.313,4479833.974,-114.833
669252.313,4479783.974,-117.202
669252.313,4479733.974,-119.124
669252.313,4479683.974,-121.256
669252.313,4479633.974,-123.328
669252.313,4479583.974,-124.846
669252.313,4479533.974,-126.684
669252.313,4479483.974,-128.359
669252.313,4479433.974,-130.229
669252.313,4479383.974,-131.400
669252.313,4479333.974,-131.073
669252.313,4479283.974,-131.901
669252.313,4479233.974,-134.399
669252.313,4479183.974,-135.808
669252.313,4479133.974,-137.354
669252.313,4479083.974,-139.814
669252.313,4479033.974,-142.970
669252.313,4478983.974,-145.671
669252.313,4478933.974,-146.877
669252.313,4478883.974,-148.706
669252.313,4478833.974,-150.072
669252.313,4478783.974,-150.740
669252.313,4478733.974,-153.484
669252.313,4478683.974,-154.977
669252.313,4478633.974,-156.093
669252.313,4478583.974,-158.153
669252.313,4478533.974,-160.579
669252.313,4478483.974,-163.277
669252.313,4478433.974,-166.151
669252.313,4478383.974,-169.241
669252.313,4478333.974,-172.098
669252.313,4478283.974,-174.471
669252.313,4478233.974,-176.373
669252.313,4478183.974,-178.847
669302.313,4481983.974,-41.039
669302.313,4481933.974,-41.702
669302.313,4481883.974,-42.959
669302.313,4481833.974,-43.885
669302.313,4481783.974,-44.944
669302.313,4481733.974,-45.913
669302.313,4481683.974,-47.240
669302.313,4481633.974,-47.989
669302.313,4481583.974,-49.335
669302.313,4481533.974,-50.572
669302.313,4481483.974,-51.555
669302.313,4481433.974,-52.475
669302.313,4481383.974,-54.341
669302.313,4481333.974,-55.305
669302.313,4481283.974,-56.506
669302.313,4481233.974,-57.813
669302.313,4481183.974,-59.348
669302.313,4481133.974,-61.033
669302.313,4481083.974,-62.670
669302.313,4481033.974,-63.889
669302.313,4480983.974,-65.279
669302.313,4480933.974,-66.966
669302.313,4480883.974,-68.879
669302.313,4480833.974,-70.126
669302.313,4480783.974,-72.195
669302.313,4480733.974,-73.958
669302.313,4480683.974,-75.724
669302.313,4480633.974,-77.729
669302.313,4480583.974,-79.374
669302.313,4480533.974,-81.116
669302.313,4480483.974,-82.583
669302.313,4480433.974,-84.571
669302.313,4480383.974,-86.128
669302.313,4480333.974,-88.282
669302.313,4480283.974,-90.417
669302.313,4480233.974,-92.778
669302.313,4480183.974,-94.919
669302.313,4480133.974,-97.251
669302.313,4480083.974,-99.610
669302.313,4480033.974,-103.477
669302.313,4479983.974,-106.810
669302.313,4479933.974,-110.110
669302.313,4479883.974,-113.078
669302.313,4479833.974,-115.074
669302.313,4479783.974,-117.366
669302.313,4479733.974,-119.341
669302.313,4479683.974,-121.439
669302.313,4479633.974,-124.223
669302.313,4479583.974,-124.470
669302.313,4479533.974,-126.306
669302.313,4479483.974,-128.241
669302.313,4479433.974,-130.157
669302.313,4479383.974,-130.771
669302.313,4479333.974,-131.149
669302.313,4479283.974,-133.132
669302.313,4479233.974,-133.811
669302.313,4479183.974,-135.713
669302.313,4479133.974,-137.673
669302.313,4479083.974,-140.185
669302.313,4479033.974,-143.269
669302.313,4478983.974,-145.422
669302.313,4478933.974,-146.872
669302.313,4478883.974,-148.682
669302.313,4478833.974,-150.088
669302.313,4478783.974,-152.863
669302.313,4478733.974,-154.024
669302.313,4478683.974,-154.670
669302.313,4478633.974,-156.678
669302.313,4478583.974,-158.924
669302.313,4478533.974,-161.477
669302.313,4478483.974,-163.888
669302.313,4478433.974,-166.589
669302.313,4478383.974,-169.746
669302.313,4478333.974,-172.496
669302.313,4478283.974,-174.712
669302.313,4478233.974,-176.759
669302.313,4478183.974,-179.107
669352.313,4482033.974,-40.946
669352.313,4481983.974,-41.476
669352.313,4481933.974,-42.466
669352.313,4481883.974,-42.855
669352.313,4481833.974,-44.572
669352.313,4481783.974,-45.479
669352.313,4481733.974,-46.701
669352.313,4481683.974,-47.710
669352.313,4481633.974,-48.833
669352.313,4481583.974,-50.285
669352.313,4481533.974,-50.921
669352.313,4481483.974,-52.055
669352.313,4481433.974,-53.527
669352.313,4481383.974,-54.610
669352.313,4481333.974,-55.953
669352.313,4481283.974,-57.419
669352.313,4481233.974,-58.645
669352.313,4481183.974,-60.258
669352.313,4481133.974,-61.522
669352.313,4481083.974,-63.013
669352.313,4481033.974,-64.319
669352.313,4480983.974,-65.909
669352.313,4480933.974,-67.254
669352.313,4480883.974,-69.246
669352.313,4480833.974,-71.098
669352.313,4480783.974,-72.887
669352.313,4480733.974,-74.765
669352.313,4480683.974,-76.402
669352.313,4480633.974,-77.632
669352.313,4480583.974,-79.797
669352.313,4480533.974,-81.400
669352.313,4480483.974,-82.717
669352.313,4480433.974,-84.713
669352.313,4480383.974,-86.869
669352.313,4480333.974,-88.800
669352.313,4480283.974,-90.806
669352.313,4480233.974,-92.870
669352.313,4480183.974,-94.840
669352.313,4480133.974,-97.150
669352.313,4480083.974,-100.069
669352.313,4480033.974,-103.332
669352.313,4479983.974,-107.623
669352.313,4479933.974,-110.961
669352.313,4479883.974,-113.654
669352.313,4479833.974,-115.911
669352.313,4479783.974,-118.322
669352.313,4479733.974,-120.091
669352.313,4479683.974,-121.404
669352.313,4479633.974,-122.949
669352.313,4479583.974,-124.696
669352.313,4479533.974,-126.244
669352.313,4479483.974,-128.071
669352.313,4479433.974,-129.914
669352.313,4479383.974,-130.659
669352.313,4479333.974,-131.623
669352.313,4479283.974,-132.713
669352.313,4479233.974,-134.780
669352.313,4479183.974,-136.497
669352.313,4479133.974,-138.971
669352.313,4479083.974,-141.472
669352.313,4479033.974,-143.259
669352.313,4478983.974,-144.818
669352.313,4478933.974,-146.632
669352.313,4478883.974,-148.656
669352.313,4478833.974,-151.005
669352.313,4478783.974,-152.941
669352.313,4478733.974,-154.350
669352.313,4478683.974,-155.566
669352.313,4478633.974,-157.549
669352.313,4478583.974,-160.031
669352.313,4478533.974,-162.214
669352.313,4478483.974,-164.829
669352.313,4478433.974,-167.418
669352.313,4478383.974,-171.201
669352.313,4478333.974,-172.953
669352.313,4478283.974,-174.892
669352.313,4478233.974,-176.961
669352.313,4478183.974,-179.368
669402.313,4482033.974,-41.033
669402.313,4481983.974,-41.976
669402.313,4481933.974,-43.275
669402.313,4481883.974,-44.140
669402.313,4481833.974,-45.082
669402.313,4481783.974,-46.095
669402.313,4481733.974,-47.019
669402.313,4481683.974,-48.348
669402.313,4481633.974,-49.766
669402.313,4481583.974,-50.545
669402.313,4481533.974,-51.742
669402.313,4481483.974,-52.904
669402.313,4481433.974,-54.057
669402.313,4481383.974,-55.292
669402.313,4481333.974,-56.669
669402.313,4481283.974,-57.881
669402.313,4481233.974,-59.426
669402.313,4481183.974,-60.729
669402.313,4481133.974,-61.919
669402.313,4481083.974,-63.625
669402.313,4481033.974,-64.904
669402.313,4480983.974,-66.748
669402.313,4480933.974,-68.251
669402.313,4480883.974,-69.915
669402.313,4480833.974,-71.855
669402.313,4480783.974,-73.437
669402.313,4480733.974,-75.194
669402.313,4480683.974,-76.626
669402.313,4480633.974,-78.497
669402.313,4480583.974,-80.394
669402.313,4480533.974,-81.698
669402.313,4480483.974,-83.509
669402.313,4480433.974,-85.602
669402.313,4480383.974,-87.207
669402.313,4480333.974,-89.039
669402.313,4480283.974,-90.693
669402.313,4480233.974,-92.990
669402.313,4480183.974,-95.392
669402.313,4480133.974,-97.427
669402.313,4480083.974,-100.469
669402.313,4480033.974,-104.016
669402.313,4479983.974,-107.988
669402.313,4479933.974,-111.640
669402.313,4479883.974,-114.603
669402.313,4479833.974,-116.634
669402.313,4479783.974,-118.111
669402.313,4479733.974,-119.531
669402.313,4479683.974,-121.279
669402.313,4479633.974,-122.865
669402.313,4479583.974,-124.349
669402.313,4479533.974,-125.965
669402.313,4479483.974,-127.747
669402.313,4479433.974,-130.095
669402.313,4479383.974,-130.840
669402.313,4479333.974,-131.607
669402.313,4479283.974,-133.323
669402.313,4479233.974,-135.283
669402.313,4479183.974,-137.493
669402.313,4479133.974,-139.779
669402.313,4479083.974,-141.463
669402.313,4479033.974,-143.833
669402.313,4478983.974,-144.940
669402.313,4478933.974,-146.929
669402.313,4478883.974,-149.541
669402.313,4478833.974,-151.120
669402.313,4478783.974,-152.942
669402.313,4478733.974,-154.978
669402.313,4478683.974,-156.870
669402.313,4478633.974,-158.557
669402.313,4478583.974,-160.434
669402.313,4478533.974,-163.541
669402.313,4478483.974,-164.381
669402.313,4478433.974,-168.861
669402.313,4478383.974,-171.215
669402.313,4478333.974,-173.051
669402.313,4478283.974,-174.996
669402.313,4478233.974,-177.490
669402.313,4478183.974,-179.629
669452.313,4482083.974,-40.723
669452.313,4482033.974,-41.712
669452.313,4481983.974,-42.927
669452.313,4481933.974,-44.042
669452.313,4481883.974,-44.540
669452.313,4481833.974,-45.593
669452.313,4481783.974,-46.526
669452.313,4481733.974,-47.772
669452.313,4481683.974,-49.261
669452.313,4481633.974,-50.028
669452.313,4481583.974,-51.094
669452.313,4481533.974,-52.303
669452.313,4481483.974,-53.614
669452.313,4481433.974,-54.776
669452.313,4481383.974,-55.831
669452.313,4481333.974,-57.287
669452.313,4481283.974,-58.683
669452.313,4481233.974,-59.793
669452.313,4481183.974,-61.327
669452.313,4481133.974,-62.466
669452.313,4481083.974,-64.068
669452.313,4481033.974,-65.664
669452.313,4480983.974,-67.428
669452.313,4480933.974,-68.916
669452.313,4480883.974,-70.602
669452.313,4480833.974,-72.569
669452.313,4480783.974,-73.921
669452.313,4480733.974,-75.598
669452.313,4480683.974,-76.942
669452.313,4480633.974,-78.656
669452.313,4480583.974,-80.470
669452.313,4480533.974,-82.203
669452.313,4480483.974,-84.065
669452.313,4480433.974,-85.811
669452.313,4480383.974,-87.468
669452.313,4480333.974,-89.037
669452.313,4480283.974,-91.136
669452.313,4480233.974,-93.361
669452.313,4480183.974,-95.277
669452.313,4480133.974,-98.096
669452.313,4480083.974,-100.670
669452.313,4480033.974,-104.760
669452.313,4479983.974,-108.862
669452.313,4479933.974,-112.589
669452.313,4479883.974,-114.483
669452.313,4479833.974,-116.121
669452.313,4479783.974,-118.123
669452.313,4479733.974,-119.914
669452.313,4479683.974,-121.193
669452.313,4479633.974,-122.594
669452.313,4479583.974,-123.832
669452.313,4479533.974,-126.372
669452.313,4479483.974,-128.246
669452.313,4479433.974,-129.665
669452.313,4479383.974,-131.056
669452.313,4479333.974,-132.102
669452.313,4479283.974,-133.872
669452.313,4479233.974,-135.734
669452.313,4479183.974,-138.133
669452.313,4479133.974,-139.746
669452.313,4479083.974,-141.572
669452.313,4479033.974,-143.526
669452.313,4478983.974,-144.635
669452.313,4478933.974,-147.193
669452.313,4478883.974,-149.114
669452.313,4478833.974,-150.983
669452.313,4478783.974,-153.555
669452.313,4478733.974,-155.388
669452.313,4478683.974,-156.781
669452.313,4478633.974,-159.082
669452.313,4478583.974,-160.802
669452.313,4478533.974,-164.191
669452.313,4478483.974,-166.231
669452.313,4478433.974,-168.178
669452.313,4478383.974,-170.484
669452.313,4478333.974,-172.496
669452.313,4478283.974,-174.780
669452.313,4478233.974,-176.955
669452.313,4478183.974,-179.691
669502.313,4482183.974,-39.932
669502.313,4482133.974,-40.234
669502.313,4482083.974,-41.327
669502.313,4482033.974,-42.509
669502.313,4481983.974,-43.345
669502.313,4481933.974,-44.343
669502.313,4481883.974,-45.297
669502.313,4481833.974,-46.321
669502.313,4481783.974,-47.138
669502.313,4481733.974,-48.688
669502.313,4481683.974,-49.951
669502.313,4481633.974,-50.393
669502.313,4481583.974,-51.596
669502.313,4481533.974,-53.086
669502.313,4481483.974,-54.123
669502.313,4481433.974,-55.425
669502.313,4481383.974,-56.474
669502.313,4481333.974,-58.008
669502.313,4481283.974,-59.160
669502.313,4481233.974,-60.631
669502.313,4481183.974,-61.805
669502.313,4481133.974,-63.380
669502.313,4481083.974,-64.937
669502.313,4481033.974,-66.278
669502.313,4480983.974,-67.854
669502.313,4480933.974,-69.859
669502.313,4480883.974,-71.273
669502.313,4480833.974,-72.759
669502.313,4480783.974,-74.311
669502.313,4480733.974,-76.141
669502.313,4480683.974,-77.066
669502.313,4480633.974,-79.323
669502.313,4480583.974,-81.229
669502.313,4480533.974,-82.825
669502.313,4480483.974,-84.284
669502.313,4480433.974,-85.974
669502.313,4480383.974,-87.504
669502.313,4480333.974,-89.410
669502.313,4480283.974,-91.172
669502.313,4480233.974,-93.622
669502.313,4480183.974,-96.042
669502.313,4480133.974,-98.259
669502.313,4480083.974,-101.542
669502.313,4480033.974,-104.925
669502.313,4479983.974,-108.837
669502.313,4479933.974,-111.932
669502.313,4479883.974,-114.488
669502.313,4479833.974,-116.437
669502.313,4479783.974,-118.188
669502.313,4479733.974,-119.864
669502.313,4479683.974,-121.173
669502.313,4479633.974,-122.585
669502.313,4479583.974,-124.701
669502.313,4479533.974,-126.258
669502.313,4479483.974,-128.271
669502.313,4479433.974,-130.269
669502.313,4479383.974,-131.338
669502.313,4479333.974,-132.906
669502.313,4479283.974,-134.788
669502.313,4479233.974,-136.000
669502.313,4479183.974,-137.862
669502.313,4479133.974,-139.649
669502.313,4479083.974,-141.516
669502.313,4479033.974,-143.579
669502.313,4478983.974,-144.906
669502.313,4478933.974,-146.445
669502.313,4478883.974,-148.210
669502.313,4478833.974,-151.125
669502.313,4478783.974,-153.479
669502.313,4478733.974,-154.943
669502.313,4478683.974,-157.230
669502.313,4478633.974,-158.976
669502.313,4478583.974,-162.817
669502.313,4478533.974,-164.327
669502.313,4478483.974,-165.840
669502.313,4478433.974,-167.606
669502.313,4478383.974,-170.044
669502.313,4478333.974,-172.311
669502.313,4478283.974,-174.482
669502.313,4478233.974,-176.570
669502.313,4478183.974,-179.765
669552.313,4482233.974,-39.434
669552.313,4482183.974,-39.997
669552.313,4482133.974,-40.965
669552.313,4482083.974,-42.259
669552.313,4482033.974,-43.159
669552.313,4481983.974,-43.979
669552.313,4481933.974,-44.892
669552.313,4481883.974,-45.814
669552.313,4481833.974,-46.920
669552.313,4481783.974,-47.952
669552.313,4481733.974,-49.219
669552.313,4481683.974,-50.122
669552.313,4481633.974,-51.079
669552.313,4481583.974,-52.604
669552.313,4481533.974,-53.563
669552.313,4481483.974,-54.590
669552.313,4481433.974,-55.818
669552.313,4481383.974,-57.335
669552.313,4481333.974,-58.697
669552.313,4481283.974,-59.729
669552.313,4481233.974,-60.748
669552.313,4481183.974,-62.366
669552.313,4481133.974,-63.796
669552.313,4481083.974,-65.444
669552.313,4481033.974,-67.106
669552.313,4480983.974,-68.378
669552.313,4480933.974,-70.144
669552.313,4480883.974,-71.579
669552.313,4480833.974,-73.202
669552.313,4480783.974,-74.597
669552.313,4480733.974,-76.160
669552.313,4480683.974,-78.160
669552.313,4480633.974,-79.970
669552.313,4480583.974,-81.501
669552.313,4480533.974,-82.920
669552.313,4480483.974,-84.291
669552.313,4480433.974,-86.086
669552.313,4480383.974,-87.978
669552.313,4480333.974,-90.020
669552.313,4480283.974,-91.702
669552.313,4480233.974,-94.120
669552.313,4480183.974,-96.456
669552.313,4480133.974,-98.535
669552.313,4480083.974,-101.085
669552.313,4480033.974,-104.584
669552.313,4479983.974,-108.454
669552.313,4479933.974,-111.914
669552.313,4479883.974,-113.983
669552.313,4479833.974,-116.299
669552.313,4479783.974,-118.113
669552.313,4479733.974,-119.726
669552.313,4479683.974,-121.031
669552.313,4479633.974,-122.912
669552.313,4479583.974,-124.537
669552.313,4479533.974,-126.448
669552.313,4479483.974,-128.644
669552.313,4479433.974,-130.784
669552.313,4479383.974,-131.421
669552.313,4479333.974,-133.197
669552.313,4479283.974,-134.506
669552.313,4479233.974,-136.277
669552.313,4479183.974,-138.226
669552.313,4479133.974,-139.751
669552.313,4479083.974,-142.157
669552.313,4479033.974,-144.087
669552.313,4478983.974,-145.044
669552.313,4478933.974,-147.096
669552.313,4478883.974,-149.269
669552.313,4478833.974,-151.308
669552.313,4478783.974,-153.712
669552.313,4478733.974,-155.889
669552.313,4478683.974,-158.179
669552.313,4478633.974,-160.266
669552.313,4478583.974,-162.241
669552.313,4478533.974,-164.256
669552.313,4478483.974,-165.894
669552.313,4478433.974,-167.739
669552.313,4478383.974,-170.026
669552.313,4478333.974,-172.066
669552.313,4478283.974,-174.937
669552.313,4478233.974,-177.562
669552.313,4478183.974,-179.838
669602.313,4482283.974,-39.228
669602.313,4482233.974,-39.567
669602.313,4482183.974,-40.556
669602.313,4482133.974,-41.613
669602.313,4482083.974,-43.135
669602.313,4482033.974,-43.526
669602.313,4481983.974,-44.657
669602.313,4481933.974,-45.539
669602.313,4481883.974,-46.411
669602.313,4481833.974,-47.496
669602.313,4481783.974,-48.706
669602.313,4481733.974,-49.774
669602.313,4481683.974,-50.651
669602.313,4481633.974,-51.787
669602.313,4481583.974,-53.034
669602.313,4481533.974,-54.236
669602.313,4481483.974,-55.396
669602.313,4481433.974,-56.464
669602.313,4481383.974,-58.067
669602.313,4481333.974,-59.054
669602.313,4481283.974,-60.587
669602.313,4481233.974,-61.464
669602.313,4481183.974,-63.137
669602.313,4481133.974,-64.354
669602.313,4481083.974,-66.232
669602.313,4481033.974,-67.487
669602.313,4480983.974,-69.163
669602.313,4480933.974,-70.528
669602.313,4480883.974,-72.192
669602.313,4480833.974,-73.307
669602.313,4480783.974,-74.891
669602.313,4480733.974,-76.861
669602.313,4480683.974,-78.445
669602.313,4480633.974,-80.181
669602.313,4480583.974,-81.682
669602.313,4480533.974,-83.371
669602.313,4480483.974,-85.006
669602.313,4480433.974,-86.377
669602.313,4480383.974,-88.421
669602.313,4480333.974,-90.124
669602.313,4480283.974,-92.152
669602.313,4480233.974,-94.309
669602.313,4480183.974,-95.969
669602.313,4480133.974,-97.803
669602.313,4480083.974,-100.625
669602.313,4480033.974,-104.118
669602.313,4479983.974,-108.048
669602.313,4479933.974,-112.064
669602.313,4479883.974,-114.557
669602.313,4479833.974,-116.548
669602.313,4479783.974,-117.960
669602.313,4479733.974,-119.715
669602.313,4479683.974,-121.814
669602.313,4479633.974,-123.293
669602.313,4479583.974,-124.778
669602.313,4479533.974,-127.036
669602.313,4479483.974,-129.323
669602.313,4479433.974,-130.932
669602.313,4479383.974,-131.813
669602.313,4479333.974,-132.952
669602.313,4479283.974,-134.278
669602.313,4479233.974,-136.143
669602.313,4479183.974,-138.034
669602.313,4479133.974,-140.193
669602.313,4479083.974,-142.279
669602.313,4479033.974,-143.800
669602.313,4478983.974,-145.242
669602.313,4478933.974,-147.631
669602.313,4478883.974,-149.645
669602.313,4478833.974,-152.213
669602.313,4478783.974,-154.298
669602.313,4478733.974,-156.439
669602.313,4478683.974,-158.250
669602.313,4478633.974,-159.766
669602.313,4478583.974,-161.701
669602.313,4478533.974,-163.844
669602.313,4478483.974,-165.900
669602.313,4478433.974,-168.009
669602.313,4478383.974,-170.211
669602.313,4478333.974,-172.843
669602.313,4478283.974,-175.878
669602.313,4478233.974,-177.828
669602.313,4478183.974,-179.912
669652.313,4482333.974,-38.776
669652.313,4482283.974,-39.303
669652.313,4482233.974,-40.526
669652.313,4482183.974,-41.393
669652.313,4482133.974,-42.541
669652.313,4482083.974,-43.201
669652.313,4482033.974,-44.034
669652.313,4481983.974,-44.973
669652.313,4481933.974,-45.932
669652.313,4481883.974,-46.950
669652.313,4481833.974,-48.561
669652.313,4481783.974,-49.516
669652.313,4481733.974,-50.117
669652.313,4481683.974,-50.919
669652.313,4481633.974,-52.557
669652.313,4481583.974,-53.503
669652.313,4481533.974,-54.561
669652.313,4481483.974,-55.779
669652.313,4481433.974,-57.396
669652.313,4481383.974,-58.503
669652.313,4481333.974,-59.567
669652.313,4481283.974,-60.912
669652.313,4481233.974,-62.380
669652.313,4481183.974,-63.696
669652.313,4481133.974,-64.904
669652.313,4481083.974,-66.810
669652.313,4481033.974,-68.025
669652.313,4480983.974,-69.284
669652.313,4480933.974,-70.998
669652.313,4480883.974,-72.112
669652.313,4480833.974,-73.990
669652.313,4480783.974,-75.929
669652.313,4480733.974,-77.439
669652.313,4480683.974,-78.796
669652.313,4480633.974,-80.185
669652.313,4480583.974,-81.834
669652.313,4480533.974,-83.475
669652.313,4480483.974,-85.174
669652.313,4480433.974,-87.054
669652.313,4480383.974,-88.896
669652.313,4480333.974,-91.072
669652.313,4480283.974,-92.270
669652.313,4480233.974,-94.151
669652.313,4480183.974,-95.902
669652.313,4480133.974,-97.852
669652.313,4480083.974,-100.827
669652.313,4480033.974,-104.096
669652.313,4479983.974,-108.261
669652.313,4479933.974,-112.353
669652.313,4479883.974,-114.853
669652.313,4479833.974,-116.581
669652.313,4479783.974,-118.366
669652.313,4479733.974,-120.388
669652.313,4479683.974,-121.902
669652.313,4479633.974,-123.841
669652.313,4479583.974,-125.681
669652.313,4479533.974,-127.576
669652.313,4479483.974,-129.252
669652.313,4479433.974,-130.796
669652.313,4479383.974,-131.974
669652.313,4479333.974,-133.134
669652.313,4479283.974,-134.152
669652.313,4479233.974,-136.383
669652.313,4479183.974,-138.617
669652.313,4479133.974,-140.219
669652.313,4479083.974,-142.538
669652.313,4479033.974,-144.378
669652.313,4478983.974,-145.974
669652.313,4478933.974,-148.011
669652.313,4478883.974,-150.514
669652.313,4478833.974,-153.322
669652.313,4478783.974,-155.870
669652.313,4478733.974,-156.385
669652.313,4478683.974,-158.033
669652.313,4478633.974,-159.982
669652.313,4478583.974,-161.940
669652.313,4478533.974,-164.178
669652.313,4478483.974,-166.145
669652.313,4478433.974,-167.762
669652.313,4478383.974,-170.227
669652.313,4478333.974,-172.470
669652.313,4478283.974,-175.103
669652.313,4478233.974,-176.965
669652.313,4478183.974,-179.900
669702.313,4482383.974,-38.670
669702.313,4482333.974,-39.193
669702.313,4482283.974,-39.951
669702.313,4482233.974,-40.959
669702.313,4482183.974,-41.981
669702.313,4482133.974,-43.127
669702.313,4482083.974,-43.679
669702.313,4482033.974,-44.551
669702.313,4481983.974,-45.519
669702.313,4481933.974,-46.674
669702.313,4481883.974,-47.768
669702.313,4481833.974,-49.063
669702.313,4481783.974,-49.637
669702.313,4481733.974,-50.772
669702.313,4481683.974,-51.959
669702.313,4481633.974,-53.027
669702.313,4481583.974,-53.999
669702.313,4481533.974,-55.098
669702.313,4481483.974,-56.557
669702.313,4481433.974,-57.972
669702.313,4481383.974,-58.887
669702.313,4481333.974,-60.169
669702.313,4481283.974,-61.573
669702.313,4481233.974,-62.995
669702.313,4481183.974,-64.402
669702.313,4481133.974,-65.661
669702.313,4481083.974,-66.903
669702.313,4481033.974,-68.554
669702.313,4480983.974,-70.195
669702.313,4480933.974,-71.665
669702.313,4480883.974,-73.023
669702.313,4480833.974,-74.518
669702.313,4480783.974,-76.118
669702.313,4480733.974,-77.408
669702.313,4480683.974,-79.601
669702.313,4480633.974,-80.591
669702.313,4480583.974,-82.322
669702.313,4480533.974,-84.257
669702.313,4480483.974,-86.108
669702.313,4480433.974,-87.642
669702.313,4480383.974,-88.999
669702.313,4480333.974,-90.002
669702.313,4480283.974,-92.065
669702.313,4480233.974,-93.803
669702.313,4480183.974,-95.990
669702.313,4480133.974,-98.186
669702.313,4480083.974,-100.695
669702.313,4480033.974,-104.421
669702.313,4479983.974,-108.799
669702.313,4479933.974,-112.191
669702.313,4479883.974,-114.387
669702.313,4479833.974,-116.766
669702.313,4479783.974,-118.819
669702.313,4479733.974,-120.739
669702.313,4479683.974,-122.436
669702.313,4479633.974,-123.886
669702.313,4479583.974,-125.808
669702.313,4479533.974,-127.403
669702.313,4479483.974,-129.378
669702.313,4479433.974,-130.209
669702.313,4479383.974,-132.064
669702.313,4479333.974,-133.244
669702.313,4479283.974,-134.902
669702.313,4479233.974,-136.505
669702.313,4479183.974,-138.802
669702.313,4479133.974,-141.235
669702.313,4479083.974,-143.495
669702.313,4479033.974,-144.791
669702.313,4478983.974,-146.559
669702.313,4478933.974,-148.790
669702.313,4478883.974,-151.664
669702.313,4478833.974,-153.810
669702.313,4478783.974,-155.309
669702.313,4478733.974,-155.726
669702.313,4478683.974,-157.824
669702.313,4478633.974,-159.051
669702.313,4478583.974,-161.526
669702.313,4478533.974,-163.394
669702.313,4478483.974,-165.881
669702.313,4478433.974,-167.771
669702.313,4478383.974,-170.006
669702.313,4478333.974,-172.160
669702.313,4478283.974,-174.496
669702.313,4478233.974,-177.578
669702.313,4478183.974,-179.887
669702.313,4478133.974,-179.596
669752.313,4482433.974,-38.259
669752.313,4482383.974,-38.853
669752.313,4482333.974,-39.820
669752.313,4482283.974,-40.877
669752.313,4482233.974,-41.210
669752.313,4482183.974,-42.568
669752.313,4482133.974,-43.481
669752.313,4482083.974,-44.048
669752.313,4482033.974,-45.182
669752.313,4481983.974,-46.209
669752.313,4481933.974,-47.282
669752.313,4481883.974,-48.663
669752.313,4481833.974,-49.249
669752.313,4481783.974,-50.366
669752.313,4481733.974,-51.405
669752.313,4481683.974,-52.520
669752.313,4481633.974,-53.595
669752.313,4481583.974,-54.813
669752.313,4481533.974,-55.997
669752.313,4481483.974,-57.412
669752.313,4481433.974,-58.249
669752.313,4481383.974,-59.449
669752.313,4481333.974,-60.764
669752.313,4481283.974,-62.283
669752.313,4481233.974,-63.488
669752.313,4481183.974,-64.849
669752.313,4481133.974,-66.078
669752.313,4481083.974,-67.523
669752.313,4481033.974,-69.063
669752.313,4480983.974,-70.659
669752.313,4480933.974,-72.090
669752.313,4480883.974,-73.394
669752.313,4480833.974,-74.984
669752.313,4480783.974,-76.632
669752.313,4480733.974,-78.109
669752.313,4480683.974,-79.680
669752.313,4480633.974,-81.197
669752.313,4480583.974,-82.852
669752.313,4480533.974,-84.517
669752.313,4480483.974,-86.250
669752.313,4480433.974,-87.313
669752.313,4480383.974,-89.071
669752.313,4480333.974,-90.780
669752.313,4480283.974,-92.135
669752.313,4480233.974,-94.138
669752.313,4480183.974,-96.079
669752.313,4480133.974,-98.366
669752.313,4480083.974,-101.165
669752.313,4480033.974,-104.162
669752.313,4479983.974,-108.172
669752.313,4479933.974,-112.067
669752.313,4479883.974,-114.748
669752.313,4479833.974,-117.011
669752.313,4479783.974,-118.979
669752.313,4479733.974,-120.895
669752.313,4479683.974,-122.290
669752.313,4479633.974,-123.747
669752.313,4479583.974,-125.674
669752.313,4479533.974,-127.583
669752.313,4479483.974,-129.328
669752.313,4479433.974,-130.846
669752.313,4479383.974,-131.711
669752.313,4479333.974,-132.543
669752.313,4479283.974,-134.736
669752.313,4479233.974,-136.801
669752.313,4479183.974,-139.105
669752.313,4479133.974,-141.327
669752.313,4479083.974,-143.201
669752.313,4479033.974,-144.500
669752.313,4478983.974,-146.036
669752.313,4478933.974,-148.944
669752.313,4478883.974,-151.532
669752.313,4478833.974,-152.731
669752.313,4478783.974,-154.294
669752.313,4478733.974,-155.522
669752.313,4478683.974,-156.962
669752.313,4478633.974,-158.696
669752.313,4478583.974,-160.872
669752.313,4478533.974,-163.559
669752.313,4478483.974,-166.141
669752.313,4478433.974,-167.862
669752.313,4478383.974,-169.540
669752.313,4478333.974,-172.395
669752.313,4478283.974,-175.653
669752.313,4478233.974,-178.195
669752.313,4478183.974,-179.873
669752.313,4478133.974,-179.605
669802.313,4482483.974,-38.437
669802.313,4482433.974,-38.392
669802.313,4482383.974,-39.491
669802.313,4482333.974,-40.199
669802.313,4482283.974,-40.993
669802.313,4482233.974,-42.223
669802.313,4482183.974,-43.142
669802.313,4482133.974,-44.174
669802.313,4482083.974,-44.980
669802.313,4482033.974,-45.939
669802.313,4481983.974,-46.874
669802.313,4481933.974,-47.919
669802.313,4481883.974,-48.698
669802.313,4481833.974,-49.732
669802.313,4481783.974,-50.830
669802.313,4481733.974,-51.960
669802.313,4481683.974,-53.039
669802.313,4481633.974,-53.888
669802.313,4481583.974,-55.269
669802.313,4481533.974,-56.557
669802.313,4481483.974,-57.659
669802.313,4481433.974,-58.646
669802.313,4481383.974,-59.849
669802.313,4481333.974,-61.275
669802.313,4481283.974,-62.578
669802.313,4481233.974,-64.027
669802.313,4481183.974,-65.162
669802.313,4481133.974,-66.570
669802.313,4481083.974,-68.188
669802.313,4481033.974,-69.639
669802.313,4480983.974,-70.897
669802.313,4480933.974,-72.338
669802.313,4480883.974,-73.947
669802.313,4480833.974,-75.315
669802.313,4480783.974,-76.771
669802.313,4480733.974,-78.309
669802.313,4480683.974,-80.055
669802.313,4480633.974,-81.858
669802.313,4480583.974,-83.221
669802.313,4480533.974,-84.433
669802.313,4480483.974,-86.311
669802.313,4480433.974,-87.592
669802.313,4480383.974,-89.223
669802.313,4480333.974,-91.000
669802.313,4480283.974,-92.536
669802.313,4480233.974,-94.802
669802.313,4480183.974,-96.728
669802.313,4480133.974,-98.474
669802.313,4480083.974,-100.808
669802.313,4480033.974,-103.713
669802.313,4479983.974,-107.535
669802.313,4479933.974,-111.601
669802.313,4479883.974,-114.665
669802.313,4479833.974,-117.134
669802.313,4479783.974,-119.076
669802.313,4479733.974,-120.843
669802.313,4479683.974,-122.310
669802.313,4479633.974,-123.479
669802.313,4479583.974,-125.180
669802.313,4479533.974,-127.386
669802.313,4479483.974,-129.252
669802.313,4479433.974,-130.925
669802.313,4479383.974,-132.044
669802.313,4479333.974,-133.277
669802.313,4479283.974,-135.221
669802.313,4479233.974,-137.138
669802.313,4479183.974,-138.914
669802.313,4479133.974,-141.335
669802.313,4479083.974,-143.124
669802.313,4479033.974,-144.144
669802.313,4478983.974,-146.609
669802.313,4478933.974,-148.418
669802.313,4478883.974,-150.506
669802.313,4478833.974,-152.411
669802.313,4478783.974,-154.135
669802.313,4478733.974,-155.333
669802.313,4478683.974,-156.871
669802.313,4478633.974,-159.147
669802.313,4478583.974,-160.901
669802.313,4478533.974,-163.602
669802.313,4478483.974,-166.001
669802.313,4478433.974,-168.513
669802.313,4478383.974,-170.646
669802.313,4478333.974,-173.241
669802.313,4478283.974,-176.021
669802.313,4478233.974,-178.468
669802.313,4478183.974,-179.859
669802.313,4478133.974,-179.613
669852.313,4482483.974,-38.646
669852.313,4482433.974,-39.357
669852.313,4482383.974,-40.080
669852.313,4482333.974,-40.988
669852.313,4482283.974,-41.905
669852.313,4482233.974,-42.690
669852.313,4482183.974,-43.499
669852.313,4482133.974,-44.521
669852.313,4482083.974,-45.141
669852.313,4482033.974,-46.357
669852.313,4481983.974,-47.671
669852.313,4481933.974,-48.419
669852.313,4481883.974,-49.329
669852.313,4481833.974,-50.287
669852.313,4481783.974,-51.558
669852.313,4481733.974,-52.435
669852.313,4481683.974,-53.464
669852.313,4481633.974,-54.573
669852.313,4481583.974,-55.739
669852.313,4481533.974,-57.123
669852.313,4481483.974,-58.345
669852.313,4481433.974,-59.424
669852.313,4481383.974,-60.524
669852.313,4481333.974,-62.028
669852.313,4481283.974,-63.028
669852.313,4481233.974,-64.340
669852.313,4481183.974,-65.902
669852.313,4481133.974,-67.338
669852.313,4481083.974,-68.640
669852.313,4481033.974,-70.240
669852.313,4480983.974,-71.340
669852.313,4480933.974,-72.740
669852.313,4480883.974,-74.389
669852.313,4480833.974,-75.823
669852.313,4480783.974,-77.504
669852.313,4480733.974,-79.106
669852.313,4480683.974,-80.575
669852.313,4480633.974,-81.716
669852.313,4480583.974,-83.329
669852.313,4480533.974,-84.787
669852.313,4480483.974,-86.582
669852.313,4480433.974,-88.115
669852.313,4480383.974,-89.633
669852.313,4480333.974,-91.494
669852.313,4480283.974,-93.086
669852.313,4480233.974,-94.271
669852.313,4480183.974,-96.244
669852.313,4480133.974,-98.216
669852.313,4480083.974,-99.933
669852.313,4480033.974,-103.598
669852.313,4479983.974,-106.715
669852.313,4479933.974,-111.090
669852.313,4479883.974,-114.326
669852.313,4479833.974,-116.788
669852.313,4479783.974,-118.594
669852.313,4479733.974,-120.761
669852.313,4479683.974,-122.294
669852.313,4479633.974,-124.244
669852.313,4479583.974,-126.318
669852.313,4479533.974,-128.090
669852.313,4479483.974,-129.643
669852.313,4479433.974,-131.319
669852.313,4479383.974,-132.431
669852.313,4479333.974,-133.602
669852.313,4479283.974,-135.281
669852.313,4479233.974,-137.134
669852.313,4479183.974,-139.928
669852.313,4479133.974,-141.855
669852.313,4479083.974,-143.564
669852.313,4479033.974,-144.505
669852.313,4478983.974,-145.933
669852.313,4478933.974,-147.744
669852.313,4478883.974,-149.751
669852.313,4478833.974,-152.136
669852.313,4478783.974,-153.653
669852.313,4478733.974,-155.359
669852.313,4478683.974,-157.452
669852.313,4478633.974,-159.179
669852.313,4478583.974,-160.828
669852.313,4478533.974,-162.886
669852.313,4478483.974,-166.081
669852.313,4478433.974,-168.463
669852.313,4478383.974,-170.975
669852.313,4478333.974,-173.487
669852.313,4478283.974,-176.127
669852.313,4478233.974,-179.009
669852.313,4478183.974,-179.845
669852.313,4478133.974,-179.622
669902.313,4482483.974,-39.160
669902.313,4482433.974,-39.832
669902.313,4482383.974,-40.559
669902.313,4482333.974,-41.733
669902.313,4482283.974,-42.365
669902.313,4482233.974,-43.075
669902.313,4482183.974,-44.129
669902.313,4482133.974,-44.936
669902.313,4482083.974,-45.987
669902.313,4482033.974,-47.090
669902.313,4481983.974,-48.111
669902.313,4481933.974,-48.741
669902.313,4481883.974,-49.504
669902.313,4481833.974,-51.061
669902.313,4481783.974,-51.934
669902.313,4481733.974,-52.714
669902.313,4481683.974,-54.000
669902.313,4481633.974,-55.012
669902.313,4481583.974,-56.343
669902.313,4481533.974,-57.456
669902.313,4481483.974,-58.396
669902.313,4481433.974,-59.755
669902.313,4481383.974,-61.068
669902.313,4481333.974,-62.214
669902.313,4481283.974,-63.880
669902.313,4481233.974,-65.103
669902.313,4481183.974,-66.616
669902.313,4481133.974,-68.008
669902.313,4481083.974,-69.041
669902.313,4481033.974,-70.021
669902.313,4480983.974,-71.987
669902.313,4480933.974,-73.331
669902.313,4480883.974,-74.911
669902.313,4480833.974,-76.385
669902.313,4480783.974,-78.036
669902.313,4480733.974,-79.179
669902.313,4480683.974,-80.527
669902.313,4480633.974,-82.220
669902.313,4480583.974,-83.529
669902.313,4480533.974,-85.327
669902.313,4480483.974,-86.934
669902.313,4480433.974,-88.641
669902.313,4480383.974,-90.191
669902.313,4480333.974,-91.401
669902.313,4480283.974,-92.764
669902.313,4480233.974,-94.316
669902.313,4480183.974,-95.913
669902.313,4480133.974,-97.598
669902.313,4480083.974,-101.086
669902.313,4480033.974,-102.745
669902.313,4479983.974,-106.615
669902.313,4479933.974,-110.450
669902.313,4479883.974,-114.019
669902.313,4479833.974,-116.908
669902.313,4479783.974,-119.412
669902.313,4479733.974,-121.141
669902.313,4479683.974,-122.929
669902.313,4479633.974,-124.387
669902.313,4479583.974,-126.239
669902.313,4479533.974,-128.004
669902.313,4479483.974,-130.008
669902.313,4479433.974,-131.664
669902.313,4479383.974,-133.258
669902.313,4479333.974,-134.304
669902.313,4479283.974,-135.412
669902.313,4479233.974,-137.496
669902.313,4479183.974,-139.392
669902.313,4479133.974,-141.259
669902.313,4479083.974,-142.851
669902.313,4479033.974,-143.652
669902.313,4478983.974,-145.117
669902.313,4478933.974,-147.278
669902.313,4478883.974,-149.481
669902.313,4478833.974,-151.478
669902.313,4478783.974,-153.433
669902.313,4478733.974,-155.122
669902.313,4478683.974,-157.229
669902.313,4478633.974,-158.055
669902.313,4478583.974,-160.575
669902.313,4478533.974,-163.058
669902.313,4478483.974,-165.793
669902.313,4478433.974,-168.632
669902.313,4478383.974,-171.526
669902.313,4478333.974,-174.104
669902.313,4478283.974,-176.776
669902.313,4478233.974,-179.158
669902.313,4478183.974,-179.831
669902.313,4478133.974,-179.630
669952.313,4482483.974,-39.696
669952.313,4482433.974,-40.113
669952.313,4482383.974,-41.133
669952.313,4482333.974,-42.041
669952.313,4482283.974,-43.077
669952.313,4482233.974,-43.717
669952.313,4482183.974,-44.649
669952.313,4482133.974,-45.626
669952.313,4482083.974,-46.775
669952.313,4482033.974,-47.846
669952.313,4481983.974,-48.495
669952.313,4481933.974,-49.276
669952.313,4481883.974,-50.524
669952.313,4481833.974,-51.377
669952.313,4481783.974,-52.358
669952.313,4481733.974,-53.204
669952.313,4481683.974,-54.517
669952.313,4481633.974,-55.906
669952.313,4481583.974,-57.010
669952.313,4481533.974,-57.935
669952.313,4481483.974,-59.172
669952.313,4481433.974,-60.305
669952.313,4481383.974,-61.757
669952.313,4481333.974,-62.802
669952.313,4481283.974,-64.406
669952.313,4481233.974,-65.439
669952.313,4481183.974,-66.846
669952.313,4481133.974,-68.058
669952.313,4481083.974,-69.271
669952.313,4481033.974,-70.920
669952.313,4480983.974,-72.262
669952.313,4480933.974,-74.060
669952.313,4480883.974,-75.621
669952.313,4480833.974,-76.837
669952.313,4480783.974,-78.206
669952.313,4480733.974,-79.504
669952.313,4480683.974,-81.037
669952.313,4480633.974,-82.420
669952.313,4480583.974,-84.079
669952.313,4480533.974,-85.939
669952.313,4480483.974,-87.793
669952.313,4480433.974,-88.860
669952.313,4480383.974,-90.133
669952.313,4480333.974,-91.213
669952.313,4480283.974,-92.929
669952.313,4480233.974,-94.606
669952.313,4480183.974,-96.222
669952.313,4480133.974,-98.098
669952.313,4480083.974,-100.147
669952.313,4480033.974,-103.092
669952.313,4479983.974,-106.428
669952.313,4479933.974,-110.696
669952.313,4479883.974,-113.932
669952.313,4479833.974,-117.151
669952.313,4479783.974,-119.488
669952.313,4479733.974,-120.974
669952.313,4479683.974,-123.098
669952.313,4479633.974,-124.216
669952.313,4479583.974,-126.788
669952.313,4479533.974,-128.388
669952.313,4479483.974,-130.545
669952.313,4479433.974,-132.262
669952.313,4479383.974,-133.269
669952.313,4479333.974,-134.443
669952.313,4479283.974,-135.480
669952.313,4479233.974,-137.279
669952.313,4479183.974,-138.922
669952.313,4479133.974,-140.670
669952.313,4479083.974,-142.192
669952.313,4479033.974,-143.310
669952.313,4478983.974,-144.883
669952.313,4478933.974,-146.815
669952.313,4478883.974,-148.932
669952.313,4478833.974,-151.558
669952.313,4478783.974,-153.353
669952.313,4478733.974,-154.894
669952.313,4478683.974,-157.265
669952.313,4478633.974,-159.058
669952.313,4478583.974,-161.189
669952.313,4478533.974,-163.981
669952.313,4478483.974,-166.197
669952.313,4478433.974,-169.072
669952.313,4478383.974,-172.000
669952.313,4478333.974,-175.346
669952.313,4478283.974,-177.153
669952.313,4478233.974,-179.654
669952.313,4478183.974,-179.817
669952.313,4478133.974,-179.639
670002.313,4482433.974,-40.918
670002.313,4482383.974,-41.800
670002.313,4482333.974,-42.585
670002.313,4482283.974,-43.469
670002.313,4482233.974,-44.270
670002.313,4482183.974,-45.245
670002.313,4482133.974,-46.205
670002.313,4482083.974,-47.258
670002.313,4482033.974,-48.088
670002.313,4481983.974,-49.232
670002.313,4481933.974,-50.144
670002.313,4481883.974,-51.146
670002.313,4481833.974,-52.031
670002.313,4481783.974,-52.833
670002.313,4481733.974,-54.097
670002.313,4481683.974,-55.104
670002.313,4481633.974,-56.631
670002.313,4481583.974,-57.389
670002.313,4481533.974,-58.329
670002.313,4481483.974,-59.464
670002.313,4481433.974,-61.086
670002.313,4481383.974,-62.175
670002.313,4481333.974,-63.500
670002.313,4481283.974,-64.690
670002.313,4481233.974,-65.898
670002.313,4481183.974,-66.914
670002.313,4481133.974,-68.759
670002.313,4481083.974,-70.055
670002.313,4481033.974,-71.535
670002.313,4480983.974,-73.091
670002.313,4480933.974,-74.650
670002.313,4480883.974,-75.771
670002.313,4480833.974,-77.153
670002.313,4480783.974,-78.585
670002.313,4480733.974,-79.799
670002.313,4480683.974,-81.304
670002.313,4480633.974,-83.169
670002.313,4480583.974,-84.909
670002.313,4480533.974,-86.857
670002.313,4480483.974,-87.799
670002.313,4480433.974,-88.816
670002.313,4480383.974,-90.152
670002.313,4480333.974,-91.681
670002.313,4480283.974,-92.839
670002.313,4480233.974,-94.812
670002.313,4480183.974,-96.379
670002.313,4480133.974,-97.806
670002.313,4480083.974,-100.119
670002.313,4480033.974,-102.670
670002.313,4479983.974,-106.090
670002.313,4479933.974,-109.994
670002.313,4479883.974,-114.080
670002.313,4479833.974,-117.269
670002.313,4479783.974,-119.683
670002.313,4479733.974,-121.924
670002.313,4479683.974,-123.711
670002.313,4479633.974,-125.207
670002.313,4479583.974,-127.022
670002.313,4479533.974,-128.591
670002.313,4479483.974,-130.285
670002.313,4479433.974,-131.664
670002.313,4479383.974,-132.976
670002.313,4479333.974,-134.264
670002.313,4479283.974,-135.465
670002.313,4479233.974,-137.088
670002.313,4479183.974,-138.589
670002.313,4479133.974,-140.219
670002.313,4479083.974,-141.674
670002.313,4479033.974,-143.028
670002.313,4478983.974,-145.138
670002.313,4478933.974,-147.427
670002.313,4478883.974,-149.356
670002.313,4478833.974,-152.215
670002.313,4478783.974,-153.700
670002.313,4478733.974,-155.915
670002.313,4478683.974,-158.009
670002.313,4478633.974,-159.863
670002.313,4478583.974,-162.117
670002.313,4478533.974,-163.971
670002.313,4478483.974,-167.089
670002.313,4478433.974,-169.720
670002.313,4478383.974,-173.088
670002.313,4478333.974,-175.766
670002.313,4478283.974,-177.727
670002.313,4478233.974,-179.870
670002.313,4478183.974,-179.803
670002.313,4478133.974,-179.647
670052.313,4482383.974,-42.389
670052.313,4482333.974,-43.275
670052.313,4482283.974,-43.968
670052.313,4482233.974,-45.161
670052.313,4482183.974,-45.833
670052.313,4482133.974,-47.017
670052.313,4482083.974,-47.748
670052.313,4482033.974,-48.521
670052.313,4481983.974,-49.523
670052.313,4481933.974,-50.338
670052.313,4481883.974,-51.399
670052.313,4481833.974,-52.432
670052.313,4481783.974,-53.617
670052.313,4481733.974,-54.397
670052.313,4481683.974,-55.943
670052.313,4481633.974,-56.891
670052.313,4481583.974,-57.885
670052.313,4481533.974,-58.778
670052.313,4481483.974,-60.047
670052.313,4481433.974,-61.525
670052.313,4481383.974,-62.507
670052.313,4481333.974,-63.854
670052.313,4481283.974,-64.707
670052.313,4481233.974,-66.411
670052.313,4481183.974,-67.724
670052.313,4481133.974,-69.394
670052.313,4481083.974,-70.621
670052.313,4481033.974,-72.050
670052.313,4480983.974,-73.457
670052.313,4480933.974,-74.776
670052.313,4480883.974,-75.909
670052.313,4480833.974,-77.539
670052.313,4480783.974,-78.847
670052.313,4480733.974,-80.440
670052.313,4480683.974,-81.882
670052.313,4480633.974,-83.834
670052.313,4480583.974,-85.564
670052.313,4480533.974,-86.647
670052.313,4480483.974,-87.893
670052.313,4480433.974,-88.624
670052.313,4480383.974,-89.961
670052.313,4480333.974,-91.704
670052.313,4480283.974,-93.537
670052.313,4480233.974,-95.016
670052.313,4480183.974,-96.652
670052.313,4480133.974,-97.870
670052.313,4480083.974,-99.708
670052.313,4480033.974,-102.210
670052.313,4479983.974,-105.241
670052.313,4479933.974,-108.761
670052.313,4479883.974,-112.926
670052.313,4479833.974,-116.464
670052.313,4479783.974,-119.125
670052.313,4479733.974,-121.140
670052.313,4479683.974,-122.809
670052.313,4479633.974,-124.322
670052.313,4479583.974,-126.170
670052.313,4479533.974,-128.188
670052.313,4479483.974,-130.010
670052.313,4479433.974,-131.092
670052.313,4479383.974,-132.559
670052.313,4479333.974,-134.235
670052.313,4479283.974,-135.548
670052.313,4479233.974,-137.043
670052.313,4479183.974,-138.840
670052.313,4479133.974,-140.389
670052.313,4479083.974,-142.380
670052.313,4479033.974,-143.922
670052.313,4478983.974,-146.058
670052.313,4478933.974,-148.170
670052.313,4478883.974,-149.847
670052.313,4478833.974,-151.884
670052.313,4478783.974,-153.820
670052.313,4478733.974,-155.862
670052.313,4478683.974,-157.658
670052.313,4478633.974,-159.695
670052.313,4478583.974,-161.729
670052.313,4478533.974,-164.484
670052.313,4478483.974,-165.031
670052.313,4478433.974,-169.589
670052.313,4478383.974,-174.146
670052.313,4478333.974,-175.856
670052.313,4478283.974,-177.662
670052.313,4478233.974,-179.384
670052.313,4478183.974,-179.789
670052.313,4478133.974,-179.656
670102.313,4482383.974,-42.978
670102.313,4482333.974,-43.865
670102.313,4482283.974,-44.398
670102.313,4482233.974,-45.268
670102.313,4482183.974,-46.572
670102.313,4482133.974,-47.573
670102.313,4482083.974,-48.281
670102.313,4482033.974,-49.113
670102.313,4481983.974,-50.020
670102.313,4481933.974,-50.854
670102.313,4481883.974,-51.986
670102.313,4481833.974,-52.760
670102.313,4481783.974,-53.872
670102.313,4481733.974,-55.222
670102.313,4481683.974,-56.571
670102.313,4481633.974,-57.344
670102.313,4481583.974,-58.366
670102.313,4481533.974,-59.505
670102.313,4481483.974,-60.713
670102.313,4481433.974,-61.852
670102.313,4481383.974,-62.955
670102.313,4481333.974,-63.981
670102.313,4481283.974,-65.465
670102.313,4481233.974,-66.601
670102.313,4481183.974,-67.990
670102.313,4481133.974,-70.000
670102.313,4481083.974,-71.025
670102.313,4481033.974,-72.412
670102.313,4480983.974,-73.711
670102.313,4480933.974,-74.935
670102.313,4480883.974,-76.555
670102.313,4480833.974,-77.858
670102.313,4480783.974,-79.537
670102.313,4480733.974,-81.536
670102.313,4480683.974,-82.086
670102.313,4480633.974,-83.555
670102.313,4480583.974,-85.596
670102.313,4480533.974,-86.751
670102.313,4480483.974,-87.699
670102.313,4480433.974,-88.697
670102.313,4480383.974,-90.313
670102.313,4480333.974,-92.050
670102.313,4480283.974,-93.291
670102.313,4480233.974,-95.289
670102.313,4480183.974,-96.783
670102.313,4480133.974,-98.121
670102.313,4480083.974,-99.671
670102.313,4480033.974,-102.093
670102.313,4479983.974,-104.654
670102.313,4479933.974,-107.596
670102.313,4479883.974,-111.699
670102.313,4479833.974,-115.384
670102.313,4479783.974,-118.215
670102.313,4479733.974,-120.469
670102.313,4479683.974,-122.065
670102.313,4479633.974,-123.819
670102.313,4479583.974,-125.747
670102.313,4479533.974,-127.981
670102.313,4479483.974,-129.507
670102.313,4479433.974,-130.925
670102.313,4479383.974,-132.592
670102.313,4479333.974,-134.416
670102.313,4479283.974,-136.002
670102.313,4479233.974,-137.652
670102.313,4479183.974,-139.353
670102.313,4479133.974,-140.816
670102.313,4479083.974,-141.956
670102.313,4479033.974,-143.747
670102.313,4478983.974,-144.905
670102.313,4478933.974,-147.403
670102.313,4478883.974,-149.927
670102.313,4478833.974,-151.822
670102.313,4478783.974,-153.560
670102.313,4478733.974,-155.887
670102.313,4478683.974,-157.735
670102.313,4478633.974,-159.395
670102.313,4478583.974,-162.186
670102.313,4478533.974,-165.494
670102.313,4478483.974,-168.803
670102.313,4478433.974,-172.111
670102.313,4478383.974,-175.420
670102.313,4478333.974,-175.889
670102.313,4478283.974,-177.633
670102.313,4478233.974,-179.407
670102.313,4478183.974,-179.775
670152.313,4482383.974,-43.566
670152.313,4482333.974,-44.338
670152.313,4482283.974,-45.167
670152.313,4482233.974,-46.053
670152.313,4482183.974,-47.006
670152.313,4482133.974,-48.092
670152.313,4482083.974,-48.343
670152.313,4482033.974,-49.491
670152.313,4481983.974,-50.645
670152.313,4481933.974,-51.540
