517886.502,4140289.973,-608.347
517886.502,4140189.973,-616.097
517886.502,4140089.973,-630.307
517886.502,4139989.973,-637.827
517886.502,4139889.973,-644.584
517886.502,4139789.973,-649.163
517886.502,4139689.973,-632.491
517886.502,4139589.973,-610.331
517886.502,4139489.973,-615.683
517886.502,4139389.973,-625.830
517886.502,4139289.973,-631.285
517886.502,4139189.973,-639.005
517886.502,4139089.973,-641.455
517886.502,4138989.973,-639.203
517886.502,4138889.973,-638.294
517886.502,4138789.973,-605.572
517886.502,4138689.973,-588.576
517886.502,4138589.973,-603.489
517886.502,4138489.973,-607.700
517886.502,4138389.973,-630.575
517886.502,4138289.973,-652.254
517886.502,4138189.973,-642.230
517886.502,4138089.973,-623.341
517886.502,4137989.973,-596.973
517886.502,4137889.973,-586.374
517886.502,4137789.973,-571.809
517886.502,4137689.973,-561.916
517886.502,4137589.973,-563.896
517886.502,4137489.973,-575.795
517886.502,4137389.973,-574.262
517886.502,4137289.973,-578.245
517886.502,4137189.973,-581.364
517886.502,4137089.973,-581.353
517886.502,4136989.973,-584.524
517886.502,4136889.973,-602.278
517886.502,4136789.973,-638.731
517886.502,4136689.973,-660.425
517886.502,4136589.973,-662.750
517886.502,4136489.973,-660.531
517886.502,4136389.973,-654.515
517886.502,4136289.973,-637.117
517886.502,4136189.973,-605.287
517886.502,4136089.973,-592.213
517886.502,4135989.973,-575.038
517886.502,4135889.973,-560.203
517886.502,4135789.973,-568.248
517886.502,4135689.973,-554.489
517886.502,4135589.973,-563.090
517886.502,4135489.973,-539.165
517886.502,4135389.973,-516.403
517886.502,4135289.973,-505.238
517886.502,4135189.973,-515.043
517886.502,4135089.973,-530.468
517886.502,4134989.973,-532.168
517886.502,4134889.973,-519.621
517886.502,4134789.973,-504.371
517886.502,4134689.973,-486.164
517886.502,4134589.973,-464.757
517886.502,4134489.973,-438.039
517886.502,4134389.973,-411.666
517886.502,4134289.973,-435.188
517886.502,4134189.973,-450.631
517886.502,4134089.973,-442.555
517886.502,4133989.973,-414.436
517886.502,4133889.973,-387.733
517886.502,4133789.973,-381.680
517886.502,4133689.973,-372.434
517886.502,4133589.973,-359.060
517886.502,4133489.973,-360.750
517886.502,4133389.973,-348.100
517886.502,4133289.973,-369.546
517886.502,4133189.973,-344.034
517886.502,4133089.973,-332.308
517886.502,4132989.973,-313.230
517886.502,4132889.973,-285.485
517886.502,4132789.973,-283.231
517886.502,4132689.973,-257.627
517886.502,4132589.973,-233.463
517886.502,4132489.973,-209.849
517886.502,4132389.973,-189.994
517886.502,4132289.973,-166.951
517886.502,4132189.973,-154.382
517886.502,4132089.973,-143.835
517886.502,4131989.973,-129.923
517986.502,4148489.973,-674.299
517986.502,4148389.973,-684.430
517986.502,4148289.973,-705.971
517986.502,4148189.973,-736.570
517986.502,4148089.973,-737.876
517986.502,4147989.973,-737.666
517986.502,4147889.973,-726.556
517986.502,4147789.973,-715.050
517986.502,4147689.973,-691.121
517986.502,4147589.973,-714.296
517986.502,4147489.973,-734.178
517986.502,4147389.973,-751.096
517986.502,4147289.973,-729.435
517986.502,4147189.973,-712.841
517986.502,4147089.973,-697.838
517986.502,4146989.973,-697.419
517986.502,4146889.973,-678.700
517986.502,4146789.973,-649.613
517986.502,4146689.973,-648.698
517986.502,4146589.973,-657.912
517986.502,4146489.973,-669.402
517986.502,4146389.973,-676.451
517986.502,4146289.973,-690.869
517986.502,4146189.973,-699.223
517986.502,4146089.973,-684.019
517986.502,4145989.973,-675.803
517986.502,4145889.973,-699.363
517986.502,4145789.973,-730.191
517986.502,4145689.973,-764.427
517986.502,4145589.973,-778.889
517986.502,4145489.973,-781.758
517986.502,4145389.973,-782.612
517986.502,4145289.973,-781.903
517986.502,4145189.973,-779.146
517986.502,4145089.973,-761.029
517986.502,4144989.973,-744.278
517986.502,4144889.973,-701.340
517986.502,4144789.973,-656.513
517986.502,4144689.973,-643.923
517986.502,4144589.973,-656.769
517986.502,4144489.973,-667.642
517986.502,4144389.973,-673.023
517986.502,4144289.973,-662.395
517986.502,4144189.973,-647.027
517986.502,4144089.973,-646.357
517986.502,4143989.973,-678.957
517986.502,4143889.973,-698.345
517986.502,4143789.973,-713.010
517986.502,4143689.973,-710.219
517986.502,4143589.973,-706.286
517986.502,4143489.973,-705.734
517986.502,4143389.973,-708.094
517986.502,4143289.973,-710.114
517986.502,4143189.973,-715.028
517986.502,4143089.973,-706.157
517986.502,4142989.973,-698.289
517986.502,4142889.973,-696.631
517986.502,4142789.973,-701.038
517986.502,4142689.973,-703.345
517986.502,4142589.973,-704.301
517986.502,4142489.973,-706.420
517986.502,4142389.973,-701.732
517986.502,4142289.973,-683.035
517986.502,4142189.973,-642.161
517986.502,4142089.973,-602.310
517986.502,4141989.973,-579.275
517986.502,4141889.973,-564.201
517986.502,4141789.973,-564.338
517986.502,4141689.973,-573.484
517986.502,4141589.973,-580.492
517986.502,4141489.973,-591.472
517986.502,4141389.973,-595.037
517986.502,4141289.973,-590.641
517986.502,4141189.973,-574.720
517986.502,4141089.973,-566.525
517986.502,4140989.973,-561.659
517986.502,4140889.973,-568.206
517986.502,4140789.973,-587.714
517986.502,4140689.973,-595.230
517986.502,4140589.973,-596.307
517986.502,4140489.973,-606.764
517986.502,4140389.973,-617.843
517986.502,4140289.973,-624.675
517986.502,4140189.973,-638.463
517986.502,4140089.973,-650.113
517986.502,4139989.973,-655.507
517986.502,4139889.973,-655.953
517986.502,4139789.973,-657.389
517986.502,4139689.973,-648.720
517986.502,4139589.973,-625.933
517986.502,4139489.973,-633.425
517986.502,4139389.973,-643.780
517986.502,4139289.973,-644.176
517986.502,4139189.973,-648.897
517986.502,4139089.973,-654.849
517986.502,4138989.973,-652.680
517986.502,4138889.973,-653.504
517986.502,4138789.973,-627.504
517986.502,4138689.973,-607.169
517986.502,4138589.973,-625.267
517986.502,4138489.973,-629.439
517986.502,4138389.973,-670.409
517986.502,4138289.973,-679.142
517986.502,4138189.973,-667.099
517986.502,4138089.973,-640.635
517986.502,4137989.973,-610.287
517986.502,4137889.973,-596.512
517986.502,4137789.973,-589.681
517986.502,4137689.973,-582.342
517986.502,4137589.973,-576.447
517986.502,4137489.973,-592.151
517986.502,4137389.973,-596.486
517986.502,4137289.973,-598.042
517986.502,4137189.973,-597.629
517986.502,4137089.973,-597.038
517986.502,4136989.973,-600.693
517986.502,4136889.973,-613.604
517986.502,4136789.973,-652.670
517986.502,4136689.973,-672.917
517986.502,4136589.973,-674.981
517986.502,4136489.973,-669.057
517986.502,4136389.973,-660.418
517986.502,4136289.973,-636.635
517986.502,4136189.973,-612.746
517986.502,4136089.973,-604.337
517986.502,4135989.973,-583.561
517986.502,4135889.973,-582.067
517986.502,4135789.973,-585.517
517986.502,4135689.973,-581.651
517986.502,4135589.973,-567.571
517986.502,4135489.973,-544.379
517986.502,4135389.973,-527.838
517986.502,4135289.973,-525.797
517986.502,4135189.973,-536.553
517986.502,4135089.973,-550.335
517986.502,4134989.973,-543.605
517986.502,4134889.973,-525.194
517986.502,4134789.973,-501.499
517986.502,4134689.973,-473.212
517986.502,4134589.973,-448.809
517986.502,4134489.973,-429.966
517986.502,4134389.973,-444.069
517986.502,4134289.973,-472.238
517986.502,4134189.973,-474.263
517986.502,4134089.973,-441.422
517986.502,4133989.973,-416.412
517986.502,4133889.973,-404.310
517986.502,4133789.973,-411.236
517986.502,4133689.973,-392.303
517986.502,4133589.973,-383.904
517986.502,4133489.973,-385.821
517986.502,4133389.973,-371.080
517986.502,4133289.973,-390.575
517986.502,4133189.973,-367.017
517986.502,4133089.973,-347.133
517986.502,4132989.973,-330.780
517986.502,4132889.973,-317.861
517986.502,4132789.973,-290.922
517986.502,4132689.973,-278.027
517986.502,4132589.973,-254.018
517986.502,4132489.973,-230.410
517986.502,4132389.973,-207.020
517986.502,4132289.973,-195.959
517986.502,4132189.973,-176.950
517986.502,4132089.973,-153.660
517986.502,4131989.973,-141.066
517986.502,4131889.973,-124.477
518086.502,4148489.973,-693.096
518086.502,4148389.973,-701.012
518086.502,4148289.973,-715.526
518086.502,4148189.973,-747.092
518086.502,4148089.973,-748.569
518086.502,4147989.973,-746.910
518086.502,4147889.973,-744.564
518086.502,4147789.973,-728.169
518086.502,4147689.973,-702.661
518086.502,4147589.973,-721.416
518086.502,4147489.973,-744.254
518086.502,4147389.973,-772.249
518086.502,4147289.973,-746.365
518086.502,4147189.973,-729.867
518086.502,4147089.973,-705.472
518086.502,4146989.973,-704.470
518086.502,4146889.973,-688.432
518086.502,4146789.973,-661.652
518086.502,4146689.973,-660.220
518086.502,4146589.973,-669.791
518086.502,4146489.973,-680.783
518086.502,4146389.973,-692.684
518086.502,4146289.973,-705.365
518086.502,4146189.973,-717.356
518086.502,4146089.973,-704.129
518086.502,4145989.973,-693.528
518086.502,4145889.973,-697.259
518086.502,4145789.973,-724.808
518086.502,4145689.973,-766.945
518086.502,4145589.973,-790.753
518086.502,4145489.973,-790.106
518086.502,4145389.973,-794.668
518086.502,4145289.973,-794.752
518086.502,4145189.973,-791.480
518086.502,4145089.973,-780.340
518086.502,4144989.973,-743.718
518086.502,4144889.973,-696.802
518086.502,4144789.973,-662.546
518086.502,4144689.973,-658.188
518086.502,4144589.973,-669.453
518086.502,4144489.973,-674.080
518086.502,4144389.973,-680.299
518086.502,4144289.973,-662.471
518086.502,4144189.973,-647.057
518086.502,4144089.973,-651.445
518086.502,4143989.973,-680.944
518086.502,4143889.973,-706.621
518086.502,4143789.973,-722.118
518086.502,4143689.973,-723.101
518086.502,4143589.973,-717.061
518086.502,4143489.973,-713.982
518086.502,4143389.973,-720.628
518086.502,4143289.973,-721.417
518086.502,4143189.973,-726.878
518086.502,4143089.973,-719.356
518086.502,4142989.973,-715.261
518086.502,4142889.973,-709.155
518086.502,4142789.973,-717.387
518086.502,4142689.973,-712.968
518086.502,4142589.973,-717.285
518086.502,4142489.973,-718.341
518086.502,4142389.973,-708.206
518086.502,4142289.973,-670.900
518086.502,4142189.973,-635.566
518086.502,4142089.973,-607.423
518086.502,4141989.973,-585.874
518086.502,4141889.973,-573.696
518086.502,4141789.973,-577.538
518086.502,4141689.973,-583.168
518086.502,4141589.973,-597.041
518086.502,4141489.973,-604.360
518086.502,4141389.973,-609.313
518086.502,4141289.973,-614.688
518086.502,4141189.973,-592.731
518086.502,4141089.973,-580.757
518086.502,4140989.973,-574.416
518086.502,4140889.973,-580.545
518086.502,4140789.973,-597.429
518086.502,4140689.973,-608.718
518086.502,4140589.973,-617.090
518086.502,4140489.973,-617.882
518086.502,4140389.973,-630.582
518086.502,4140289.973,-640.508
518086.502,4140189.973,-657.501
518086.502,4140089.973,-662.814
518086.502,4139989.973,-668.258
518086.502,4139889.973,-663.846
518086.502,4139789.973,-667.843
518086.502,4139689.973,-658.406
518086.502,4139589.973,-645.300
518086.502,4139489.973,-648.390
518086.502,4139389.973,-659.973
518086.502,4139289.973,-657.617
518086.502,4139189.973,-660.469
518086.502,4139089.973,-669.111
518086.502,4138989.973,-669.665
518086.502,4138889.973,-664.140
518086.502,4138789.973,-636.411
518086.502,4138689.973,-622.831
518086.502,4138589.973,-650.635
518086.502,4138489.973,-658.175
518086.502,4138389.973,-677.724
518086.502,4138289.973,-696.740
518086.502,4138189.973,-684.157
518086.502,4138089.973,-649.335
518086.502,4137989.973,-622.424
518086.502,4137889.973,-611.614
518086.502,4137789.973,-603.364
518086.502,4137689.973,-597.875
518086.502,4137589.973,-591.211
518086.502,4137489.973,-605.756
518086.502,4137389.973,-616.405
518086.502,4137289.973,-622.854
518086.502,4137189.973,-620.465
518086.502,4137089.973,-615.361
518086.502,4136989.973,-616.827
518086.502,4136889.973,-633.009
518086.502,4136789.973,-662.937
518086.502,4136689.973,-686.114
518086.502,4136589.973,-683.503
518086.502,4136489.973,-678.888
518086.502,4136389.973,-666.390
518086.502,4136289.973,-646.146
518086.502,4136189.973,-629.622
518086.502,4136089.973,-616.842
518086.502,4135989.973,-603.717
518086.502,4135889.973,-602.477
518086.502,4135789.973,-597.215
518086.502,4135689.973,-594.150
518086.502,4135589.973,-567.396
518086.502,4135489.973,-547.803
518086.502,4135389.973,-548.876
518086.502,4135289.973,-557.726
518086.502,4135189.973,-561.696
518086.502,4135089.973,-565.689
518086.502,4134989.973,-546.080
518086.502,4134889.973,-525.351
518086.502,4134789.973,-497.567
518086.502,4134689.973,-482.947
518086.502,4134589.973,-463.704
518086.502,4134489.973,-445.821
518086.502,4134389.973,-471.799
518086.502,4134289.973,-496.952
518086.502,4134189.973,-466.870
518086.502,4134089.973,-445.282
518086.502,4133989.973,-428.720
518086.502,4133889.973,-433.512
518086.502,4133789.973,-438.867
518086.502,4133689.973,-403.380
518086.502,4133589.973,-411.575
518086.502,4133489.973,-413.159
518086.502,4133389.973,-404.277
518086.502,4133289.973,-399.997
518086.502,4133189.973,-388.839
518086.502,4133089.973,-360.272
518086.502,4132989.973,-336.029
518086.502,4132889.973,-314.683
518086.502,4132789.973,-291.564
518086.502,4132689.973,-279.569
518086.502,4132589.973,-265.331
518086.502,4132489.973,-246.646
518086.502,4132389.973,-232.591
518086.502,4132289.973,-208.565
518086.502,4132189.973,-188.502
518086.502,4132089.973,-157.438
518086.502,4131989.973,-125.244
518186.502,4148489.973,-703.520
518186.502,4148389.973,-714.854
518186.502,4148289.973,-727.604
518186.502,4148189.973,-755.514
518186.502,4148089.973,-759.361
518186.502,4147989.973,-758.478
518186.502,4147889.973,-756.461
518186.502,4147789.973,-742.159
518186.502,4147689.973,-718.063
518186.502,4147589.973,-729.905
518186.502,4147489.973,-754.463
518186.502,4147389.973,-775.445
518186.502,4147289.973,-761.701
518186.502,4147189.973,-739.504
518186.502,4147089.973,-716.500
518186.502,4146989.973,-707.435
518186.502,4146889.973,-694.613
518186.502,4146789.973,-675.719
518186.502,4146689.973,-665.049
518186.502,4146589.973,-677.763
518186.502,4146489.973,-690.248
518186.502,4146389.973,-697.627
518186.502,4146289.973,-719.094
518186.502,4146189.973,-730.113
518186.502,4146089.973,-723.076
518186.502,4145989.973,-720.694
518186.502,4145889.973,-706.158
518186.502,4145789.973,-723.718
518186.502,4145689.973,-766.596
518186.502,4145589.973,-795.753
518186.502,4145489.973,-798.863
518186.502,4145089.973,-787.085
518186.502,4144989.973,-754.113
518186.502,4144889.973,-714.816
518186.502,4144789.973,-683.800
518186.502,4144689.973,-672.364
518186.502,4144589.973,-686.181
518186.502,4144489.973,-692.595
518186.502,4144389.973,-678.849
518186.502,4144289.973,-660.020
518186.502,4144189.973,-646.530
518186.502,4144089.973,-661.493
518186.502,4143989.973,-689.259
518186.502,4143889.973,-707.994
518186.502,4143789.973,-727.498
518186.502,4143689.973,-735.260
518186.502,4143589.973,-729.462
518186.502,4143489.973,-729.800
518186.502,4143389.973,-733.554
518186.502,4143289.973,-734.408
518186.502,4143189.973,-738.366
518186.502,4143089.973,-735.800
518186.502,4142989.973,-729.528
518186.502,4142889.973,-737.649
518186.502,4142789.973,-730.050
518186.502,4142689.973,-731.400
518186.502,4142589.973,-735.391
518186.502,4142489.973,-748.714
518186.502,4142389.973,-710.180
518186.502,4142289.973,-670.222
518186.502,4142189.973,-645.197
518186.502,4142089.973,-631.426
518186.502,4141989.973,-611.245
518186.502,4141889.973,-595.132
518186.502,4141789.973,-597.479
518186.502,4141689.973,-602.904
518186.502,4141589.973,-612.646
518186.502,4141489.973,-624.055
518186.502,4141389.973,-631.492
518186.502,4141289.973,-630.345
518186.502,4141189.973,-609.296
518186.502,4141089.973,-599.854
518186.502,4140989.973,-588.215
518186.502,4140889.973,-592.972
518186.502,4140789.973,-606.368
518186.502,4140689.973,-619.889
518186.502,4140589.973,-626.621
518186.502,4140489.973,-634.164
518186.502,4140389.973,-639.942
518186.502,4140289.973,-654.213
518186.502,4140189.973,-663.472
518186.502,4140089.973,-671.454
518186.502,4139989.973,-673.599
518186.502,4139889.973,-671.602
518186.502,4139789.973,-678.233
518186.502,4139689.973,-674.468
518186.502,4139589.973,-662.296
518186.502,4139489.973,-666.353
518186.502,4139389.973,-673.341
518186.502,4139289.973,-674.802
518186.502,4139189.973,-675.991
518186.502,4139089.973,-684.912
518186.502,4138989.973,-680.503
518186.502,4138889.973,-675.273
518186.502,4138789.973,-644.571
518186.502,4138689.973,-641.916
518186.502,4138589.973,-670.741
518186.502,4138489.973,-681.799
518186.502,4138389.973,-696.678
518186.502,4138289.973,-707.291
518186.502,4138189.973,-690.712
518186.502,4138089.973,-647.743
518186.502,4137989.973,-631.126
518186.502,4137889.973,-624.775
518186.502,4137789.973,-615.501
518186.502,4137689.973,-610.710
518186.502,4137589.973,-602.397
518186.502,4137489.973,-620.083
518186.502,4137389.973,-633.187
518186.502,4137289.973,-643.692
518186.502,4137189.973,-642.918
518186.502,4137089.973,-636.027
518186.502,4136989.973,-634.609
518186.502,4136889.973,-645.846
518186.502,4136789.973,-675.022
518186.502,4136689.973,-699.082
518186.502,4136589.973,-694.775
518186.502,4136489.973,-689.905
518186.502,4136389.973,-677.808
518186.502,4136289.973,-658.390
518186.502,4136189.973,-644.928
518186.502,4136089.973,-629.437
518186.502,4135989.973,-621.933
518186.502,4135889.973,-626.630
518186.502,4135789.973,-620.610
518186.502,4135689.973,-590.567
518186.502,4135589.973,-571.526
518186.502,4135489.973,-562.893
518186.502,4135389.973,-570.766
518186.502,4135289.973,-576.938
518186.502,4135189.973,-585.611
518186.502,4135089.973,-577.880
518186.502,4134989.973,-551.135
518186.502,4134889.973,-532.871
518186.502,4134789.973,-523.397
518186.502,4134689.973,-494.138
518186.502,4134589.973,-466.938
518186.502,4134489.973,-472.476
518186.502,4134389.973,-507.590
518186.502,4134289.973,-504.090
518186.502,4134189.973,-476.453
518186.502,4134089.973,-470.724
518186.502,4133989.973,-443.756
518186.502,4133889.973,-456.937
518186.502,4133789.973,-446.057
518186.502,4133689.973,-435.750
518186.502,4133589.973,-430.356
518186.502,4133489.973,-428.960
518186.502,4133389.973,-414.131
518186.502,4133289.973,-387.690
518186.502,4133189.973,-358.937
518186.502,4133089.973,-339.662
518186.502,4132989.973,-315.348
518186.502,4132889.973,-292.870
518186.502,4132789.973,-269.866
518186.502,4132689.973,-253.198
518186.502,4132589.973,-235.783
518186.502,4132489.973,-217.094
518186.502,4132389.973,-209.235
518186.502,4132289.973,-187.952
518186.502,4132189.973,-175.580
518186.502,4132089.973,-145.996
518186.502,4131989.973,-124.272
518286.502,4148489.973,-718.330
518286.502,4148389.973,-729.441
518286.502,4148289.973,-735.112
518286.502,4148189.973,-767.083
518286.502,4148089.973,-771.163
518286.502,4147989.973,-777.856
518286.502,4147889.973,-770.037
518286.502,4147789.973,-752.301
518286.502,4147689.973,-739.039
518286.502,4147589.973,-743.707
518286.502,4147489.973,-761.657
518286.502,4147389.973,-782.024
518286.502,4147289.973,-775.630
518286.502,4147189.973,-752.709
518286.502,4147089.973,-725.681
518286.502,4146989.973,-707.651
518286.502,4146889.973,-696.502
518286.502,4146789.973,-685.099
518286.502,4146689.973,-672.325
518286.502,4146589.973,-684.875
518286.502,4146489.973,-695.529
518286.502,4146389.973,-708.592
518286.502,4146289.973,-720.194
518286.502,4146189.973,-740.059
518286.502,4146089.973,-741.822
518286.502,4145989.973,-733.089
518286.502,4145889.973,-713.880
518286.502,4145789.973,-736.112
518286.502,4145689.973,-762.996
518286.502,4145589.973,-793.924
518286.502,4144989.973,-783.985
518286.502,4144889.973,-734.390
518286.502,4144789.973,-696.771
518286.502,4144689.973,-687.517
518286.502,4144589.973,-703.798
518286.502,4144489.973,-711.235
518286.502,4144389.973,-680.690
518286.502,4144289.973,-658.715
518286.502,4144189.973,-650.360
518286.502,4144089.973,-671.794
518286.502,4143989.973,-694.395
518286.502,4143889.973,-707.589
518286.502,4143789.973,-737.167
518286.502,4143689.973,-742.667
518286.502,4143589.973,-746.910
518286.502,4143489.973,-742.517
518286.502,4143389.973,-747.403
518286.502,4143289.973,-749.841
518286.502,4143189.973,-753.247
518286.502,4143089.973,-753.299
518286.502,4142989.973,-743.776
518286.502,4142889.973,-751.052
518286.502,4142789.973,-737.748
518286.502,4142689.973,-749.416
518286.502,4142589.973,-775.287
518286.502,4142489.973,-769.064
518286.502,4142389.973,-729.140
518286.502,4142289.973,-700.379
518286.502,4142189.973,-670.815
518286.502,4142089.973,-638.913
518286.502,4141989.973,-612.651
518286.502,4141889.973,-608.276
518286.502,4141789.973,-607.526
518286.502,4141689.973,-612.385
518286.502,4141589.973,-623.488
518286.502,4141489.973,-648.551
518286.502,4141389.973,-652.523
518286.502,4141289.973,-643.143
518286.502,4141189.973,-629.266
518286.502,4141089.973,-614.825
518286.502,4140989.973,-603.664
518286.502,4140889.973,-609.055
518286.502,4140789.973,-617.649
518286.502,4140689.973,-627.667
518286.502,4140589.973,-640.147
518286.502,4140489.973,-648.986
518286.502,4140389.973,-651.081
518286.502,4140289.973,-664.261
518286.502,4140189.973,-678.139
518286.502,4140089.973,-681.518
518286.502,4139989.973,-683.045
518286.502,4139889.973,-686.507
518286.502,4139789.973,-702.655
518286.502,4139689.973,-691.573
518286.502,4139589.973,-679.602
518286.502,4139489.973,-676.307
518286.502,4139389.973,-687.116
518286.502,4139289.973,-685.895
518286.502,4139189.973,-691.190
518286.502,4139089.973,-697.272
518286.502,4138989.973,-694.709
518286.502,4138889.973,-686.708
518286.502,4138789.973,-661.008
518286.502,4138689.973,-660.784
518286.502,4138589.973,-684.537
518286.502,4138489.973,-706.950
518286.502,4138389.973,-712.319
518286.502,4138289.973,-728.169
518286.502,4138189.973,-692.040
518286.502,4138089.973,-657.492
518286.502,4137989.973,-654.512
518286.502,4137889.973,-642.136
518286.502,4137789.973,-628.269
518286.502,4137689.973,-623.228
518286.502,4137589.973,-612.543
518286.502,4137489.973,-632.595
518286.502,4137389.973,-648.786
518286.502,4137289.973,-655.083
518286.502,4137189.973,-657.139
518286.502,4137089.973,-653.917
518286.502,4136989.973,-646.322
518286.502,4136889.973,-658.299
518286.502,4136789.973,-693.096
518286.502,4136689.973,-709.176
518286.502,4136589.973,-706.142
518286.502,4136489.973,-701.258
518286.502,4136389.973,-688.746
518286.502,4136289.973,-670.296
518286.502,4136189.973,-655.597
518286.502,4136089.973,-650.135
518286.502,4135989.973,-642.821
518286.502,4135889.973,-635.109
518286.502,4135789.973,-604.309
518286.502,4135689.973,-580.802
518286.502,4135589.973,-586.406
518286.502,4135489.973,-586.634
518286.502,4135389.973,-598.690
518286.502,4135289.973,-596.737
518286.502,4135189.973,-599.391
518286.502,4135089.973,-581.364
518286.502,4134989.973,-557.313
518286.502,4134889.973,-540.073
518286.502,4134789.973,-517.504
518286.502,4134689.973,-489.943
518286.502,4134589.973,-486.374
518286.502,4134489.973,-493.752
518286.502,4134389.973,-532.353
518286.502,4134289.973,-511.983
518286.502,4134189.973,-502.038
518286.502,4134089.973,-472.478
518286.502,4133989.973,-476.269
518286.502,4133889.973,-482.356
518286.502,4133789.973,-473.044
518286.502,4133689.973,-464.017
518286.502,4133589.973,-449.953
518286.502,4133489.973,-434.758
518286.502,4133389.973,-420.272
518286.502,4133289.973,-399.329
518286.502,4133189.973,-379.162
518286.502,4133089.973,-354.314
518286.502,4132989.973,-324.600
518286.502,4132889.973,-305.712
518286.502,4132789.973,-277.086
518286.502,4132689.973,-253.109
518286.502,4132589.973,-226.361
518286.502,4132489.973,-212.514
518286.502,4132389.973,-183.452
518286.502,4132289.973,-167.201
518286.502,4132189.973,-150.061
518286.502,4132089.973,-124.749
518386.502,4148489.973,-725.067
518386.502,4148389.973,-742.871
518386.502,4148289.973,-752.509
518386.502,4148189.973,-780.819
518386.502,4148089.973,-783.686
518386.502,4147989.973,-782.160
518386.502,4147889.973,-783.502
518386.502,4147789.973,-764.421
518386.502,4147689.973,-754.545
518386.502,4147589.973,-759.559
518386.502,4147489.973,-769.953
518386.502,4147389.973,-791.236
518386.502,4147289.973,-786.001
518386.502,4147189.973,-762.084
518386.502,4147089.973,-730.953
518386.502,4146989.973,-719.267
518386.502,4146889.973,-705.017
518386.502,4146789.973,-688.416
518386.502,4146689.973,-694.177
518386.502,4146589.973,-685.838
518386.502,4146489.973,-703.234
518386.502,4146389.973,-717.019
518386.502,4146289.973,-732.726
518386.502,4146189.973,-746.137
518386.502,4146089.973,-755.069
518386.502,4145989.973,-743.916
518386.502,4145889.973,-725.207
518386.502,4145789.973,-733.627
518386.502,4145689.973,-765.271
518386.502,4145589.973,-791.147
518386.502,4144989.973,-785.003
518386.502,4144889.973,-743.839
518386.502,4144789.973,-713.325
518386.502,4144689.973,-714.647
518386.502,4144589.973,-717.974
518386.502,4144489.973,-705.889
518386.502,4144389.973,-678.606
518386.502,4144289.973,-662.391
518386.502,4144189.973,-653.571
518386.502,4144089.973,-674.927
518386.502,4143989.973,-702.627
518386.502,4143889.973,-712.989
518386.502,4143789.973,-741.679
518386.502,4143689.973,-751.324
518386.502,4143589.973,-758.133
518386.502,4143489.973,-760.423
518386.502,4143389.973,-760.111
518386.502,4143289.973,-768.642
518386.502,4143189.973,-771.273
518386.502,4143089.973,-767.640
518386.502,4142989.973,-767.144
518386.502,4142889.973,-756.654
518386.502,4142789.973,-755.044
518386.502,4142689.973,-783.201
518386.502,4142589.973,-791.557
518386.502,4142489.973,-770.762
518386.502,4142389.973,-732.703
518386.502,4142289.973,-695.200
518386.502,4142189.973,-666.701
518386.502,4142089.973,-646.283
518386.502,4141989.973,-618.498
518386.502,4141889.973,-622.060
518386.502,4141789.973,-623.392
518386.502,4141689.973,-624.140
518386.502,4141589.973,-633.484
518386.502,4141489.973,-654.651
518386.502,4141389.973,-667.835
518386.502,4141289.973,-657.349
518386.502,4141189.973,-640.144
518386.502,4141089.973,-626.336
518386.502,4140989.973,-617.700
518386.502,4140889.973,-614.028
518386.502,4140789.973,-628.309
518386.502,4140689.973,-643.205
518386.502,4140589.973,-656.688
518386.502,4140489.973,-667.484
518386.502,4140389.973,-673.106
518386.502,4140289.973,-665.793
518386.502,4140189.973,-684.937
518386.502,4140089.973,-692.314
518386.502,4139989.973,-699.002
518386.502,4139889.973,-699.774
518386.502,4139789.973,-713.385
518386.502,4139689.973,-704.600
518386.502,4139589.973,-694.623
518386.502,4139489.973,-688.173
518386.502,4139389.973,-694.221
518386.502,4139289.973,-699.464
518386.502,4139189.973,-705.796
518386.502,4139089.973,-709.589
518386.502,4138989.973,-708.250
518386.502,4138889.973,-706.219
518386.502,4138789.973,-680.828
518386.502,4138689.973,-684.709
518386.502,4138589.973,-691.043
518386.502,4138489.973,-720.500
518386.502,4138389.973,-733.306
518386.502,4138289.973,-741.646
518386.502,4138189.973,-698.175
518386.502,4138089.973,-679.998
518386.502,4137989.973,-687.379
518386.502,4137889.973,-669.967
518386.502,4137789.973,-646.225
518386.502,4137689.973,-638.574
518386.502,4137589.973,-620.683
518386.502,4137489.973,-644.063
518386.502,4137389.973,-659.157
518386.502,4137289.973,-666.500
518386.502,4137189.973,-671.122
518386.502,4137089.973,-666.574
518386.502,4136989.973,-658.296
518386.502,4136889.973,-676.399
518386.502,4136789.973,-702.577
518386.502,4136689.973,-718.983
518386.502,4136589.973,-717.549
518386.502,4136489.973,-716.168
518386.502,4136389.973,-705.569
518386.502,4136289.973,-684.873
518386.502,4136189.973,-671.356
518386.502,4136089.973,-668.344
518386.502,4135989.973,-650.590
518386.502,4135889.973,-620.310
518386.502,4135789.973,-597.701
518386.502,4135689.973,-612.074
518386.502,4135589.973,-607.700
518386.502,4135489.973,-610.158
518386.502,4135389.973,-614.404
518386.502,4135289.973,-618.036
518386.502,4135189.973,-609.195
518386.502,4135089.973,-585.524
518386.502,4134989.973,-557.160
518386.502,4134889.973,-529.529
518386.502,4134789.973,-510.662
518386.502,4134689.973,-522.124
518386.502,4134589.973,-517.702
518386.502,4134489.973,-518.214
518386.502,4134389.973,-551.313
518386.502,4134289.973,-530.756
518386.502,4134189.973,-503.252
518386.502,4134089.973,-499.850
518386.502,4133989.973,-501.071
518386.502,4133889.973,-494.061
518386.502,4133789.973,-486.194
518386.502,4133689.973,-471.209
518386.502,4133589.973,-453.088
518386.502,4133489.973,-425.298
518386.502,4133389.973,-394.956
518386.502,4133289.973,-389.221
518386.502,4133189.973,-381.505
518386.502,4133089.973,-364.522
518386.502,4132989.973,-332.402
518386.502,4132889.973,-308.857
518386.502,4132789.973,-280.812
518386.502,4132689.973,-273.346
518386.502,4132589.973,-249.983
518386.502,4132489.973,-231.258
518386.502,4132389.973,-200.606
518386.502,4132289.973,-158.671
518386.502,4132189.973,-127.679
518486.502,4148489.973,-744.098
518486.502,4148389.973,-755.546
518486.502,4148289.973,-766.162
518486.502,4148189.973,-787.087
518486.502,4148089.973,-790.510
518486.502,4147989.973,-787.044
518486.502,4147889.973,-791.061
518486.502,4147789.973,-774.238
518486.502,4147689.973,-766.231
518486.502,4147589.973,-768.259
518486.502,4147489.973,-783.321
518486.502,4147389.973,-796.893
518486.502,4147289.973,-789.073
518486.502,4147189.973,-759.186
518486.502,4147089.973,-747.831
518486.502,4146989.973,-725.156
518486.502,4146889.973,-715.803
518486.502,4146789.973,-723.750
518486.502,4146689.973,-719.738
518486.502,4146589.973,-706.360
518486.502,4146489.973,-708.794
518486.502,4146389.973,-724.274
518486.502,4146289.973,-737.126
518486.502,4146189.973,-755.081
518486.502,4146089.973,-761.962
518486.502,4145989.973,-755.222
518486.502,4145889.973,-735.968
518486.502,4145789.973,-746.975
518486.502,4145689.973,-768.775
518486.502,4145589.973,-796.546
518486.502,4144989.973,-782.894
518486.502,4144889.973,-765.040
518486.502,4144789.973,-743.580
518486.502,4144689.973,-729.612
518486.502,4144589.973,-727.067
518486.502,4144489.973,-704.219
518486.502,4144389.973,-676.143
518486.502,4144289.973,-665.528
518486.502,4144189.973,-669.647
518486.502,4144089.973,-679.594
518486.502,4143989.973,-708.256
518486.502,4143889.973,-726.538
518486.502,4143789.973,-752.018
518486.502,4143689.973,-763.038
518486.502,4143589.973,-770.815
518486.502,4143489.973,-774.076
518486.502,4143389.973,-773.300
518486.502,4143289.973,-788.852
518486.502,4143189.973,-788.683
518486.502,4143089.973,-797.072
518486.502,4142989.973,-787.709
518486.502,4142889.973,-765.398
518486.502,4142789.973,-777.785
518486.502,4142689.973,-796.087
518486.502,4142589.973,-795.736
518486.502,4142489.973,-780.026
518486.502,4142389.973,-739.301
518486.502,4142289.973,-687.419
518486.502,4142189.973,-664.711
518486.502,4142089.973,-653.929
518486.502,4141989.973,-636.907
518486.502,4141889.973,-643.829
518486.502,4141789.973,-640.096
518486.502,4141689.973,-632.807
518486.502,4141589.973,-643.903
518486.502,4141489.973,-661.736
518486.502,4141389.973,-680.514
518486.502,4141289.973,-672.574
518486.502,4141189.973,-659.417
518486.502,4141089.973,-641.384
518486.502,4140989.973,-629.672
518486.502,4140889.973,-623.539
518486.502,4140789.973,-645.303
518486.502,4140689.973,-657.682
518486.502,4140589.973,-668.681
518486.502,4140489.973,-680.253
518486.502,4140389.973,-687.997
518486.502,4140289.973,-678.526
518486.502,4140189.973,-684.517
518486.502,4140089.973,-702.233
518486.502,4139989.973,-710.181
518486.502,4139889.973,-712.351
518486.502,4139789.973,-725.101
518486.502,4139689.973,-714.991
518486.502,4139589.973,-707.619
518486.502,4139489.973,-699.779
518486.502,4139389.973,-706.755
518486.502,4139289.973,-714.551
518486.502,4139189.973,-715.354
518486.502,4139089.973,-722.185
518486.502,4138989.973,-724.093
518486.502,4138889.973,-719.816
518486.502,4138789.973,-697.973
518486.502,4138689.973,-702.707
518486.502,4138589.973,-710.780
518486.502,4138489.973,-736.355
518486.502,4138389.973,-752.583
518486.502,4138289.973,-752.098
518486.502,4138189.973,-722.612
518486.502,4138089.973,-702.354
518486.502,4137989.973,-709.018
518486.502,4137889.973,-685.765
518486.502,4137789.973,-668.317
518486.502,4137689.973,-659.235
518486.502,4137589.973,-638.408
518486.502,4137489.973,-657.706
518486.502,4137389.973,-676.221
518486.502,4137289.973,-685.079
518486.502,4137189.973,-688.668
518486.502,4137089.973,-680.570
518486.502,4136989.973,-670.133
518486.502,4136889.973,-693.680
518486.502,4136789.973,-714.958
518486.502,4136689.973,-730.461
518486.502,4136589.973,-727.631
518486.502,4136489.973,-728.200
518486.502,4136389.973,-718.075
518486.502,4136289.973,-701.123
518486.502,4136189.973,-691.456
518486.502,4136089.973,-668.396
518486.502,4135989.973,-652.976
518486.502,4135889.973,-632.913
518486.502,4135789.973,-618.763
518486.502,4135689.973,-633.367
518486.502,4135589.973,-631.627
518486.502,4135489.973,-629.262
518486.502,4135389.973,-633.845
518486.502,4135289.973,-627.810
518486.502,4135189.973,-610.704
518486.502,4135089.973,-587.124
518486.502,4134989.973,-559.167
518486.502,4134889.973,-528.370
518486.502,4134789.973,-538.768
518486.502,4134689.973,-552.045
518486.502,4134589.973,-532.801
518486.502,4134489.973,-553.789
518486.502,4134389.973,-563.070
518486.502,4134289.973,-538.901
518486.502,4134189.973,-536.532
518486.502,4134089.973,-526.865
518486.502,4133989.973,-516.787
518486.502,4133889.973,-504.442
518486.502,4133789.973,-485.008
518486.502,4133689.973,-465.446
518486.502,4133589.973,-439.616
518486.502,4133489.973,-426.879
518486.502,4133389.973,-392.139
518486.502,4133289.973,-357.199
518486.502,4133189.973,-352.274
518486.502,4133089.973,-346.650
518486.502,4132989.973,-341.602
518486.502,4132889.973,-321.290
518486.502,4132789.973,-304.678
518486.502,4132689.973,-283.257
518486.502,4132589.973,-253.989
518486.502,4132489.973,-219.634
518486.502,4132389.973,-196.032
518486.502,4132289.973,-165.764
518486.502,4132189.973,-127.216
518586.502,4148489.973,-756.677
518586.502,4148389.973,-769.227
518586.502,4148289.973,-776.033
518586.502,4148189.973,-797.751
518586.502,4147989.973,-798.718
518586.502,4147889.973,-799.653
518586.502,4147789.973,-786.940
518586.502,4147689.973,-777.717
518586.502,4147589.973,-776.989
518586.502,4147489.973,-795.225
518586.502,4147289.973,-794.255
518586.502,4147189.973,-772.332
518586.502,4147089.973,-754.009
518586.502,4146989.973,-753.918
518586.502,4146889.973,-749.923
518586.502,4146789.973,-742.464
518586.502,4146689.973,-744.656
518586.502,4146589.973,-737.304
518586.502,4146489.973,-720.710
518586.502,4146389.973,-731.723
518586.502,4146289.973,-742.638
518586.502,4146189.973,-759.182
518586.502,4146089.973,-770.621
518586.502,4145989.973,-767.602
518586.502,4145889.973,-749.848
518586.502,4145789.973,-754.994
518586.502,4145689.973,-780.341
518586.502,4144989.973,-798.170
518586.502,4144889.973,-798.009
518586.502,4144789.973,-769.897
518586.502,4144689.973,-758.840
518586.502,4144589.973,-730.490
518586.502,4144489.973,-707.717
518586.502,4144389.973,-697.152
518586.502,4144289.973,-679.043
518586.502,4144189.973,-692.646
518586.502,4144089.973,-694.127
518586.502,4143989.973,-704.159
518586.502,4143889.973,-737.402
518586.502,4143789.973,-759.768
518586.502,4143689.973,-768.972
518586.502,4143589.973,-784.109
518586.502,4143489.973,-787.301
518586.502,4143389.973,-786.577
518586.502,4143089.973,-797.737
518586.502,4142989.973,-793.586
518586.502,4142889.973,-780.254
518586.502,4142589.973,-798.207
518586.502,4142489.973,-769.011
518586.502,4142389.973,-724.816
518586.502,4142289.973,-682.510
518586.502,4142189.973,-669.783
518586.502,4142089.973,-660.282
518586.502,4141989.973,-647.949
518586.502,4141889.973,-658.755
518586.502,4141789.973,-656.029
518586.502,4141689.973,-651.823
518586.502,4141589.973,-651.942
518586.502,4141489.973,-676.537
518586.502,4141389.973,-693.383
518586.502,4141289.973,-696.655
518586.502,4141189.973,-675.386
518586.502,4141089.973,-657.897
518586.502,4140989.973,-646.302
518586.502,4140889.973,-635.156
518586.502,4140789.973,-655.202
518586.502,4140689.973,-670.283
518586.502,4140589.973,-678.056
518586.502,4140489.973,-682.681
518586.502,4140389.973,-693.525
518586.502,4140289.973,-697.448
518586.502,4140189.973,-693.698
518586.502,4140089.973,-709.836
518586.502,4139989.973,-716.018
518586.502,4139889.973,-722.996
518586.502,4139789.973,-736.098
518586.502,4139689.973,-729.322
518586.502,4139589.973,-722.435
518586.502,4139489.973,-718.952
518586.502,4139389.973,-722.013
518586.502,4139289.973,-723.940
518586.502,4139189.973,-729.867
518586.502,4139089.973,-738.329
518586.502,4138989.973,-742.584
518586.502,4138889.973,-729.125
518586.502,4138789.973,-704.245
518586.502,4138689.973,-720.022
518586.502,4138589.973,-739.583
518586.502,4138489.973,-750.830
518586.502,4138389.973,-763.406
518586.502,4138289.973,-762.885
518586.502,4138189.973,-740.413
518586.502,4138089.973,-717.382
518586.502,4137989.973,-725.469
518586.502,4137889.973,-708.656
518586.502,4137789.973,-697.943
518586.502,4137689.973,-661.225
518586.502,4137589.973,-661.998
518586.502,4137489.973,-674.611
518586.502,4137389.973,-693.658
518586.502,4137289.973,-700.395
518586.502,4137189.973,-704.307
518586.502,4137089.973,-698.612
518586.502,4136989.973,-690.510
518586.502,4136889.973,-713.931
518586.502,4136789.973,-729.743
518586.502,4136689.973,-739.097
518586.502,4136589.973,-737.312
518586.502,4136489.973,-738.553
518586.502,4136389.973,-728.672
518586.502,4136289.973,-714.471
518586.502,4136189.973,-694.557
518586.502,4136089.973,-675.958
518586.502,4135989.973,-654.005
518586.502,4135889.973,-636.296
518586.502,4135789.973,-645.138
518586.502,4135689.973,-653.772
518586.502,4135589.973,-652.397
518586.502,4135489.973,-645.475
518586.502,4135389.973,-642.342
518586.502,4135289.973,-638.279
518586.502,4135189.973,-612.460
518586.502,4135089.973,-588.902
518586.502,4134989.973,-555.114
518586.502,4134889.973,-550.426
518586.502,4134789.973,-566.646
518586.502,4134689.973,-586.532
518586.502,4134589.973,-567.118
518586.502,4134489.973,-575.209
518586.502,4134389.973,-572.525
518586.502,4134289.973,-560.442
518586.502,4134189.973,-550.596
518586.502,4134089.973,-539.145
518586.502,4133989.973,-522.143
518586.502,4133889.973,-497.223
518586.502,4133789.973,-481.550
518586.502,4133689.973,-459.261
518586.502,4133589.973,-440.513
518586.502,4133489.973,-404.031
518586.502,4133389.973,-374.038
518586.502,4133289.973,-349.905
518586.502,4133189.973,-338.410
518586.502,4133089.973,-324.354
518586.502,4132989.973,-311.035
518586.502,4132889.973,-305.659
518586.502,4132789.973,-274.696
518586.502,4132689.973,-269.559
518586.502,4132589.973,-253.475
518586.502,4132489.973,-246.153
518586.502,4132389.973,-216.578
518586.502,4132289.973,-172.612
518586.502,4132189.973,-135.551
518686.502,4148489.973,-768.494
518686.502,4148389.973,-782.578
518686.502,4148289.973,-794.125
518686.502,4147789.973,-791.034
518686.502,4147689.973,-790.479
518686.502,4147589.973,-790.240
518686.502,4147189.973,-781.274
518686.502,4147089.973,-765.344
518686.502,4146989.973,-762.604
518686.502,4146889.973,-760.884
518686.502,4146789.973,-754.246
518686.502,4146689.973,-756.241
518686.502,4146589.973,-756.106
518686.502,4146489.973,-733.333
518686.502,4146389.973,-739.692
518686.502,4146289.973,-752.869
518686.502,4146189.973,-762.330
518686.502,4146089.973,-780.211
518686.502,4145989.973,-780.319
518686.502,4145889.973,-764.738
518686.502,4145789.973,-760.604
518686.502,4145689.973,-781.849
518686.502,4144789.973,-798.253
518686.502,4144689.973,-786.980
518686.502,4144589.973,-763.675
518686.502,4144489.973,-753.139
518686.502,4144389.973,-710.924
518686.502,4144289.973,-696.754
518686.502,4144189.973,-721.031
518686.502,4144089.973,-714.272
518686.502,4143989.973,-720.327
518686.502,4143889.973,-737.129
518686.502,4143789.973,-761.309
518686.502,4143689.973,-780.067
518686.502,4143589.973,-794.110
518686.502,4143489.973,-798.105
518686.502,4142989.973,-799.417
518686.502,4142889.973,-798.999
518686.502,4142589.973,-794.941
518686.502,4142489.973,-765.693
518686.502,4142389.973,-726.345
518686.502,4142289.973,-691.728
518686.502,4142189.973,-677.498
518686.502,4142089.973,-665.058
518686.502,4141989.973,-665.860
518686.502,4141889.973,-668.524
518686.502,4141789.973,-667.062
518686.502,4141689.973,-667.063
518686.502,4141589.973,-669.695
518686.502,4141489.973,-696.259
518686.502,4141389.973,-709.544
518686.502,4141289.973,-712.515
518686.502,4141189.973,-696.032
518686.502,4141089.973,-671.218
518686.502,4140989.973,-658.238
518686.502,4140889.973,-645.445
518686.502,4140789.973,-665.614
518686.502,4140689.973,-677.094
518686.502,4140589.973,-691.415
518686.502,4140489.973,-692.516
518686.502,4140389.973,-698.406
518686.502,4140289.973,-713.734
518686.502,4140189.973,-713.662
518686.502,4140089.973,-720.844
518686.502,4139989.973,-725.558
518686.502,4139889.973,-733.979
518686.502,4139789.973,-746.155
518686.502,4139689.973,-744.512
518686.502,4139589.973,-733.600
518686.502,4139489.973,-732.299
518686.502,4139389.973,-737.025
518686.502,4139289.973,-737.899
518686.502,4139189.973,-744.958
518686.502,4139089.973,-765.996
518686.502,4138989.973,-770.471
518686.502,4138889.973,-740.635
518686.502,4138789.973,-709.565
518686.502,4138689.973,-729.683
518686.502,4138589.973,-754.191
518686.502,4138489.973,-763.431
518686.502,4138389.973,-773.383
518686.502,4138289.973,-773.374
518686.502,4138189.973,-754.679
518686.502,4138089.973,-736.554
518686.502,4137989.973,-737.452
518686.502,4137889.973,-735.095
518686.502,4137789.973,-702.319
518686.502,4137689.973,-674.990
518686.502,4137589.973,-676.021
518686.502,4137489.973,-691.466
518686.502,4137389.973,-704.731
518686.502,4137289.973,-712.218
518686.502,4137189.973,-717.713
518686.502,4137089.973,-717.558
518686.502,4136989.973,-709.920
518686.502,4136889.973,-729.763
518686.502,4136789.973,-745.846
518686.502,4136689.973,-747.474
518686.502,4136589.973,-747.898
518686.502,4136489.973,-746.179
518686.502,4136389.973,-738.438
518686.502,4136289.973,-723.969
518686.502,4136189.973,-703.816
518686.502,4136089.973,-685.773
518686.502,4135989.973,-667.134
518686.502,4135889.973,-645.833
518686.502,4135789.973,-662.217
518686.502,4135689.973,-668.013
518686.502,4135589.973,-666.111
518686.502,4135489.973,-662.298
518686.502,4135389.973,-652.505
518686.502,4135289.973,-635.695
518686.502,4135189.973,-609.483
518686.502,4135089.973,-583.361
518686.502,4134989.973,-577.370
518686.502,4134889.973,-580.720
518686.502,4134789.973,-589.456
518686.502,4134689.973,-593.219
518686.502,4134589.973,-591.191
518686.502,4134489.973,-587.243
518686.502,4134389.973,-585.372
518686.502,4134289.973,-569.910
518686.502,4134189.973,-551.371
518686.502,4134089.973,-535.903
518686.502,4133989.973,-507.502
518686.502,4133889.973,-489.860
518686.502,4133789.973,-460.339
518686.502,4133689.973,-439.672
518686.502,4133589.973,-420.533
518686.502,4133489.973,-396.408
518686.502,4133389.973,-390.041
518686.502,4133289.973,-378.783
518686.502,4133189.973,-367.291
518686.502,4133089.973,-345.514
518686.502,4132989.973,-294.502
518686.502,4132889.973,-258.157
518686.502,4132789.973,-239.183
518686.502,4132689.973,-238.978
518686.502,4132589.973,-228.826
518686.502,4132489.973,-220.213
518686.502,4132389.973,-195.892
518686.502,4132289.973,-177.620
518686.502,4132189.973,-134.057
518786.502,4148489.973,-777.898
518786.502,4148389.973,-795.660
518786.502,4147189.973,-785.636
518786.502,4147089.973,-776.427
518786.502,4146989.973,-780.597
518786.502,4146889.973,-780.022
518786.502,4146789.973,-773.759
518786.502,4146689.973,-774.156
518786.502,4146589.973,-770.419
518786.502,4146489.973,-754.752
518786.502,4146389.973,-752.540
518786.502,4146289.973,-763.260
518786.502,4146189.973,-772.353
518786.502,4146089.973,-789.446
518786.502,4145989.973,-791.754
518786.502,4145889.973,-787.294
518786.502,4145789.973,-775.393
518786.502,4145689.973,-787.445
518786.502,4144689.973,-798.836
518786.502,4144589.973,-791.363
518786.502,4144489.973,-755.855
518786.502,4144389.973,-717.320
518786.502,4144289.973,-715.324
518786.502,4144189.973,-730.091
518786.502,4144089.973,-731.537
518786.502,4143989.973,-739.342
518786.502,4143889.973,-738.877
518786.502,4143789.973,-761.273
518786.502,4143689.973,-785.697
518786.502,4142589.973,-779.521
518786.502,4142489.973,-747.061
518786.502,4142389.973,-721.883
518786.502,4142289.973,-699.198
518786.502,4142189.973,-685.393
518786.502,4142089.973,-693.110
518786.502,4141989.973,-686.158
518786.502,4141889.973,-683.212
518786.502,4141789.973,-681.428
518786.502,4141689.973,-681.118
518786.502,4141589.973,-690.591
518786.502,4141489.973,-705.099
518786.502,4141389.973,-723.120
518786.502,4141289.973,-727.595
518786.502,4141189.973,-705.852
518786.502,4141089.973,-679.641
518786.502,4140989.973,-668.189
518786.502,4140889.973,-659.163
518786.502,4140789.973,-665.151
518786.502,4140689.973,-686.008
518786.502,4140589.973,-702.600
518786.502,4140489.973,-706.760
518786.502,4140389.973,-700.928
518786.502,4140289.973,-727.782
518786.502,4140189.973,-731.103
518786.502,4140089.973,-731.561
518786.502,4139989.973,-737.298
518786.502,4139889.973,-747.908
518786.502,4139789.973,-753.113
518786.502,4139689.973,-756.847
518786.502,4139589.973,-744.824
518786.502,4139489.973,-743.692
518786.502,4139389.973,-750.839
518786.502,4139289.973,-754.903
518786.502,4139189.973,-760.068
518786.502,4139089.973,-774.386
518786.502,4138989.973,-781.850
518786.502,4138889.973,-753.915
518786.502,4138789.973,-728.510
518786.502,4138689.973,-744.850
518786.502,4138589.973,-771.135
518786.502,4138489.973,-781.908
518786.502,4138389.973,-781.521
518786.502,4138289.973,-779.142
518786.502,4138189.973,-767.198
518786.502,4138089.973,-746.127
518786.502,4137989.973,-749.211
518786.502,4137889.973,-735.883
518786.502,4137789.973,-702.387
518786.502,4137689.973,-691.336
518786.502,4137589.973,-692.973
518786.502,4137489.973,-702.055
518786.502,4137389.973,-713.691
518786.502,4137289.973,-725.465
518786.502,4137189.973,-729.258
518786.502,4137089.973,-731.665
518786.502,4136989.973,-728.683
518786.502,4136889.973,-745.512
518786.502,4136789.973,-758.169
518786.502,4136689.973,-757.945
518786.502,4136589.973,-760.512
518786.502,4136489.973,-754.356
518786.502,4136389.973,-746.750
518786.502,4136289.973,-733.815
518786.502,4136189.973,-715.197
518786.502,4136089.973,-692.505
518786.502,4135989.973,-671.020
518786.502,4135889.973,-666.997
518786.502,4135789.973,-682.533
518786.502,4135689.973,-680.971
518786.502,4135589.973,-680.152
518786.502,4135489.973,-671.332
