534406.803,4117362.906,-1789.251
534406.803,4117162.906,-1798.592
534406.803,4116962.906,-1804.812
534406.803,4116762.906,-1813.131
534406.803,4116562.906,-1818.629
534406.803,4116362.906,-1823.742
534406.803,4116162.906,-1821.261
534406.803,4115962.906,-1827.619
534406.803,4115762.906,-1829.569
534406.803,4115562.906,-1832.861
534406.803,4115362.906,-1836.544
534406.803,4115162.906,-1827.229
534406.803,4114962.906,-1814.583
534406.803,4114762.906,-1816.990
534406.803,4114562.906,-1819.144
534406.803,4114362.906,-1819.706
534406.803,4114162.906,-1810.898
534406.803,4113962.906,-1791.945
534406.803,4113762.906,-1798.324
534406.803,4113562.906,-1819.593
534406.803,4113362.906,-1841.166
534406.803,4113162.906,-1866.540
534406.803,4112962.906,-1875.306
534406.803,4112762.906,-1904.871
534406.803,4112562.906,-1904.836
534406.803,4112362.906,-1903.449
534406.803,4112162.906,-1900.745
534406.803,4111962.906,-1895.201
534406.803,4111762.906,-1888.227
534406.803,4111562.906,-1859.791
534406.803,4111362.906,-1840.364
534406.803,4111162.906,-1822.833
534406.803,4110962.906,-1809.146
534406.803,4110762.906,-1726.905
534406.803,4110562.906,-1658.447
534406.803,4110362.906,-1659.997
534406.803,4110162.906,-1767.898
534406.803,4109962.906,-1835.814
534406.803,4109762.906,-1868.937
534406.803,4109562.906,-1852.578
534406.803,4109362.906,-1817.245
534406.803,4109162.906,-1816.993
534406.803,4108962.906,-1829.934
534406.803,4108762.906,-1812.089
534406.803,4108562.906,-1797.879
534406.803,4108362.906,-1831.260
534406.803,4108162.906,-1912.053
534406.803,4107962.906,-1913.604
534406.803,4107762.906,-1892.536
534406.803,4107562.906,-1892.243
534406.803,4107362.906,-1863.269
534406.803,4107162.906,-1831.698
534406.803,4106962.906,-1846.950
534406.803,4106762.906,-1840.260
534406.803,4106562.906,-1811.629
534406.803,4106362.906,-1784.249
534406.803,4106162.906,-1826.348
534406.803,4105962.906,-1870.502
534406.803,4105762.906,-1868.968
534406.803,4105562.906,-1874.369
534406.803,4105362.906,-1944.908
534406.803,4105162.906,-1941.078
534406.803,4104962.906,-1969.531
534406.803,4104762.906,-1996.304
534406.803,4104562.906,-1933.327
534406.803,4104362.906,-1906.658
534406.803,4104162.906,-1868.715
534406.803,4103962.906,-1806.469
534406.803,4103762.906,-1746.902
534406.803,4103562.906,-1822.007
534406.803,4103362.906,-1878.507
534406.803,4102562.906,-1956.966
534406.803,4102362.906,-1968.313
534406.803,4099962.906,-1985.053
534406.803,4099762.906,-1982.893
534406.803,4096962.906,-1399.774
534406.803,4096762.906,-1233.496
534406.803,4096562.906,-1243.814
534406.803,4096362.906,-1223.783
534406.803,4096162.906,-1180.204
534406.803,4095962.906,-1159.833
534406.803,4095762.906,-1155.633
534406.803,4095562.906,-1172.853
534406.803,4095362.906,-1251.314
534406.803,4095162.906,-1323.950
534406.803,4094962.906,-1443.758
534406.803,4094762.906,-1554.193
534406.803,4094562.906,-1451.127
534406.803,4094362.906,-1502.102
534406.803,4094162.906,-1421.178
534406.803,4093962.906,-1260.473
534406.803,4093762.906,-1249.948
534406.803,4093562.906,-1197.367
534406.803,4093362.906,-1155.473
534406.803,4093162.906,-1010.272
534406.803,4092962.906,-911.280
534406.803,4092762.906,-929.972
534406.803,4092562.906,-867.556
534406.803,4092362.906,-817.703
534406.803,4092162.906,-750.666
534406.803,4091962.906,-739.875
534406.803,4091762.906,-680.910
534406.803,4091562.906,-661.969
534406.803,4091362.906,-678.201
534406.803,4091162.906,-680.530
534406.803,4090962.906,-598.442
534406.803,4090762.906,-584.388
534606.803,4148562.906,-2078.323
534606.803,4148362.906,-2080.440
534606.803,4148162.906,-2081.036
534606.803,4147962.906,-2079.957
534606.803,4147762.906,-2077.980
534606.803,4147562.906,-2076.514
534606.803,4147362.906,-2073.369
534606.803,4147162.906,-2071.076
534606.803,4146962.906,-2065.988
534606.803,4146762.906,-2060.438
534606.803,4146562.906,-2067.748
534606.803,4146362.906,-2064.721
534606.803,4146162.906,-2057.030
534606.803,4145962.906,-2061.267
534606.803,4145762.906,-2065.371
534606.803,4145562.906,-2066.106
534606.803,4145362.906,-2069.833
534606.803,4145162.906,-2067.825
534606.803,4144962.906,-2068.050
534606.803,4144762.906,-2072.267
534606.803,4144562.906,-2077.048
534606.803,4144362.906,-2077.674
534606.803,4144162.906,-2079.012
534606.803,4143962.906,-2080.890
534606.803,4143762.906,-2083.796
534606.803,4143562.906,-2081.741
534606.803,4143362.906,-2081.472
534606.803,4143162.906,-2082.857
534606.803,4142962.906,-2080.428
534606.803,4142762.906,-2085.630
534606.803,4142562.906,-2086.251
534606.803,4142362.906,-2088.210
534606.803,4142162.906,-2092.299
534606.803,4141962.906,-2091.543
534606.803,4141762.906,-2093.236
534606.803,4141562.906,-2099.209
534606.803,4141362.906,-2100.449
534606.803,4141162.906,-2100.420
534606.803,4140962.906,-2099.391
534606.803,4140762.906,-2100.148
534606.803,4140562.906,-2102.927
534606.803,4140362.906,-2109.323
534606.803,4140162.906,-2117.390
534606.803,4139962.906,-2125.651
534606.803,4139762.906,-2130.316
534606.803,4139562.906,-2141.366
534606.803,4139362.906,-2133.193
534606.803,4139162.906,-2134.134
534606.803,4138962.906,-2136.339
534606.803,4138762.906,-2141.625
534606.803,4138562.906,-2143.144
534606.803,4138362.906,-2139.490
534606.803,4138162.906,-2135.700
534606.803,4137962.906,-2131.361
534606.803,4137762.906,-2144.004
534606.803,4137562.906,-2133.172
534606.803,4137362.906,-2128.363
534606.803,4137162.906,-2131.550
534606.803,4136962.906,-2127.527
534606.803,4136762.906,-2124.711
534606.803,4136562.906,-2126.859
534606.803,4136362.906,-2133.534
534606.803,4136162.906,-2137.306
534606.803,4135962.906,-2135.377
534606.803,4135762.906,-2136.153
534606.803,4135562.906,-2136.804
534606.803,4135362.906,-2134.253
534606.803,4135162.906,-2135.007
534606.803,4134962.906,-2132.510
534606.803,4134762.906,-2135.793
534606.803,4134562.906,-2140.482
534606.803,4134362.906,-2144.082
534606.803,4134162.906,-2137.397
534606.803,4133962.906,-2121.213
534606.803,4133762.906,-2105.753
534606.803,4133562.906,-2085.506
534606.803,4133362.906,-2073.534
534606.803,4133162.906,-2055.927
534606.803,4132962.906,-2039.001
534606.803,4132762.906,-2025.337
534606.803,4132562.906,-2019.990
534606.803,4132362.906,-2020.937
534606.803,4132162.906,-2024.097
534606.803,4131962.906,-2018.389
534606.803,4131762.906,-2020.857
534606.803,4131562.906,-2031.678
534606.803,4131362.906,-2038.193
534606.803,4131162.906,-2049.205
534606.803,4130962.906,-2053.646
534606.803,4130762.906,-2061.383
534606.803,4130562.906,-2075.560
534606.803,4130362.906,-2078.957
534606.803,4130162.906,-2085.052
534606.803,4129962.906,-2095.309
534606.803,4129762.906,-2119.390
534606.803,4129562.906,-2130.733
534606.803,4129362.906,-2136.104
534606.803,4129162.906,-2136.776
534606.803,4128962.906,-2132.561
534606.803,4128762.906,-2135.090
534606.803,4128562.906,-2132.888
534606.803,4128362.906,-2139.377
534606.803,4128162.906,-2117.068
534606.803,4127962.906,-2083.053
534606.803,4127762.906,-2093.163
534606.803,4127562.906,-2110.900
534606.803,4127362.906,-2109.081
534606.803,4127162.906,-2066.355
534606.803,4126962.906,-1996.392
534606.803,4126762.906,-1976.887
534606.803,4126562.906,-1976.417
534606.803,4126362.906,-1971.779
534606.803,4126162.906,-2014.208
534606.803,4125962.906,-1988.221
534606.803,4125762.906,-1951.367
534606.803,4125562.906,-1945.084
534606.803,4125362.906,-1930.237
534606.803,4125162.906,-1918.329
534606.803,4124962.906,-1875.048
534606.803,4124762.906,-1837.564
534606.803,4124562.906,-1811.310
534606.803,4124362.906,-1824.909
534606.803,4124162.906,-1842.640
534606.803,4123962.906,-1836.288
534606.803,4123762.906,-1824.998
534606.803,4123562.906,-1834.806
534606.803,4123362.906,-1852.013
534606.803,4123162.906,-1858.143
534606.803,4122962.906,-1863.998
534606.803,4122762.906,-1866.199
534606.803,4122562.906,-1868.445
534606.803,4122362.906,-1874.613
534606.803,4122162.906,-1877.642
534606.803,4121962.906,-1888.374
534606.803,4121762.906,-1888.618
534606.803,4121562.906,-1896.651
534606.803,4121362.906,-1893.561
534606.803,4121162.906,-1894.989
534606.803,4120962.906,-1893.183
534606.803,4120762.906,-1893.647
534606.803,4120562.906,-1891.078
534606.803,4120362.906,-1886.715
534606.803,4120162.906,-1879.219
534606.803,4119962.906,-1847.068
534606.803,4119762.906,-1828.386
534606.803,4119562.906,-1817.017
534606.803,4119362.906,-1811.231
534606.803,4119162.906,-1803.764
534606.803,4118962.906,-1795.247
534606.803,4118762.906,-1793.630
534606.803,4118562.906,-1795.703
534606.803,4118362.906,-1792.797
534606.803,4118162.906,-1794.422
534606.803,4117962.906,-1793.056
534606.803,4117762.906,-1795.094
534606.803,4117562.906,-1796.581
534606.803,4117362.906,-1795.458
534606.803,4117162.906,-1799.701
534606.803,4116962.906,-1810.174
534606.803,4116762.906,-1813.611
534606.803,4116562.906,-1821.284
534606.803,4116362.906,-1820.381
534606.803,4116162.906,-1827.606
534606.803,4115962.906,-1834.182
534606.803,4115762.906,-1837.953
534606.803,4115562.906,-1840.074
534606.803,4115362.906,-1839.181
534606.803,4115162.906,-1841.705
534606.803,4114962.906,-1832.485
534606.803,4114762.906,-1832.359
534606.803,4114562.906,-1825.515
534606.803,4114362.906,-1827.988
534606.803,4114162.906,-1817.274
534606.803,4113962.906,-1812.260
534606.803,4113762.906,-1810.182
534606.803,4113562.906,-1831.042
534606.803,4113362.906,-1850.426
534606.803,4113162.906,-1876.844
534606.803,4112962.906,-1883.470
534606.803,4112762.906,-1906.542
534606.803,4112562.906,-1910.151
534606.803,4112362.906,-1910.870
534606.803,4112162.906,-1910.624
534606.803,4111962.906,-1905.748
534606.803,4111762.906,-1898.120
534606.803,4111562.906,-1874.150
534606.803,4111362.906,-1868.244
534606.803,4111162.906,-1849.484
534606.803,4110962.906,-1848.050
534606.803,4110762.906,-1816.026
534606.803,4110562.906,-1804.455
534606.803,4110362.906,-1745.223
534606.803,4110162.906,-1848.860
534606.803,4109962.906,-1854.454
534606.803,4109762.906,-1891.473
534606.803,4109562.906,-1920.265
534606.803,4109362.906,-1911.002
534606.803,4109162.906,-1896.719
534606.803,4108962.906,-1908.968
534606.803,4108762.906,-1871.195
534606.803,4108562.906,-1863.719
534606.803,4108362.906,-1867.556
534606.803,4108162.906,-1949.868
534606.803,4107962.906,-1968.049
534606.803,4107762.906,-1966.989
534606.803,4107562.906,-1945.682
534606.803,4107362.906,-1902.874
534606.803,4107162.906,-1889.325
534606.803,4106962.906,-1899.258
534606.803,4106762.906,-1893.299
534606.803,4106562.906,-1841.265
534606.803,4106362.906,-1876.740
534606.803,4106162.906,-1896.476
534606.803,4105962.906,-1909.096
534606.803,4105762.906,-1918.808
534606.803,4105562.906,-1931.343
534606.803,4105362.906,-1964.948
534606.803,4105162.906,-1950.741
534606.803,4104962.906,-1988.838
534606.803,4104762.906,-2016.290
534606.803,4104562.906,-1970.607
534606.803,4104362.906,-1953.262
534606.803,4104162.906,-1931.575
534606.803,4103962.906,-1916.933
534606.803,4103762.906,-1904.107
534606.803,4103562.906,-1911.017
534606.803,4103362.906,-1920.869
534606.803,4103162.906,-1909.492
534606.803,4102962.906,-1907.733
534606.803,4102762.906,-1935.995
534606.803,4102562.906,-1957.022
534606.803,4102362.906,-1971.721
534606.803,4102162.906,-1943.863
534606.803,4101962.906,-1881.874
534606.803,4100962.906,-1893.842
534606.803,4100762.906,-1921.010
534606.803,4100562.906,-1962.622
534606.803,4100362.906,-1923.582
534606.803,4100162.906,-1952.878
534606.803,4099962.906,-1989.755
534606.803,4099762.906,-2004.131
534606.803,4099562.906,-1990.756
534606.803,4099362.906,-1978.694
534606.803,4099162.906,-1958.918
534606.803,4098962.906,-1948.570
534606.803,4098762.906,-1933.698
534606.803,4096962.906,-1472.053
534606.803,4096762.906,-1476.609
534606.803,4096562.906,-1436.800
534606.803,4096362.906,-1312.268
534606.803,4096162.906,-1254.191
534606.803,4095962.906,-1250.383
534606.803,4095762.906,-1227.953
534606.803,4095562.906,-1278.350
534606.803,4095362.906,-1274.834
534606.803,4095162.906,-1365.926
534606.803,4094762.906,-1603.993
534606.803,4094562.906,-1559.526
534606.803,4094362.906,-1508.926
534606.803,4094162.906,-1446.267
534606.803,4093962.906,-1333.467
534606.803,4093762.906,-1247.730
534606.803,4093562.906,-1209.491
534606.803,4093362.906,-1138.944
534606.803,4093162.906,-1048.355
534606.803,4092962.906,-997.286
534606.803,4092762.906,-970.619
534606.803,4092562.906,-925.133
534606.803,4092362.906,-859.924
534606.803,4092162.906,-817.658
534606.803,4091962.906,-750.540
534606.803,4091762.906,-704.475
534606.803,4091562.906,-719.748
534606.803,4091362.906,-762.266
534606.803,4091162.906,-687.934
534606.803,4090962.906,-616.816
534606.803,4090762.906,-636.187
534606.803,4090562.906,-599.955
534606.803,4090362.906,-574.823
534606.803,4089962.906,-592.930
534806.803,4148562.906,-2083.511
534806.803,4148362.906,-2080.347
534806.803,4148162.906,-2080.473
534806.803,4147962.906,-2079.437
534806.803,4147762.906,-2077.114
534806.803,4147562.906,-2074.475
534806.803,4147362.906,-2071.058
534806.803,4147162.906,-2069.200
534806.803,4146962.906,-2065.582
534806.803,4146762.906,-2063.518
534806.803,4146562.906,-2061.780
534806.803,4146362.906,-2064.215
534806.803,4146162.906,-2065.622
534806.803,4145962.906,-2061.951
534806.803,4145762.906,-2060.501
534806.803,4145562.906,-2068.854
534806.803,4145362.906,-2071.533
534806.803,4145162.906,-2072.504
534806.803,4144962.906,-2072.474
534806.803,4144762.906,-2079.465
534806.803,4144562.906,-2081.375
534806.803,4144362.906,-2081.897
534806.803,4144162.906,-2083.388
534806.803,4143962.906,-2083.432
534806.803,4143762.906,-2086.942
534806.803,4143562.906,-2084.421
534806.803,4143362.906,-2082.431
534806.803,4143162.906,-2085.906
534806.803,4142962.906,-2086.088
534806.803,4142762.906,-2089.622
534806.803,4142562.906,-2091.575
534806.803,4142362.906,-2093.237
534806.803,4142162.906,-2092.822
534806.803,4141962.906,-2097.765
534806.803,4141762.906,-2103.156
534806.803,4141562.906,-2105.090
534806.803,4141362.906,-2103.679
534806.803,4141162.906,-2103.231
534806.803,4140962.906,-2101.974
534806.803,4140762.906,-2101.820
534806.803,4140562.906,-2105.255
534806.803,4140362.906,-2112.781
534806.803,4140162.906,-2114.240
534806.803,4139962.906,-2125.351
534806.803,4139762.906,-2129.736
534806.803,4139562.906,-2133.042
534806.803,4139362.906,-2137.974
534806.803,4139162.906,-2147.290
534806.803,4138962.906,-2145.722
534806.803,4138762.906,-2155.300
534806.803,4138562.906,-2146.626
534806.803,4138362.906,-2143.295
534806.803,4138162.906,-2146.440
534806.803,4137962.906,-2149.361
534806.803,4137762.906,-2144.020
534806.803,4137562.906,-2136.989
534806.803,4137362.906,-2139.277
534806.803,4137162.906,-2143.487
534806.803,4136962.906,-2152.878
534806.803,4136762.906,-2136.125
534806.803,4136562.906,-2132.221
534806.803,4136362.906,-2142.872
534806.803,4136162.906,-2140.580
534806.803,4135962.906,-2144.090
534806.803,4135762.906,-2144.169
534806.803,4135562.906,-2143.528
534806.803,4135362.906,-2137.917
534806.803,4135162.906,-2144.819
534806.803,4134962.906,-2143.083
534806.803,4134762.906,-2144.846
534806.803,4134562.906,-2148.181
534806.803,4134362.906,-2148.816
534806.803,4134162.906,-2141.805
534806.803,4133962.906,-2129.169
534806.803,4133762.906,-2102.278
534806.803,4133562.906,-2087.550
534806.803,4133362.906,-2076.461
534806.803,4133162.906,-2064.215
534806.803,4132962.906,-2036.216
534806.803,4132762.906,-2036.609
534806.803,4132562.906,-2039.535
534806.803,4132362.906,-2043.899
534806.803,4132162.906,-2050.838
534806.803,4131962.906,-2028.476
534806.803,4131762.906,-2027.526
534806.803,4131562.906,-2026.813
534806.803,4131362.906,-2038.762
534806.803,4131162.906,-2054.356
534806.803,4130962.906,-2076.549
534806.803,4130762.906,-2089.708
534806.803,4130562.906,-2087.974
534806.803,4130362.906,-2093.850
534806.803,4130162.906,-2087.732
534806.803,4129962.906,-2089.662
534806.803,4129762.906,-2091.831
534806.803,4129562.906,-2120.256
534806.803,4129362.906,-2135.187
534806.803,4129162.906,-2139.575
534806.803,4128962.906,-2135.302
534806.803,4128762.906,-2137.661
534806.803,4128562.906,-2141.072
534806.803,4128362.906,-2143.167
534806.803,4128162.906,-2145.510
534806.803,4127962.906,-2129.470
534806.803,4127762.906,-2128.895
534806.803,4127562.906,-2133.971
534806.803,4127362.906,-2117.233
534806.803,4127162.906,-2058.850
534806.803,4126962.906,-2006.125
534806.803,4126762.906,-2018.810
534806.803,4126562.906,-2000.079
534806.803,4126362.906,-2009.551
534806.803,4126162.906,-2036.786
534806.803,4125962.906,-1998.265
534806.803,4125762.906,-1990.774
534806.803,4125562.906,-1971.870
534806.803,4125362.906,-1935.583
534806.803,4125162.906,-1922.715
534806.803,4124962.906,-1883.484
534806.803,4124762.906,-1865.335
534806.803,4124562.906,-1843.418
534806.803,4124362.906,-1850.590
534806.803,4124162.906,-1871.878
534806.803,4123962.906,-1871.175
534806.803,4123762.906,-1854.014
534806.803,4123562.906,-1843.010
534806.803,4123362.906,-1856.574
534806.803,4123162.906,-1868.255
534806.803,4122962.906,-1872.656
534806.803,4122762.906,-1882.520
534806.803,4122562.906,-1889.475
534806.803,4122362.906,-1895.825
534806.803,4122162.906,-1903.719
534806.803,4121962.906,-1909.693
534806.803,4121762.906,-1903.747
534806.803,4121562.906,-1899.977
534806.803,4121362.906,-1898.649
534806.803,4121162.906,-1896.727
534806.803,4120962.906,-1895.873
534806.803,4120762.906,-1895.839
534806.803,4120562.906,-1896.918
534806.803,4120362.906,-1896.342
534806.803,4120162.906,-1880.842
534806.803,4119962.906,-1853.119
534806.803,4119762.906,-1823.429
534806.803,4119562.906,-1814.230
534806.803,4119362.906,-1811.181
534806.803,4119162.906,-1811.971
534806.803,4118962.906,-1804.816
534806.803,4118762.906,-1798.377
534806.803,4118562.906,-1800.735
534806.803,4118362.906,-1799.267
534806.803,4118162.906,-1799.071
534806.803,4117962.906,-1802.115
534806.803,4117762.906,-1805.093
534806.803,4117562.906,-1807.815
534806.803,4117362.906,-1811.677
534806.803,4117162.906,-1808.235
534806.803,4116962.906,-1817.035
534806.803,4116762.906,-1823.134
534806.803,4116562.906,-1829.179
534806.803,4116362.906,-1823.520
534806.803,4116162.906,-1832.803
534806.803,4115962.906,-1835.357
534806.803,4115762.906,-1843.661
534806.803,4115562.906,-1845.719
534806.803,4115362.906,-1842.055
534806.803,4115162.906,-1842.032
534806.803,4114962.906,-1836.392
534806.803,4114762.906,-1832.703
534806.803,4114562.906,-1836.623
534806.803,4114362.906,-1832.121
534806.803,4114162.906,-1827.008
534806.803,4113962.906,-1821.330
534806.803,4113762.906,-1829.100
534806.803,4113562.906,-1842.430
534806.803,4113362.906,-1862.789
534806.803,4113162.906,-1878.891
534806.803,4112962.906,-1895.551
534806.803,4112762.906,-1907.259
534806.803,4112562.906,-1917.083
534806.803,4112362.906,-1921.199
534806.803,4112162.906,-1918.647
534806.803,4111962.906,-1912.306
534806.803,4111762.906,-1900.590
534806.803,4111562.906,-1886.064
534806.803,4111362.906,-1869.816
534806.803,4111162.906,-1861.128
534806.803,4110962.906,-1877.762
534806.803,4110762.906,-1884.412
534806.803,4110562.906,-1867.721
534806.803,4110362.906,-1850.239
534806.803,4110162.906,-1844.762
534806.803,4109962.906,-1891.121
534806.803,4109762.906,-1952.048
534806.803,4109562.906,-1984.420
534806.803,4109362.906,-1982.518
534806.803,4109162.906,-1969.971
534806.803,4108962.906,-1977.032
534806.803,4108762.906,-1946.408
534806.803,4108562.906,-1928.480
534806.803,4108362.906,-1933.032
534806.803,4108162.906,-1967.306
534806.803,4107962.906,-1988.323
534806.803,4107762.906,-1983.487
534806.803,4107562.906,-1980.245
534806.803,4107362.906,-1921.295
534806.803,4107162.906,-1914.146
534806.803,4106962.906,-1916.444
534806.803,4106762.906,-1924.159
534806.803,4106562.906,-1895.675
534806.803,4106362.906,-1914.605
534806.803,4106162.906,-1928.433
534806.803,4105962.906,-1928.136
534806.803,4105762.906,-1952.610
534806.803,4105562.906,-1960.368
534806.803,4105362.906,-1992.193
534806.803,4105162.906,-2002.036
534806.803,4104962.906,-2011.415
534806.803,4104762.906,-2029.203
534806.803,4104562.906,-2015.275
534806.803,4104362.906,-1988.372
534806.803,4104162.906,-1965.454
534806.803,4103962.906,-1932.168
534806.803,4103762.906,-1923.580
534806.803,4103562.906,-1933.952
534806.803,4103362.906,-1959.068
534806.803,4103162.906,-1949.220
534806.803,4102962.906,-1946.622
534806.803,4102762.906,-1994.227
534806.803,4102562.906,-2013.498
534806.803,4102362.906,-2014.939
534806.803,4102162.906,-1970.666
534806.803,4101962.906,-1894.107
534806.803,4101762.906,-1853.269
534806.803,4101562.906,-1842.265
534806.803,4101362.906,-1852.154
534806.803,4101162.906,-1856.846
534806.803,4100962.906,-1881.801
534806.803,4100762.906,-1927.077
534806.803,4100562.906,-2004.014
534806.803,4100362.906,-1898.545
534806.803,4100162.906,-1959.193
534806.803,4099962.906,-2008.906
534806.803,4099762.906,-2035.895
534806.803,4099562.906,-2008.258
534806.803,4099362.906,-1952.466
534806.803,4099162.906,-1973.653
534806.803,4098962.906,-1948.438
534806.803,4098762.906,-1923.908
534806.803,4098562.906,-1884.097
534806.803,4098362.906,-1845.027
534806.803,4098162.906,-1833.903
534806.803,4097762.906,-1839.231
534806.803,4097562.906,-1834.093
534806.803,4097362.906,-1811.202
534806.803,4097162.906,-1792.900
534806.803,4096762.906,-1650.276
534806.803,4096562.906,-1587.477
534806.803,4096362.906,-1457.557
534806.803,4096162.906,-1320.917
534806.803,4095962.906,-1291.412
534806.803,4095762.906,-1384.542
534806.803,4095562.906,-1404.949
534806.803,4095362.906,-1439.013
534806.803,4094562.906,-1606.336
534806.803,4094362.906,-1563.365
534806.803,4094162.906,-1427.074
534806.803,4093962.906,-1259.647
534806.803,4093762.906,-1213.840
534806.803,4093562.906,-1192.198
534806.803,4093362.906,-1170.785
534806.803,4093162.906,-1085.122
534806.803,4092962.906,-1050.389
534806.803,4092762.906,-981.674
534806.803,4092562.906,-924.582
534806.803,4092362.906,-884.039
534806.803,4092162.906,-878.706
534806.803,4091962.906,-837.116
534806.803,4091762.906,-794.411
534806.803,4091562.906,-799.254
534806.803,4091362.906,-757.881
534806.803,4091162.906,-678.429
534806.803,4090962.906,-688.751
534806.803,4090762.906,-665.691
534806.803,4090562.906,-645.178
534806.803,4090362.906,-623.057
534806.803,4090162.906,-632.789
534806.803,4089962.906,-627.093
535006.803,4148562.906,-2080.780
535006.803,4148362.906,-2086.247
535006.803,4148162.906,-2084.184
535006.803,4147962.906,-2080.879
535006.803,4147762.906,-2080.129
535006.803,4147562.906,-2075.785
535006.803,4147362.906,-2075.097
535006.803,4147162.906,-2067.346
535006.803,4146962.906,-2066.358
535006.803,4146762.906,-2064.946
535006.803,4146562.906,-2066.678
535006.803,4146362.906,-2068.782
535006.803,4146162.906,-2063.300
535006.803,4145962.906,-2062.350
535006.803,4145762.906,-2054.361
535006.803,4145562.906,-2062.521
535006.803,4145362.906,-2074.213
535006.803,4145162.906,-2074.870
535006.803,4144962.906,-2075.714
535006.803,4144762.906,-2087.527
535006.803,4144562.906,-2085.160
535006.803,4144362.906,-2085.756
535006.803,4144162.906,-2086.977
535006.803,4143962.906,-2088.946
535006.803,4143762.906,-2089.219
535006.803,4143562.906,-2089.924
535006.803,4143362.906,-2090.240
535006.803,4143162.906,-2088.348
535006.803,4142962.906,-2093.010
535006.803,4142762.906,-2095.154
535006.803,4142562.906,-2095.083
535006.803,4142362.906,-2095.369
535006.803,4142162.906,-2097.548
535006.803,4141962.906,-2103.562
535006.803,4141762.906,-2107.667
535006.803,4141562.906,-2110.743
535006.803,4141362.906,-2109.472
535006.803,4141162.906,-2109.528
535006.803,4140962.906,-2106.902
535006.803,4140762.906,-2109.558
535006.803,4140562.906,-2111.472
535006.803,4140362.906,-2117.829
535006.803,4140162.906,-2119.385
535006.803,4139962.906,-2124.567
535006.803,4139762.906,-2129.250
535006.803,4139562.906,-2138.322
535006.803,4139362.906,-2139.739
535006.803,4139162.906,-2142.487
535006.803,4138962.906,-2148.581
535006.803,4138762.906,-2147.744
535006.803,4138562.906,-2147.122
535006.803,4138362.906,-2149.351
535006.803,4138162.906,-2148.888
535006.803,4137962.906,-2150.762
535006.803,4137762.906,-2159.901
535006.803,4137562.906,-2157.024
535006.803,4137362.906,-2149.619
535006.803,4137162.906,-2153.576
535006.803,4136962.906,-2159.050
535006.803,4136762.906,-2159.164
535006.803,4136562.906,-2155.844
535006.803,4136362.906,-2155.413
535006.803,4136162.906,-2147.508
535006.803,4135962.906,-2150.827
535006.803,4135762.906,-2149.637
535006.803,4135562.906,-2148.700
535006.803,4135362.906,-2146.695
535006.803,4135162.906,-2145.677
535006.803,4134962.906,-2150.285
535006.803,4134762.906,-2154.689
535006.803,4134562.906,-2156.733
535006.803,4134362.906,-2156.727
535006.803,4134162.906,-2151.421
535006.803,4133962.906,-2134.897
535006.803,4133762.906,-2120.210
535006.803,4133562.906,-2093.992
535006.803,4133362.906,-2074.031
535006.803,4133162.906,-2058.892
535006.803,4132962.906,-2055.462
535006.803,4132762.906,-2053.875
535006.803,4132562.906,-2057.769
535006.803,4132362.906,-2058.364
535006.803,4132162.906,-2060.288
535006.803,4131962.906,-2067.155
535006.803,4131762.906,-2059.202
535006.803,4131562.906,-2051.969
535006.803,4131362.906,-2066.674
535006.803,4131162.906,-2082.304
535006.803,4130962.906,-2092.250
535006.803,4130762.906,-2111.383
535006.803,4130562.906,-2111.714
535006.803,4130362.906,-2112.379
535006.803,4130162.906,-2099.758
535006.803,4129962.906,-2101.247
535006.803,4129762.906,-2103.120
535006.803,4129562.906,-2117.671
535006.803,4129362.906,-2138.522
535006.803,4129162.906,-2140.467
535006.803,4128962.906,-2136.656
535006.803,4128762.906,-2141.491
535006.803,4128562.906,-2139.952
535006.803,4128362.906,-2142.562
535006.803,4128162.906,-2151.312
535006.803,4127962.906,-2152.956
535006.803,4127762.906,-2143.281
535006.803,4127562.906,-2149.035
535006.803,4127362.906,-2136.839
535006.803,4127162.906,-2077.281
535006.803,4126962.906,-2055.324
535006.803,4126762.906,-2074.374
535006.803,4126562.906,-2049.336
535006.803,4126362.906,-2060.881
535006.803,4126162.906,-2068.263
535006.803,4125962.906,-2051.303
535006.803,4125762.906,-2037.473
535006.803,4125562.906,-1998.959
535006.803,4125362.906,-1981.101
535006.803,4125162.906,-1936.684
535006.803,4124962.906,-1899.157
535006.803,4124762.906,-1906.384
535006.803,4124562.906,-1879.503
535006.803,4124362.906,-1861.890
535006.803,4124162.906,-1876.543
535006.803,4123962.906,-1892.862
535006.803,4123762.906,-1887.517
535006.803,4123562.906,-1859.970
535006.803,4123362.906,-1870.038
535006.803,4123162.906,-1875.521
535006.803,4122962.906,-1881.656
535006.803,4122762.906,-1886.603
535006.803,4122562.906,-1899.918
535006.803,4122362.906,-1908.679
535006.803,4122162.906,-1906.066
535006.803,4121962.906,-1909.672
535006.803,4121762.906,-1904.899
535006.803,4121562.906,-1903.386
535006.803,4121362.906,-1904.360
535006.803,4121162.906,-1902.387
535006.803,4120962.906,-1898.987
535006.803,4120762.906,-1897.875
535006.803,4120562.906,-1897.253
535006.803,4120362.906,-1896.815
535006.803,4120162.906,-1886.452
535006.803,4119962.906,-1859.879
535006.803,4119762.906,-1823.893
535006.803,4119562.906,-1820.042
535006.803,4119362.906,-1818.824
535006.803,4119162.906,-1817.767
535006.803,4118962.906,-1810.151
535006.803,4118762.906,-1808.921
535006.803,4118562.906,-1806.851
535006.803,4118362.906,-1802.375
535006.803,4118162.906,-1807.670
535006.803,4117962.906,-1813.262
535006.803,4117762.906,-1820.367
535006.803,4117562.906,-1824.069
535006.803,4117362.906,-1821.118
535006.803,4117162.906,-1823.211
535006.803,4116962.906,-1832.925
535006.803,4116762.906,-1835.675
535006.803,4116562.906,-1840.459
535006.803,4116362.906,-1833.709
535006.803,4116162.906,-1840.210
535006.803,4115962.906,-1843.344
535006.803,4115762.906,-1849.551
535006.803,4115562.906,-1850.648
535006.803,4115362.906,-1848.321
535006.803,4115162.906,-1848.005
535006.803,4114962.906,-1842.906
535006.803,4114762.906,-1842.782
535006.803,4114562.906,-1840.175
535006.803,4114362.906,-1837.971
535006.803,4114162.906,-1831.514
535006.803,4113962.906,-1825.656
535006.803,4113762.906,-1842.055
535006.803,4113562.906,-1853.988
535006.803,4113362.906,-1868.881
535006.803,4113162.906,-1882.797
535006.803,4112962.906,-1895.409
535006.803,4112762.906,-1910.860
535006.803,4112562.906,-1923.686
535006.803,4112362.906,-1930.079
535006.803,4112162.906,-1931.780
535006.803,4111962.906,-1924.443
535006.803,4111762.906,-1904.742
535006.803,4111562.906,-1891.583
535006.803,4111362.906,-1879.513
535006.803,4111162.906,-1875.573
535006.803,4110962.906,-1896.712
535006.803,4110762.906,-1899.621
535006.803,4110562.906,-1900.789
535006.803,4110362.906,-1906.936
535006.803,4110162.906,-1914.374
535006.803,4109962.906,-1937.055
535006.803,4109762.906,-1982.465
535006.803,4109562.906,-2005.458
535006.803,4109362.906,-2014.397
535006.803,4109162.906,-2020.089
535006.803,4108962.906,-2012.392
535006.803,4108762.906,-1988.786
535006.803,4108562.906,-1989.191
535006.803,4108362.906,-1988.624
535006.803,4108162.906,-1998.165
535006.803,4107962.906,-1994.103
535006.803,4107762.906,-1993.942
535006.803,4107562.906,-2000.614
535006.803,4107362.906,-1980.938
535006.803,4107162.906,-1933.012
535006.803,4106962.906,-1944.382
535006.803,4106762.906,-1950.223
535006.803,4106562.906,-1926.524
535006.803,4106362.906,-1934.347
535006.803,4106162.906,-1948.404
535006.803,4105962.906,-1957.188
535006.803,4105762.906,-1959.798
535006.803,4105562.906,-1970.549
535006.803,4105362.906,-2016.468
535006.803,4105162.906,-2032.733
535006.803,4104962.906,-2033.108
535006.803,4104762.906,-2026.401
535006.803,4104562.906,-2017.797
535006.803,4104362.906,-1996.040
535006.803,4104162.906,-1978.039
535006.803,4103962.906,-1992.488
535006.803,4103762.906,-1981.545
535006.803,4103562.906,-1983.854
535006.803,4103362.906,-2011.940
535006.803,4103162.906,-2022.157
535006.803,4102962.906,-2029.148
535006.803,4102762.906,-2063.575
535006.803,4102562.906,-2060.018
535006.803,4102362.906,-2059.600
535006.803,4102162.906,-2021.295
535006.803,4101962.906,-1972.773
535006.803,4101762.906,-1935.733
535006.803,4101562.906,-1954.233
535006.803,4101362.906,-1955.547
535006.803,4101162.906,-1936.953
535006.803,4100962.906,-1981.353
535006.803,4100762.906,-1988.913
535006.803,4100562.906,-1941.942
535006.803,4100362.906,-1915.227
535006.803,4100162.906,-1981.825
535006.803,4099962.906,-2041.732
535006.803,4099762.906,-2062.285
535006.803,4099562.906,-2026.691
535006.803,4099362.906,-2008.137
535006.803,4099162.906,-2003.474
535006.803,4098962.906,-1966.943
535006.803,4098762.906,-1923.333
535006.803,4098562.906,-1866.911
535006.803,4098362.906,-1837.140
535006.803,4098162.906,-1808.652
535006.803,4097962.906,-1782.875
535006.803,4097762.906,-1829.720
535006.803,4097562.906,-1834.995
535006.803,4097362.906,-1821.883
535006.803,4097162.906,-1810.065
535006.803,4096962.906,-1770.876
535006.803,4096562.906,-1541.282
535006.803,4096362.906,-1467.264
535006.803,4096162.906,-1401.519
535006.803,4095962.906,-1450.870
535006.803,4095762.906,-1473.453
535006.803,4095562.906,-1504.323
535006.803,4095362.906,-1748.821
535006.803,4095162.906,-1774.132
535006.803,4094562.906,-1647.406
535006.803,4094362.906,-1615.675
535006.803,4094162.906,-1495.899
535006.803,4093962.906,-1350.830
535006.803,4093762.906,-1233.913
535006.803,4093562.906,-1221.604
535006.803,4093362.906,-1177.497
535006.803,4093162.906,-1108.751
535006.803,4092962.906,-1031.005
535006.803,4092762.906,-1016.315
535006.803,4092562.906,-969.926
535006.803,4092362.906,-997.815
535006.803,4092162.906,-925.611
535006.803,4091962.906,-889.661
535006.803,4091762.906,-881.678
535006.803,4091562.906,-820.384
535006.803,4091362.906,-738.899
535006.803,4091162.906,-732.950
535006.803,4090962.906,-761.695
535006.803,4090762.906,-717.900
535006.803,4090562.906,-709.516
535006.803,4090362.906,-680.297
535006.803,4089962.906,-678.916
535206.803,4148562.906,-2083.151
535206.803,4148362.906,-2094.086
535206.803,4148162.906,-2088.661
535206.803,4147962.906,-2084.959
535206.803,4147762.906,-2082.412
535206.803,4147562.906,-2079.815
535206.803,4147362.906,-2074.054
535206.803,4147162.906,-2073.052
535206.803,4146962.906,-2071.810
535206.803,4146762.906,-2065.889
535206.803,4146562.906,-2067.261
535206.803,4146362.906,-2064.877
535206.803,4146162.906,-2068.971
535206.803,4145962.906,-2070.099
535206.803,4145762.906,-2067.571
535206.803,4145562.906,-2067.291
535206.803,4145362.906,-2074.833
535206.803,4145162.906,-2076.244
535206.803,4144962.906,-2080.435
535206.803,4144762.906,-2088.404
535206.803,4144562.906,-2087.886
535206.803,4144362.906,-2087.757
535206.803,4144162.906,-2091.124
535206.803,4143962.906,-2090.906
535206.803,4143762.906,-2091.076
535206.803,4143562.906,-2091.362
535206.803,4143362.906,-2095.385
535206.803,4143162.906,-2096.110
535206.803,4142962.906,-2098.406
535206.803,4142762.906,-2100.557
535206.803,4142562.906,-2101.134
535206.803,4142362.906,-2101.196
535206.803,4142162.906,-2105.688
535206.803,4141962.906,-2109.612
535206.803,4141762.906,-2111.460
535206.803,4141562.906,-2113.461
535206.803,4141362.906,-2114.637
535206.803,4141162.906,-2115.692
535206.803,4140962.906,-2115.876
535206.803,4140762.906,-2113.954
535206.803,4140562.906,-2115.480
535206.803,4140362.906,-2124.660
535206.803,4140162.906,-2124.091
535206.803,4139962.906,-2128.288
535206.803,4139762.906,-2137.322
535206.803,4139562.906,-2139.218
535206.803,4139362.906,-2140.871
535206.803,4139162.906,-2146.710
535206.803,4138962.906,-2153.703
535206.803,4138762.906,-2150.181
535206.803,4138562.906,-2152.202
535206.803,4138362.906,-2151.957
535206.803,4138162.906,-2153.248
535206.803,4137962.906,-2154.758
535206.803,4137762.906,-2158.141
535206.803,4137562.906,-2163.668
535206.803,4137362.906,-2162.217
535206.803,4137162.906,-2162.340
535206.803,4136962.906,-2170.499
535206.803,4136762.906,-2167.816
535206.803,4136562.906,-2167.860
535206.803,4136362.906,-2161.047
535206.803,4136162.906,-2156.104
535206.803,4135962.906,-2154.762
535206.803,4135762.906,-2155.184
535206.803,4135562.906,-2154.625
535206.803,4135362.906,-2154.276
535206.803,4135162.906,-2149.090
535206.803,4134962.906,-2155.478
535206.803,4134762.906,-2164.356
535206.803,4134562.906,-2168.041
535206.803,4134362.906,-2162.730
535206.803,4134162.906,-2156.306
535206.803,4133962.906,-2150.927
535206.803,4133762.906,-2138.934
535206.803,4133562.906,-2109.184
535206.803,4133362.906,-2087.417
535206.803,4133162.906,-2075.749
535206.803,4132962.906,-2073.199
535206.803,4132762.906,-2072.966
535206.803,4132562.906,-2067.158
535206.803,4132362.906,-2084.675
535206.803,4132162.906,-2084.140
535206.803,4131962.906,-2086.746
535206.803,4131762.906,-2089.240
535206.803,4131562.906,-2086.329
535206.803,4131362.906,-2083.924
535206.803,4131162.906,-2098.472
535206.803,4130962.906,-2119.539
535206.803,4130762.906,-2113.436
535206.803,4130562.906,-2120.258
535206.803,4130362.906,-2113.961
535206.803,4130162.906,-2116.536
535206.803,4129962.906,-2107.971
535206.803,4129762.906,-2110.010
535206.803,4129562.906,-2121.129
535206.803,4129362.906,-2137.836
535206.803,4129162.906,-2135.243
535206.803,4128962.906,-2136.872
535206.803,4128762.906,-2144.367
535206.803,4128562.906,-2136.982
535206.803,4128362.906,-2141.352
535206.803,4128162.906,-2143.832
535206.803,4127962.906,-2148.315
535206.803,4127762.906,-2146.704
535206.803,4127562.906,-2154.963
535206.803,4127362.906,-2148.714
535206.803,4127162.906,-2120.286
535206.803,4126962.906,-2097.634
535206.803,4126762.906,-2096.627
535206.803,4126562.906,-2083.848
535206.803,4126362.906,-2083.316
535206.803,4126162.906,-2071.381
535206.803,4125962.906,-2057.874
535206.803,4125762.906,-2033.179
535206.803,4125562.906,-2013.393
535206.803,4125362.906,-1987.685
535206.803,4125162.906,-1961.688
535206.803,4124962.906,-1950.889
535206.803,4124762.906,-1964.965
535206.803,4124562.906,-1934.574
535206.803,4124362.906,-1892.430
535206.803,4124162.906,-1904.476
535206.803,4123962.906,-1904.929
535206.803,4123762.906,-1907.940
535206.803,4123562.906,-1884.446
535206.803,4123362.906,-1889.876
535206.803,4123162.906,-1896.502
535206.803,4122962.906,-1897.572
535206.803,4122762.906,-1905.731
535206.803,4122562.906,-1908.910
535206.803,4122362.906,-1913.070
535206.803,4122162.906,-1914.557
535206.803,4121962.906,-1916.888
535206.803,4121762.906,-1914.362
535206.803,4121562.906,-1912.870
535206.803,4121362.906,-1911.544
535206.803,4121162.906,-1911.350
535206.803,4120962.906,-1910.269
535206.803,4120762.906,-1903.501
535206.803,4120562.906,-1897.875
535206.803,4120362.906,-1896.831
535206.803,4120162.906,-1888.313
535206.803,4119962.906,-1864.108
535206.803,4119762.906,-1835.142
535206.803,4119562.906,-1821.815
535206.803,4119362.906,-1820.589
535206.803,4119162.906,-1820.420
535206.803,4118962.906,-1817.273
535206.803,4118762.906,-1815.281
535206.803,4118562.906,-1817.537
535206.803,4118362.906,-1814.553
535206.803,4118162.906,-1820.411
535206.803,4117962.906,-1825.049
535206.803,4117762.906,-1830.800
535206.803,4117562.906,-1832.670
535206.803,4117362.906,-1831.953
535206.803,4117162.906,-1837.386
535206.803,4116962.906,-1843.459
535206.803,4116762.906,-1849.687
535206.803,4116562.906,-1850.368
535206.803,4116362.906,-1847.710
535206.803,4116162.906,-1851.161
535206.803,4115962.906,-1853.542
535206.803,4115762.906,-1857.471
535206.803,4115562.906,-1859.535
535206.803,4115362.906,-1855.367
535206.803,4115162.906,-1852.484
535206.803,4114962.906,-1849.742
535206.803,4114762.906,-1851.396
535206.803,4114562.906,-1846.296
535206.803,4114362.906,-1843.694
535206.803,4114162.906,-1835.266
535206.803,4113962.906,-1836.326
535206.803,4113762.906,-1852.951
535206.803,4113562.906,-1866.019
535206.803,4113362.906,-1876.358
535206.803,4113162.906,-1888.304
535206.803,4112962.906,-1903.567
535206.803,4112762.906,-1918.771
535206.803,4112562.906,-1930.109
535206.803,4112362.906,-1937.423
535206.803,4112162.906,-1942.758
535206.803,4111962.906,-1934.881
535206.803,4111762.906,-1918.925
535206.803,4111562.906,-1900.094
535206.803,4111362.906,-1891.277
535206.803,4111162.906,-1886.157
535206.803,4110962.906,-1898.302
535206.803,4110762.906,-1919.214
535206.803,4110562.906,-1922.643
535206.803,4110362.906,-1926.875
535206.803,4110162.906,-1931.057
535206.803,4109962.906,-1955.575
535206.803,4109762.906,-1985.582
535206.803,4109562.906,-2009.363
535206.803,4109362.906,-2021.054
535206.803,4109162.906,-2029.711
535206.803,4108962.906,-2026.402
535206.803,4108762.906,-2027.706
535206.803,4108562.906,-2028.098
535206.803,4108362.906,-2020.100
535206.803,4108162.906,-2015.329
535206.803,4107962.906,-2011.506
535206.803,4107762.906,-2004.908
535206.803,4107562.906,-1996.082
535206.803,4107362.906,-1967.485
535206.803,4107162.906,-1963.242
535206.803,4106962.906,-1965.108
535206.803,4106762.906,-1959.775
535206.803,4106562.906,-1945.921
535206.803,4106362.906,-1926.670
535206.803,4106162.906,-1954.579
535206.803,4105962.906,-1967.399
535206.803,4105762.906,-1971.685
535206.803,4105562.906,-2008.098
535206.803,4105362.906,-2036.326
535206.803,4105162.906,-2055.107
535206.803,4104962.906,-2062.412
535206.803,4104762.906,-2058.692
535206.803,4104562.906,-2038.828
535206.803,4104362.906,-2026.852
535206.803,4104162.906,-2004.474
535206.803,4103962.906,-2011.728
535206.803,4103762.906,-2045.279
535206.803,4103562.906,-2045.735
535206.803,4103362.906,-2070.377
535206.803,4103162.906,-2081.758
535206.803,4102962.906,-2070.816
535206.803,4102762.906,-2073.602
535206.803,4102562.906,-2073.513
535206.803,4102362.906,-2073.472
535206.803,4102162.906,-2066.631
535206.803,4101962.906,-2041.034
535206.803,4101762.906,-2014.643
535206.803,4101562.906,-2028.500
535206.803,4101362.906,-2044.351
535206.803,4101162.906,-2049.535
535206.803,4100962.906,-2078.247
535206.803,4100762.906,-2036.372
535206.803,4100562.906,-1997.570
535206.803,4100362.906,-1975.526
535206.803,4100162.906,-2062.495
535206.803,4099962.906,-2095.933
535206.803,4099762.906,-2102.427
535206.803,4099562.906,-2064.768
535206.803,4099362.906,-2042.407
535206.803,4099162.906,-2026.563
535206.803,4098962.906,-1994.535
535206.803,4098762.906,-1922.894
535206.803,4098562.906,-1872.100
535206.803,4098362.906,-1866.038
535206.803,4098162.906,-1821.274
535206.803,4097962.906,-1819.729
535206.803,4097762.906,-1871.422
535206.803,4097562.906,-1880.931
535206.803,4097362.906,-1878.895
535206.803,4097162.906,-1822.354
535206.803,4096962.906,-1751.808
535206.803,4096762.906,-1716.175
535206.803,4096562.906,-1670.307
535206.803,4096362.906,-1651.511
535206.803,4096162.906,-1514.423
535206.803,4095962.906,-1537.779
535206.803,4095762.906,-1547.035
535206.803,4095562.906,-1723.130
535206.803,4095362.906,-1786.264
535206.803,4095162.906,-1826.718
535206.803,4094962.906,-1751.161
535206.803,4094562.906,-1620.331
535206.803,4094362.906,-1587.365
535206.803,4094162.906,-1502.491
535206.803,4093962.906,-1404.106
535206.803,4093762.906,-1295.418
535206.803,4093562.906,-1250.950
535206.803,4093362.906,-1232.176
535206.803,4093162.906,-1207.538
535206.803,4092962.906,-1173.472
535206.803,4092762.906,-1107.970
535206.803,4092562.906,-1059.111
535206.803,4092362.906,-1029.023
535206.803,4092162.906,-992.445
535206.803,4091962.906,-969.286
535206.803,4091762.906,-888.135
535206.803,4091562.906,-803.366
535206.803,4091362.906,-783.730
535206.803,4091162.906,-800.881
535206.803,4090962.906,-805.462
535206.803,4090762.906,-794.760
535206.803,4090562.906,-765.170
535206.803,4090362.906,-734.153
535206.803,4089962.906,-720.248
535406.803,4148562.906,-2090.069
535406.803,4148362.906,-2091.688
535406.803,4148162.906,-2094.552
535406.803,4147962.906,-2091.079
535406.803,4147762.906,-2089.609
535406.803,4147562.906,-2086.008
535406.803,4147362.906,-2080.645
535406.803,4147162.906,-2079.782
535406.803,4146962.906,-2073.512
535406.803,4146762.906,-2069.455
535406.803,4146562.906,-2069.219
535406.803,4146362.906,-2067.626
535406.803,4146162.906,-2075.679
535406.803,4145962.906,-2082.144
535406.803,4145762.906,-2075.730
535406.803,4145562.906,-2084.237
535406.803,4145362.906,-2077.783
535406.803,4145162.906,-2077.485
535406.803,4144962.906,-2081.478
535406.803,4144762.906,-2088.686
535406.803,4144562.906,-2092.566
535406.803,4144362.906,-2090.963
535406.803,4144162.906,-2094.570
535406.803,4143962.906,-2091.596
535406.803,4143762.906,-2095.760
535406.803,4143562.906,-2095.011
535406.803,4143362.906,-2100.214
535406.803,4143162.906,-2097.574
535406.803,4142962.906,-2101.357
535406.803,4142762.906,-2101.887
535406.803,4142562.906,-2105.156
535406.803,4142362.906,-2105.886
535406.803,4142162.906,-2106.994
535406.803,4141962.906,-2106.214
535406.803,4141762.906,-2112.085
535406.803,4141562.906,-2115.152
535406.803,4141362.906,-2119.009
535406.803,4141162.906,-2118.553
535406.803,4140962.906,-2118.517
535406.803,4140762.906,-2119.089
535406.803,4140562.906,-2121.030
535406.803,4140362.906,-2122.380
535406.803,4140162.906,-2128.309
535406.803,4139962.906,-2133.538
535406.803,4139762.906,-2138.540
535406.803,4139562.906,-2137.592
535406.803,4139362.906,-2140.252
535406.803,4139162.906,-2144.354
535406.803,4138962.906,-2150.469
535406.803,4138762.906,-2149.400
535406.803,4138562.906,-2152.622
535406.803,4138362.906,-2153.221
535406.803,4138162.906,-2158.727
535406.803,4137962.906,-2158.826
535406.803,4137762.906,-2160.212
535406.803,4137562.906,-2168.287
535406.803,4137362.906,-2163.935
535406.803,4137162.906,-2167.362
535406.803,4136962.906,-2170.824
535406.803,4136762.906,-2169.117
535406.803,4136562.906,-2164.120
535406.803,4136362.906,-2159.206
535406.803,4136162.906,-2160.086
535406.803,4135962.906,-2158.435
535406.803,4135762.906,-2160.508
535406.803,4135562.906,-2161.076
535406.803,4135362.906,-2156.504
535406.803,4135162.906,-2156.323
535406.803,4134962.906,-2161.454
535406.803,4134762.906,-2169.053
535406.803,4134562.906,-2170.447
535406.803,4134362.906,-2167.531
535406.803,4134162.906,-2163.475
535406.803,4133962.906,-2164.861
535406.803,4133762.906,-2154.953
535406.803,4133562.906,-2124.104
535406.803,4133362.906,-2108.258
535406.803,4133162.906,-2103.076
535406.803,4132962.906,-2097.297
535406.803,4132762.906,-2091.643
535406.803,4132562.906,-2086.812
535406.803,4132362.906,-2101.742
535406.803,4132162.906,-2109.255
535406.803,4131962.906,-2107.396
535406.803,4131762.906,-2111.713
535406.803,4131562.906,-2113.307
535406.803,4131362.906,-2119.035
535406.803,4131162.906,-2116.830
535406.803,4130962.906,-2128.877
535406.803,4130762.906,-2123.541
535406.803,4130562.906,-2127.557
535406.803,4130362.906,-2136.797
535406.803,4130162.906,-2131.586
535406.803,4129962.906,-2124.841
535406.803,4129762.906,-2118.229
535406.803,4129562.906,-2128.253
535406.803,4129362.906,-2143.920
535406.803,4129162.906,-2146.209
535406.803,4128962.906,-2148.605
535406.803,4128762.906,-2147.782
535406.803,4128562.906,-2145.941
535406.803,4128362.906,-2146.463
535406.803,4128162.906,-2147.127
535406.803,4127962.906,-2144.976
535406.803,4127762.906,-2148.150
535406.803,4127562.906,-2150.807
535406.803,4127362.906,-2149.701
535406.803,4127162.906,-2120.200
535406.803,4126962.906,-2116.290
535406.803,4126762.906,-2105.797
535406.803,4126562.906,-2089.853
535406.803,4126362.906,-2080.014
535406.803,4126162.906,-2050.261
535406.803,4125962.906,-2046.408
535406.803,4125762.906,-2034.616
535406.803,4125562.906,-2019.002
535406.803,4125362.906,-2003.878
535406.803,4125162.906,-1986.696
535406.803,4124962.906,-1990.784
535406.803,4124762.906,-1995.143
535406.803,4124562.906,-1976.022
535406.803,4124362.906,-1949.278
535406.803,4124162.906,-1955.484
535406.803,4123962.906,-1984.495
535406.803,4123762.906,-1956.875
535406.803,4123562.906,-1941.632
535406.803,4123362.906,-1931.130
535406.803,4123162.906,-1918.819
535406.803,4122962.906,-1912.671
535406.803,4122762.906,-1918.224
535406.803,4122562.906,-1939.760
535406.803,4122362.906,-1950.170
535406.803,4122162.906,-1931.778
535406.803,4121962.906,-1924.358
535406.803,4121762.906,-1921.500
535406.803,4121562.906,-1924.819
535406.803,4121362.906,-1921.639
535406.803,4121162.906,-1919.335
535406.803,4120962.906,-1920.512
535406.803,4120762.906,-1914.239
535406.803,4120562.906,-1906.701
535406.803,4120362.906,-1895.764
535406.803,4120162.906,-1887.410
535406.803,4119962.906,-1875.320
535406.803,4119762.906,-1849.986
535406.803,4119562.906,-1823.554
535406.803,4119362.906,-1824.222
535406.803,4119162.906,-1822.931
535406.803,4118962.906,-1812.107
535406.803,4118762.906,-1822.511
535406.803,4118562.906,-1826.765
535406.803,4118362.906,-1826.779
535406.803,4118162.906,-1831.173
535406.803,4117962.906,-1833.879
535406.803,4117762.906,-1839.030
