525486.502,4110213.071,-80.355
525486.502,4110163.071,-79.680
525486.502,4110113.071,-79.686
525486.502,4110063.071,-79.717
525486.502,4110013.071,-79.053
525486.502,4109963.071,-78.551
525486.502,4109913.071,-78.312
525486.502,4109863.071,-77.688
525486.502,4109813.071,-77.406
525486.502,4109763.071,-77.332
525486.502,4109713.071,-77.322
525486.502,4109663.071,-77.282
525486.502,4109613.071,-77.308
525486.502,4109563.071,-77.294
525486.502,4109513.071,-77.398
525486.502,4109463.071,-77.503
525486.502,4109413.071,-77.841
525486.502,4109363.071,-77.786
525486.502,4109313.071,-77.516
525486.502,4109263.071,-76.001
525486.502,4109213.071,-73.753
525486.502,4109163.071,-73.876
525486.502,4109113.071,-72.696
525486.502,4109063.071,-73.946
525486.502,4109013.071,-74.519
525486.502,4108963.071,-74.721
525486.502,4108913.071,-74.440
525486.502,4108863.071,-73.706
525486.502,4108813.071,-72.443
525486.502,4108763.071,-70.131
525486.502,4108713.071,-68.899
525486.502,4108663.071,-68.572
525486.502,4108613.071,-68.295
525486.502,4108563.071,-68.184
525486.502,4108513.071,-67.976
525486.502,4108463.071,-67.674
525486.502,4108413.071,-67.349
525486.502,4108363.071,-67.030
525486.502,4108313.071,-66.633
525486.502,4108263.071,-66.302
525486.502,4108213.071,-65.937
525486.502,4108163.071,-65.338
525486.502,4108113.071,-64.772
525486.502,4108063.071,-64.165
525486.502,4108013.071,-63.445
525486.502,4092563.071,-65.143
525486.502,4092513.071,-65.137
525486.502,4092463.071,-65.313
525486.502,4092413.071,-65.561
525486.502,4092363.071,-65.883
525486.502,4092313.071,-66.143
525486.502,4092263.071,-66.296
525486.502,4092213.071,-66.382
525486.502,4092163.071,-66.875
525486.502,4092113.071,-67.482
525486.502,4092063.071,-67.664
525486.502,4092013.071,-67.819
525486.502,4091963.071,-67.660
525486.502,4091913.071,-67.804
525486.502,4091863.071,-68.234
525486.502,4091813.071,-68.164
525486.502,4091763.071,-67.579
525486.502,4091713.071,-67.146
525486.502,4091663.071,-66.788
525486.502,4091613.071,-65.839
525486.502,4091563.071,-65.776
525486.502,4091513.071,-65.305
525486.502,4091463.071,-64.620
525486.502,4091413.071,-64.281
525486.502,4091363.071,-64.196
525486.502,4091313.071,-64.072
525486.502,4091263.071,-63.809
525486.502,4091213.071,-63.997
525486.502,4091163.071,-64.383
525486.502,4091113.071,-64.722
525486.502,4091063.071,-65.105
525486.502,4091013.071,-65.559
525486.502,4090963.071,-66.100
525486.502,4090913.071,-66.624
525486.502,4090863.071,-67.459
525486.502,4090813.071,-68.331
525486.502,4090763.071,-69.066
525486.502,4090713.071,-69.769
525486.502,4090663.071,-70.384
525486.502,4090613.071,-71.135
525486.502,4090563.071,-72.001
525486.502,4090513.071,-72.548
525486.502,4090463.071,-72.666
525486.502,4090413.071,-73.357
525486.502,4090363.071,-73.912
525486.502,4090313.071,-74.338
525486.502,4090263.071,-74.634
525486.502,4090213.071,-74.837
525486.502,4090163.071,-74.922
525486.502,4090113.071,-75.025
525536.502,4123163.071,-243.707
525536.502,4123113.071,-231.634
525536.502,4123063.071,-212.968
525536.502,4123013.071,-205.168
525536.502,4122963.071,-208.674
525536.502,4122913.071,-205.500
525536.502,4122863.071,-198.538
525536.502,4122813.071,-191.461
525536.502,4122763.071,-188.211
525536.502,4122713.071,-186.927
525536.502,4122663.071,-180.265
525536.502,4122613.071,-172.024
525536.502,4122563.071,-165.202
525536.502,4122513.071,-158.741
525536.502,4122463.071,-150.074
525536.502,4122413.071,-148.499
525536.502,4122363.071,-144.338
525536.502,4122313.071,-129.499
525536.502,4122263.071,-120.324
525536.502,4122213.071,-117.318
525536.502,4122163.071,-116.108
525536.502,4122113.071,-115.340
525536.502,4122063.071,-113.725
525536.502,4122013.071,-109.236
525536.502,4121963.071,-104.200
525536.502,4121913.071,-101.322
525536.502,4121863.071,-99.467
525536.502,4121813.071,-97.825
525536.502,4121763.071,-95.518
525536.502,4121713.071,-93.235
525536.502,4121663.071,-91.493
525536.502,4121613.071,-89.194
525536.502,4121563.071,-89.551
525536.502,4121513.071,-89.167
525536.502,4121463.071,-88.318
525536.502,4121413.071,-86.823
525536.502,4121363.071,-86.008
525536.502,4121313.071,-84.779
525536.502,4121263.071,-83.824
525536.502,4121213.071,-82.329
525536.502,4121163.071,-80.998
525536.502,4121113.071,-79.756
525536.502,4121063.071,-79.329
525536.502,4121013.071,-79.402
525536.502,4120963.071,-79.319
525536.502,4120913.071,-79.265
525536.502,4120863.071,-80.014
525536.502,4120813.071,-80.835
525536.502,4120763.071,-81.565
525536.502,4120713.071,-81.632
525536.502,4120663.071,-81.903
525536.502,4120613.071,-82.121
525536.502,4120563.071,-82.418
525536.502,4120513.071,-83.026
525536.502,4120463.071,-83.678
525536.502,4120413.071,-84.666
525536.502,4120363.071,-85.684
525536.502,4120313.071,-86.487
525536.502,4120263.071,-87.130
525536.502,4120213.071,-87.721
525536.502,4120163.071,-88.246
525536.502,4120113.071,-88.838
525536.502,4120063.071,-89.485
525536.502,4120013.071,-90.129
525536.502,4119963.071,-91.022
525536.502,4119913.071,-91.965
525536.502,4119863.071,-93.006
525536.502,4119813.071,-94.093
525536.502,4119763.071,-95.244
525536.502,4119713.071,-96.432
525536.502,4119663.071,-97.679
525536.502,4119613.071,-99.071
525536.502,4119563.071,-100.559
525536.502,4119513.071,-102.105
525536.502,4119463.071,-103.762
525536.502,4119413.071,-105.619
525536.502,4119363.071,-108.375
525536.502,4119313.071,-111.949
525536.502,4119263.071,-118.058
525536.502,4119213.071,-137.304
525536.502,4119163.071,-166.997
525536.502,4119113.071,-188.864
525536.502,4119063.071,-198.009
525536.502,4119013.071,-203.405
525536.502,4118963.071,-206.594
525536.502,4118913.071,-191.819
525536.502,4118863.071,-190.284
525536.502,4118813.071,-196.887
525536.502,4118763.071,-214.402
525536.502,4118713.071,-234.453
525536.502,4115063.071,-248.178
525536.502,4114263.071,-241.954
525536.502,4114213.071,-232.209
525536.502,4114163.071,-220.585
525536.502,4114113.071,-211.951
525536.502,4114063.071,-200.572
525536.502,4114013.071,-192.319
525536.502,4113963.071,-180.253
525536.502,4113913.071,-163.457
525536.502,4113863.071,-145.767
525536.502,4113813.071,-129.071
525536.502,4113763.071,-126.409
525536.502,4113713.071,-126.048
525536.502,4113663.071,-126.666
525536.502,4113613.071,-126.283
525536.502,4113563.071,-127.364
525536.502,4113513.071,-127.388
525536.502,4113463.071,-125.387
525536.502,4113413.071,-123.860
525536.502,4113363.071,-122.152
525536.502,4113313.071,-119.768
525536.502,4113263.071,-117.976
525536.502,4113213.071,-116.532
525536.502,4113163.071,-116.036
525536.502,4113113.071,-115.259
525536.502,4113063.071,-114.143
525536.502,4113013.071,-113.073
525536.502,4112963.071,-112.124
525536.502,4112913.071,-111.163
525536.502,4112863.071,-110.216
525536.502,4112813.071,-109.525
525536.502,4112763.071,-109.106
525536.502,4112713.071,-108.770
525536.502,4112663.071,-108.529
525536.502,4112613.071,-108.431
525536.502,4112563.071,-108.381
525536.502,4112513.071,-108.614
525536.502,4112463.071,-108.487
525536.502,4112413.071,-108.248
525536.502,4112363.071,-108.070
525536.502,4112313.071,-107.914
525536.502,4112263.071,-107.593
525536.502,4112213.071,-107.471
525536.502,4112163.071,-107.315
525536.502,4112113.071,-107.134
525536.502,4112063.071,-107.003
525536.502,4112013.071,-106.875
525536.502,4111963.071,-106.706
525536.502,4111913.071,-106.692
525536.502,4111863.071,-106.666
525536.502,4111813.071,-106.424
525536.502,4111763.071,-106.123
525536.502,4111713.071,-105.899
525536.502,4111663.071,-105.666
525536.502,4111613.071,-105.584
525536.502,4111563.071,-105.490
525536.502,4111513.071,-104.665
525536.502,4111463.071,-102.091
525536.502,4111413.071,-98.784
525536.502,4111363.071,-96.382
525536.502,4111313.071,-91.256
525536.502,4111263.071,-83.711
525536.502,4111213.071,-84.340
525536.502,4111163.071,-83.623
525536.502,4111113.071,-82.926
525536.502,4111063.071,-82.015
525536.502,4111013.071,-82.933
525536.502,4110963.071,-83.310
525536.502,4110913.071,-84.187
525536.502,4110863.071,-84.860
525536.502,4110813.071,-85.019
525536.502,4110763.071,-84.649
525536.502,4110713.071,-84.290
525536.502,4110663.071,-83.918
525536.502,4110613.071,-83.551
525536.502,4110563.071,-82.752
525536.502,4110513.071,-81.505
525536.502,4110463.071,-79.391
525536.502,4110413.071,-80.873
525536.502,4110363.071,-81.923
525536.502,4110313.071,-81.815
525536.502,4110263.071,-81.577
525536.502,4110213.071,-81.147
525536.502,4110163.071,-80.556
525536.502,4110113.071,-80.302
525536.502,4110063.071,-79.429
525536.502,4110013.071,-78.614
525536.502,4109963.071,-78.020
525536.502,4109913.071,-77.701
525536.502,4109863.071,-77.525
525536.502,4109813.071,-77.466
525536.502,4109763.071,-77.496
525536.502,4109713.071,-77.587
525536.502,4109663.071,-77.665
525536.502,4109613.071,-77.736
525536.502,4109563.071,-77.917
525536.502,4109513.071,-78.024
525536.502,4109463.071,-78.121
525536.502,4109413.071,-78.406
525536.502,4109363.071,-78.467
525536.502,4109313.071,-78.079
525536.502,4109263.071,-77.689
525536.502,4109213.071,-74.851
525536.502,4109163.071,-73.376
525536.502,4109113.071,-73.194
525536.502,4109063.071,-72.696
525536.502,4109013.071,-75.788
525536.502,4108963.071,-75.530
525536.502,4108913.071,-75.251
525536.502,4108863.071,-74.501
525536.502,4108813.071,-71.992
525536.502,4108763.071,-69.445
525536.502,4108713.071,-68.211
525536.502,4108663.071,-68.721
525536.502,4108613.071,-68.679
525536.502,4108563.071,-68.715
525536.502,4108513.071,-68.614
525536.502,4108463.071,-68.491
525536.502,4108413.071,-68.201
525536.502,4108363.071,-67.794
525536.502,4108313.071,-67.382
525536.502,4108263.071,-67.035
525536.502,4108213.071,-66.692
525536.502,4108163.071,-66.280
525536.502,4108113.071,-65.768
525536.502,4108063.071,-65.139
525536.502,4108013.071,-64.528
525536.502,4107963.071,-63.832
525536.502,4107913.071,-63.229
525536.502,4092563.071,-65.292
525536.502,4092513.071,-65.432
525536.502,4092463.071,-65.653
525536.502,4092413.071,-65.966
525536.502,4092363.071,-66.226
525536.502,4092313.071,-66.481
525536.502,4092263.071,-66.548
525536.502,4092213.071,-66.217
525536.502,4092163.071,-67.611
525536.502,4092113.071,-67.884
525536.502,4092063.071,-68.067
525536.502,4092013.071,-68.090
525536.502,4091963.071,-67.743
525536.502,4091913.071,-68.277
525536.502,4091863.071,-68.377
525536.502,4091813.071,-68.248
525536.502,4091763.071,-67.811
525536.502,4091713.071,-67.728
525536.502,4091663.071,-67.413
525536.502,4091613.071,-66.222
525536.502,4091563.071,-65.565
525536.502,4091513.071,-65.165
525536.502,4091463.071,-64.700
525536.502,4091413.071,-64.523
525536.502,4091363.071,-64.437
525536.502,4091313.071,-64.531
525536.502,4091263.071,-64.614
525536.502,4091213.071,-64.730
525536.502,4091163.071,-64.885
525536.502,4091113.071,-65.053
525536.502,4091063.071,-65.359
525536.502,4091013.071,-65.727
525536.502,4090963.071,-66.199
525536.502,4090913.071,-66.735
525536.502,4090863.071,-67.227
525536.502,4090813.071,-67.899
525536.502,4090763.071,-68.574
525536.502,4090713.071,-69.152
525536.502,4090663.071,-69.867
525536.502,4090613.071,-70.658
525536.502,4090563.071,-71.607
525536.502,4090513.071,-71.902
525536.502,4090463.071,-72.528
525536.502,4090413.071,-73.255
525536.502,4090363.071,-73.852
525536.502,4090313.071,-74.312
525536.502,4090263.071,-74.755
525536.502,4090213.071,-75.122
525536.502,4090163.071,-75.045
525536.502,4090113.071,-75.024
525586.502,4123113.071,-238.602
525586.502,4123063.071,-223.133
525586.502,4123013.071,-226.480
525586.502,4122963.071,-224.194
525586.502,4122913.071,-213.671
525586.502,4122863.071,-211.062
525586.502,4122813.071,-201.142
525586.502,4122763.071,-197.642
525586.502,4122713.071,-196.717
525586.502,4122663.071,-187.806
525586.502,4122613.071,-178.651
525586.502,4122563.071,-171.888
525586.502,4122513.071,-164.570
525586.502,4122463.071,-159.578
525586.502,4122413.071,-153.280
525586.502,4122363.071,-152.132
525586.502,4122313.071,-140.682
525586.502,4122263.071,-127.695
525586.502,4122213.071,-120.501
525586.502,4122163.071,-117.945
525586.502,4122113.071,-117.081
525586.502,4122063.071,-116.684
525586.502,4122013.071,-115.755
525586.502,4121963.071,-112.862
525586.502,4121913.071,-107.569
525586.502,4121863.071,-103.679
525586.502,4121813.071,-101.181
525586.502,4121763.071,-98.064
525586.502,4121713.071,-95.472
525586.502,4121663.071,-95.546
525586.502,4121613.071,-94.735
525586.502,4121563.071,-91.731
525586.502,4121513.071,-90.519
525586.502,4121463.071,-90.042
525586.502,4121413.071,-89.368
525586.502,4121363.071,-89.075
525586.502,4121313.071,-88.219
525586.502,4121263.071,-86.873
525586.502,4121213.071,-85.321
525586.502,4121163.071,-84.097
525586.502,4121113.071,-82.996
525586.502,4121063.071,-82.090
525586.502,4121013.071,-81.353
525586.502,4120963.071,-80.995
525586.502,4120913.071,-81.198
525586.502,4120863.071,-81.173
525586.502,4120813.071,-81.690
525586.502,4120763.071,-82.280
525586.502,4120713.071,-82.899
525586.502,4120663.071,-83.578
525586.502,4120613.071,-83.872
525586.502,4120563.071,-83.971
525586.502,4120513.071,-84.346
525586.502,4120463.071,-85.226
525586.502,4120413.071,-85.999
525586.502,4120363.071,-86.738
525586.502,4120313.071,-87.362
525586.502,4120263.071,-88.031
525586.502,4120213.071,-88.616
525586.502,4120163.071,-89.254
525586.502,4120113.071,-89.896
525586.502,4120063.071,-90.545
525586.502,4120013.071,-91.281
525586.502,4119963.071,-92.093
525586.502,4119913.071,-92.941
525586.502,4119863.071,-93.925
525586.502,4119813.071,-94.979
525586.502,4119763.071,-96.013
525586.502,4119713.071,-97.274
525586.502,4119663.071,-98.611
525586.502,4119613.071,-100.129
525586.502,4119563.071,-101.832
525586.502,4119513.071,-103.835
525586.502,4119463.071,-106.170
525586.502,4119413.071,-109.019
525586.502,4119363.071,-112.698
525586.502,4119313.071,-117.525
525586.502,4119263.071,-126.192
525586.502,4119213.071,-142.872
525586.502,4119163.071,-167.195
525586.502,4119113.071,-190.737
525586.502,4119063.071,-205.492
525586.502,4119013.071,-213.400
525586.502,4118963.071,-213.991
525586.502,4118913.071,-210.417
525586.502,4118863.071,-206.382
525586.502,4118813.071,-203.309
525586.502,4118763.071,-211.997
525586.502,4118713.071,-229.206
525586.502,4114163.071,-232.033
525586.502,4114113.071,-215.985
525586.502,4114063.071,-200.089
525586.502,4114013.071,-187.580
525586.502,4113963.071,-174.917
525586.502,4113913.071,-158.792
525586.502,4113863.071,-142.411
525586.502,4113813.071,-130.379
525586.502,4113763.071,-128.795
525586.502,4113713.071,-129.774
525586.502,4113663.071,-131.428
525586.502,4113613.071,-133.472
525586.502,4113563.071,-133.989
525586.502,4113513.071,-132.077
525586.502,4113463.071,-128.746
525586.502,4113413.071,-126.986
525586.502,4113363.071,-125.322
525586.502,4113313.071,-122.662
525586.502,4113263.071,-120.111
525586.502,4113213.071,-118.071
525586.502,4113163.071,-116.757
525586.502,4113113.071,-116.211
525586.502,4113063.071,-115.256
525586.502,4113013.071,-113.944
525586.502,4112963.071,-112.910
525586.502,4112913.071,-111.950
525586.502,4112863.071,-110.957
525586.502,4112813.071,-110.133
525586.502,4112763.071,-109.487
525586.502,4112713.071,-109.050
525586.502,4112663.071,-108.794
525586.502,4112613.071,-108.621
525586.502,4112563.071,-108.526
525586.502,4112513.071,-108.718
525586.502,4112463.071,-108.834
525586.502,4112413.071,-108.618
525586.502,4112363.071,-108.462
525586.502,4112313.071,-108.256
525586.502,4112263.071,-108.009
525586.502,4112213.071,-107.822
525586.502,4112163.071,-107.611
525586.502,4112113.071,-107.449
525586.502,4112063.071,-107.339
525586.502,4112013.071,-107.243
525586.502,4111963.071,-107.174
525586.502,4111913.071,-107.337
525586.502,4111863.071,-107.277
525586.502,4111813.071,-106.957
525586.502,4111763.071,-106.337
525586.502,4111713.071,-105.958
525586.502,4111663.071,-105.736
525586.502,4111613.071,-105.456
525586.502,4111563.071,-104.965
525586.502,4111513.071,-104.255
525586.502,4111463.071,-103.345
525586.502,4111413.071,-102.083
525586.502,4111363.071,-101.194
525586.502,4111313.071,-98.003
525586.502,4111263.071,-92.099
525586.502,4111213.071,-88.690
525586.502,4111163.071,-84.931
525586.502,4111113.071,-83.913
525586.502,4111063.071,-83.071
525586.502,4111013.071,-83.857
525586.502,4110963.071,-83.826
525586.502,4110913.071,-84.691
525586.502,4110863.071,-85.154
525586.502,4110813.071,-85.161
525586.502,4110763.071,-84.997
525586.502,4110713.071,-84.595
525586.502,4110663.071,-83.834
525586.502,4110613.071,-83.428
525586.502,4110563.071,-82.844
525586.502,4110513.071,-82.024
525586.502,4110463.071,-80.728
525586.502,4110413.071,-81.083
525586.502,4110363.071,-82.185
525586.502,4110313.071,-81.960
525586.502,4110263.071,-82.091
525586.502,4110213.071,-81.815
525586.502,4110163.071,-81.310
525586.502,4110113.071,-80.201
525586.502,4110063.071,-78.911
525586.502,4110013.071,-78.034
525586.502,4109963.071,-77.913
525586.502,4109913.071,-77.886
525586.502,4109863.071,-77.959
525586.502,4109813.071,-77.987
525586.502,4109763.071,-78.007
525586.502,4109713.071,-78.110
525586.502,4109663.071,-78.189
525586.502,4109613.071,-78.362
525586.502,4109563.071,-78.498
525586.502,4109513.071,-78.666
525586.502,4109463.071,-78.739
525586.502,4109413.071,-79.009
525586.502,4109363.071,-79.054
525586.502,4109313.071,-78.756
525586.502,4109263.071,-78.437
525586.502,4109213.071,-78.093
525586.502,4109163.071,-77.253
525586.502,4109113.071,-75.063
525586.502,4109063.071,-75.923
525586.502,4109013.071,-77.058
525586.502,4108963.071,-76.587
525586.502,4108913.071,-76.137
525586.502,4108863.071,-75.563
525586.502,4108813.071,-73.239
525586.502,4108763.071,-68.931
525586.502,4108713.071,-68.438
525586.502,4108663.071,-68.903
525586.502,4108613.071,-69.020
525586.502,4108563.071,-69.106
525586.502,4108513.071,-69.212
525586.502,4108463.071,-69.202
525586.502,4108413.071,-68.966
525586.502,4108363.071,-68.714
525586.502,4108313.071,-68.300
525586.502,4108263.071,-67.916
525586.502,4108213.071,-67.466
525586.502,4108163.071,-67.001
525586.502,4108113.071,-66.639
525586.502,4108063.071,-66.218
525586.502,4108013.071,-65.692
525586.502,4107963.071,-65.102
525586.502,4107913.071,-64.449
525586.502,4107863.071,-63.827
525586.502,4107813.071,-63.548
525586.502,4092613.071,-65.554
525586.502,4092563.071,-65.614
525586.502,4092513.071,-65.707
525586.502,4092463.071,-65.919
525586.502,4092413.071,-66.177
525586.502,4092363.071,-66.417
525586.502,4092313.071,-66.726
525586.502,4092263.071,-67.132
525586.502,4092213.071,-67.548
525586.502,4092163.071,-67.774
525586.502,4092113.071,-68.148
525586.502,4092063.071,-68.290
525586.502,4092013.071,-68.291
525586.502,4091963.071,-67.873
525586.502,4091913.071,-68.497
525586.502,4091863.071,-68.230
525586.502,4091813.071,-67.288
525586.502,4091763.071,-67.222
525586.502,4091713.071,-67.330
525586.502,4091663.071,-67.072
525586.502,4091613.071,-66.171
525586.502,4091563.071,-65.368
525586.502,4091513.071,-64.824
525586.502,4091463.071,-64.515
525586.502,4091413.071,-64.424
525586.502,4091363.071,-64.515
525586.502,4091313.071,-64.736
525586.502,4091263.071,-64.940
525586.502,4091213.071,-65.083
525586.502,4091163.071,-65.222
525586.502,4091113.071,-65.397
525586.502,4091063.071,-65.573
525586.502,4091013.071,-65.759
525586.502,4090963.071,-66.077
525586.502,4090913.071,-66.516
525586.502,4090863.071,-66.820
525586.502,4090813.071,-67.156
525586.502,4090763.071,-67.407
525586.502,4090713.071,-67.847
525586.502,4090663.071,-68.458
525586.502,4090613.071,-69.571
525586.502,4090563.071,-70.272
525586.502,4090513.071,-71.267
525586.502,4090463.071,-72.445
525586.502,4090413.071,-73.146
525586.502,4090363.071,-73.741
525586.502,4090313.071,-74.217
525586.502,4090263.071,-74.917
525586.502,4090213.071,-75.329
525586.502,4090163.071,-75.341
525586.502,4090113.071,-75.341
525636.502,4123013.071,-243.270
525636.502,4122963.071,-232.463
525636.502,4122913.071,-224.617
525636.502,4122863.071,-220.766
525636.502,4122813.071,-218.425
525636.502,4122763.071,-218.705
525636.502,4122713.071,-208.159
525636.502,4122663.071,-198.928
525636.502,4122613.071,-189.787
525636.502,4122563.071,-185.542
525636.502,4122513.071,-175.562
525636.502,4122463.071,-168.041
525636.502,4122413.071,-162.739
525636.502,4122363.071,-156.594
525636.502,4122313.071,-151.998
525636.502,4122263.071,-144.147
525636.502,4122213.071,-133.187
525636.502,4122163.071,-121.989
525636.502,4122113.071,-118.678
525636.502,4122063.071,-117.690
525636.502,4122013.071,-117.128
525636.502,4121963.071,-116.345
525636.502,4121913.071,-115.019
525636.502,4121863.071,-111.551
525636.502,4121813.071,-108.677
525636.502,4121763.071,-106.092
525636.502,4121713.071,-99.901
525636.502,4121663.071,-98.158
525636.502,4121613.071,-97.624
525636.502,4121563.071,-97.002
525636.502,4121513.071,-95.039
525636.502,4121463.071,-92.399
525636.502,4121413.071,-91.126
525636.502,4121363.071,-90.840
525636.502,4121313.071,-90.634
525636.502,4121263.071,-90.239
525636.502,4121213.071,-88.924
525636.502,4121163.071,-87.859
525636.502,4121113.071,-86.489
525636.502,4121063.071,-85.147
525636.502,4121013.071,-84.288
525636.502,4120963.071,-83.577
525636.502,4120913.071,-82.958
525636.502,4120863.071,-82.610
525636.502,4120813.071,-82.505
525636.502,4120763.071,-82.898
525636.502,4120713.071,-83.967
525636.502,4120663.071,-84.574
525636.502,4120613.071,-85.109
525636.502,4120563.071,-85.126
525636.502,4120513.071,-85.360
525636.502,4120463.071,-86.121
525636.502,4120413.071,-86.862
525636.502,4120363.071,-87.512
525636.502,4120313.071,-88.191
525636.502,4120263.071,-88.958
525636.502,4120213.071,-89.616
525636.502,4120163.071,-90.254
525636.502,4120113.071,-90.912
525636.502,4120063.071,-91.523
525636.502,4120013.071,-92.221
525636.502,4119963.071,-92.974
525636.502,4119913.071,-93.797
525636.502,4119863.071,-94.753
525636.502,4119813.071,-95.690
525636.502,4119763.071,-96.765
525636.502,4119713.071,-97.970
525636.502,4119663.071,-99.268
525636.502,4119613.071,-100.794
525636.502,4119563.071,-102.703
525636.502,4119513.071,-105.182
525636.502,4119463.071,-108.444
525636.502,4119413.071,-112.913
525636.502,4119363.071,-119.526
525636.502,4119313.071,-130.563
525636.502,4119263.071,-141.919
525636.502,4119213.071,-159.087
525636.502,4119163.071,-180.673
525636.502,4119113.071,-200.539
525636.502,4119063.071,-208.372
525636.502,4119013.071,-219.345
525636.502,4118963.071,-226.294
525636.502,4118913.071,-224.524
525636.502,4118863.071,-227.878
525636.502,4118813.071,-225.651
525636.502,4118763.071,-235.015
525636.502,4118713.071,-243.027
525636.502,4114163.071,-235.410
525636.502,4114113.071,-211.649
525636.502,4114063.071,-197.429
525636.502,4114013.071,-189.616
525636.502,4113963.071,-184.915
525636.502,4113913.071,-171.294
525636.502,4113863.071,-144.766
525636.502,4113813.071,-134.216
525636.502,4113763.071,-134.478
525636.502,4113713.071,-143.094
525636.502,4113663.071,-142.598
525636.502,4113613.071,-143.247
525636.502,4113563.071,-140.878
525636.502,4113513.071,-138.503
525636.502,4113463.071,-134.181
525636.502,4113413.071,-131.871
525636.502,4113363.071,-128.828
525636.502,4113313.071,-126.452
525636.502,4113263.071,-124.149
525636.502,4113213.071,-121.254
525636.502,4113163.071,-118.910
525636.502,4113113.071,-117.734
525636.502,4113063.071,-116.445
525636.502,4113013.071,-114.835
525636.502,4112963.071,-113.669
525636.502,4112913.071,-112.632
525636.502,4112863.071,-111.718
525636.502,4112813.071,-110.802
525636.502,4112763.071,-109.929
525636.502,4112713.071,-109.406
525636.502,4112663.071,-109.053
525636.502,4112613.071,-108.900
525636.502,4112563.071,-108.814
525636.502,4112513.071,-108.884
525636.502,4112463.071,-109.086
525636.502,4112413.071,-108.991
525636.502,4112363.071,-108.638
525636.502,4112313.071,-108.611
525636.502,4112263.071,-108.490
525636.502,4112213.071,-108.280
525636.502,4112163.071,-108.007
525636.502,4112113.071,-107.843
525636.502,4112063.071,-107.625
525636.502,4112013.071,-107.559
525636.502,4111963.071,-107.840
525636.502,4111913.071,-108.505
525636.502,4111863.071,-108.500
525636.502,4111813.071,-107.174
525636.502,4111763.071,-106.637
525636.502,4111713.071,-105.820
525636.502,4111663.071,-105.679
525636.502,4111613.071,-105.341
525636.502,4111563.071,-104.873
525636.502,4111513.071,-104.069
525636.502,4111463.071,-103.399
525636.502,4111413.071,-102.578
525636.502,4111363.071,-101.765
525636.502,4111313.071,-101.694
525636.502,4111263.071,-100.363
525636.502,4111213.071,-97.885
525636.502,4111163.071,-93.565
525636.502,4111113.071,-86.502
525636.502,4111063.071,-84.927
525636.502,4111013.071,-84.606
525636.502,4110963.071,-84.356
525636.502,4110913.071,-84.997
525636.502,4110863.071,-85.298
525636.502,4110813.071,-85.105
525636.502,4110763.071,-84.943
525636.502,4110713.071,-84.878
525636.502,4110663.071,-84.292
525636.502,4110613.071,-83.684
525636.502,4110563.071,-82.892
525636.502,4110513.071,-82.444
525636.502,4110463.071,-81.356
525636.502,4110413.071,-80.934
525636.502,4110363.071,-82.217
525636.502,4110313.071,-82.367
525636.502,4110263.071,-82.372
525636.502,4110213.071,-82.128
525636.502,4110163.071,-81.480
525636.502,4110113.071,-80.320
525636.502,4110063.071,-78.844
525636.502,4110013.071,-78.501
525636.502,4109963.071,-78.361
525636.502,4109913.071,-78.297
525636.502,4109863.071,-78.480
525636.502,4109813.071,-78.557
525636.502,4109763.071,-78.571
525636.502,4109713.071,-78.771
525636.502,4109663.071,-79.095
525636.502,4109613.071,-79.300
525636.502,4109563.071,-79.289
525636.502,4109513.071,-79.329
525636.502,4109463.071,-79.433
525636.502,4109413.071,-79.320
525636.502,4109363.071,-79.421
525636.502,4109313.071,-79.181
525636.502,4109263.071,-79.072
525636.502,4109213.071,-79.025
525636.502,4109163.071,-78.844
525636.502,4109113.071,-78.656
525636.502,4109063.071,-78.194
525636.502,4109013.071,-77.935
525636.502,4108963.071,-77.531
525636.502,4108913.071,-76.993
525636.502,4108863.071,-76.016
525636.502,4108813.071,-71.363
525636.502,4108763.071,-69.624
525636.502,4108713.071,-69.104
525636.502,4108663.071,-69.195
525636.502,4108613.071,-69.406
525636.502,4108563.071,-69.343
525636.502,4108513.071,-69.351
525636.502,4108463.071,-69.679
525636.502,4108413.071,-69.559
525636.502,4108363.071,-69.329
525636.502,4108313.071,-69.070
525636.502,4108263.071,-68.720
525636.502,4108213.071,-68.243
525636.502,4108163.071,-67.598
525636.502,4108113.071,-67.323
525636.502,4108063.071,-67.440
525636.502,4108013.071,-67.177
525636.502,4107963.071,-66.520
525636.502,4107913.071,-65.766
525636.502,4107863.071,-64.864
525636.502,4107813.071,-63.682
525636.502,4092663.071,-65.492
525636.502,4092613.071,-66.025
525636.502,4092563.071,-65.947
525636.502,4092513.071,-65.823
525636.502,4092463.071,-65.979
525636.502,4092413.071,-66.107
525636.502,4092363.071,-66.122
525636.502,4092313.071,-66.330
525636.502,4092263.071,-66.844
525636.502,4092213.071,-67.386
525636.502,4092163.071,-68.085
525636.502,4092113.071,-68.356
525636.502,4092063.071,-68.505
525636.502,4092013.071,-68.663
525636.502,4091963.071,-68.711
525636.502,4091913.071,-68.528
525636.502,4091863.071,-67.371
525636.502,4091813.071,-66.426
525636.502,4091763.071,-65.676
525636.502,4091713.071,-65.609
525636.502,4091663.071,-65.713
525636.502,4091613.071,-65.539
525636.502,4091563.071,-65.034
525636.502,4091513.071,-64.901
525636.502,4091463.071,-64.570
525636.502,4091413.071,-64.467
525636.502,4091363.071,-64.712
525636.502,4091313.071,-65.047
525636.502,4091263.071,-65.292
525636.502,4091213.071,-65.576
525636.502,4091163.071,-65.736
525636.502,4091113.071,-66.016
525636.502,4091063.071,-65.911
525636.502,4091013.071,-65.863
525636.502,4090963.071,-66.078
525636.502,4090913.071,-66.230
525636.502,4090863.071,-66.474
525636.502,4090813.071,-66.681
525636.502,4090763.071,-66.935
525636.502,4090713.071,-67.246
525636.502,4090663.071,-67.878
525636.502,4090613.071,-68.487
525636.502,4090563.071,-69.320
525636.502,4090513.071,-70.944
525636.502,4090463.071,-72.480
525636.502,4090413.071,-73.268
525636.502,4090363.071,-73.642
525636.502,4090313.071,-74.016
525636.502,4090263.071,-74.640
525636.502,4090213.071,-75.178
525636.502,4090163.071,-75.294
525636.502,4090113.071,-75.236
525686.502,4122963.071,-242.499
525686.502,4122913.071,-234.891
525686.502,4122863.071,-235.856
525686.502,4122813.071,-241.849
525686.502,4122763.071,-242.411
525686.502,4122713.071,-222.810
525686.502,4122663.071,-213.232
525686.502,4122613.071,-203.807
525686.502,4122563.071,-196.124
525686.502,4122513.071,-188.861
525686.502,4122463.071,-175.935
525686.502,4122413.071,-168.704
525686.502,4122363.071,-161.172
525686.502,4122313.071,-154.048
525686.502,4122263.071,-149.301
525686.502,4122213.071,-144.162
525686.502,4122163.071,-130.919
525686.502,4122113.071,-121.428
525686.502,4122063.071,-119.075
525686.502,4122013.071,-118.000
525686.502,4121963.071,-117.146
525686.502,4121913.071,-116.200
525686.502,4121863.071,-115.094
525686.502,4121813.071,-113.318
525686.502,4121763.071,-111.337
525686.502,4121713.071,-109.179
525686.502,4121663.071,-104.131
525686.502,4121613.071,-100.431
525686.502,4121563.071,-98.921
525686.502,4121513.071,-97.814
525686.502,4121463.071,-96.218
525686.502,4121413.071,-94.595
525686.502,4121363.071,-93.560
525686.502,4121313.071,-92.504
525686.502,4121263.071,-91.096
525686.502,4121213.071,-90.876
525686.502,4121163.071,-90.658
525686.502,4121113.071,-89.592
525686.502,4121063.071,-88.161
525686.502,4121013.071,-86.741
525686.502,4120963.071,-86.206
525686.502,4120913.071,-85.560
525686.502,4120863.071,-84.885
525686.502,4120813.071,-84.163
525686.502,4120763.071,-84.037
525686.502,4120713.071,-84.800
525686.502,4120663.071,-85.811
525686.502,4120613.071,-86.018
525686.502,4120563.071,-85.873
525686.502,4120513.071,-85.955
525686.502,4120463.071,-86.580
525686.502,4120413.071,-87.338
525686.502,4120363.071,-88.277
525686.502,4120313.071,-89.276
525686.502,4120263.071,-90.120
525686.502,4120213.071,-90.744
525686.502,4120163.071,-91.501
525686.502,4120113.071,-92.088
525686.502,4120063.071,-92.705
525686.502,4120013.071,-93.308
525686.502,4119963.071,-94.004
525686.502,4119913.071,-94.769
525686.502,4119863.071,-95.463
525686.502,4119813.071,-96.390
525686.502,4119763.071,-97.422
525686.502,4119713.071,-98.499
525686.502,4119663.071,-99.717
525686.502,4119613.071,-101.281
525686.502,4119563.071,-103.414
525686.502,4119513.071,-106.304
525686.502,4119463.071,-110.246
525686.502,4119413.071,-116.657
525686.502,4119363.071,-130.872
525686.502,4119313.071,-148.156
525686.502,4119263.071,-163.717
525686.502,4119213.071,-176.273
525686.502,4119163.071,-185.708
525686.502,4119113.071,-204.744
525686.502,4119063.071,-218.013
525686.502,4119013.071,-226.830
525686.502,4118963.071,-238.700
525686.502,4118913.071,-232.841
525686.502,4118863.071,-239.192
525686.502,4118813.071,-242.197
525686.502,4118763.071,-247.226
525686.502,4118713.071,-249.994
525686.502,4114163.071,-238.396
525686.502,4114113.071,-224.138
525686.502,4114063.071,-205.218
525686.502,4114013.071,-198.847
525686.502,4113963.071,-193.658
525686.502,4113913.071,-178.567
525686.502,4113863.071,-154.112
525686.502,4113813.071,-142.249
525686.502,4113763.071,-147.089
525686.502,4113713.071,-154.312
525686.502,4113663.071,-154.772
525686.502,4113613.071,-154.181
525686.502,4113563.071,-151.223
525686.502,4113513.071,-146.731
525686.502,4113463.071,-143.522
525686.502,4113413.071,-139.448
525686.502,4113363.071,-134.626
525686.502,4113313.071,-131.382
525686.502,4113263.071,-129.004
525686.502,4113213.071,-125.319
525686.502,4113163.071,-122.349
525686.502,4113113.071,-119.303
525686.502,4113063.071,-117.408
525686.502,4113013.071,-115.768
525686.502,4112963.071,-114.504
525686.502,4112913.071,-113.382
525686.502,4112863.071,-112.369
525686.502,4112813.071,-111.488
525686.502,4112763.071,-110.570
525686.502,4112713.071,-109.918
525686.502,4112663.071,-109.424
525686.502,4112613.071,-109.178
525686.502,4112563.071,-109.064
525686.502,4112513.071,-108.947
525686.502,4112463.071,-109.100
525686.502,4112413.071,-109.264
525686.502,4112363.071,-109.008
525686.502,4112313.071,-109.031
525686.502,4112263.071,-108.937
525686.502,4112213.071,-108.725
525686.502,4112163.071,-108.476
525686.502,4112113.071,-108.137
525686.502,4112063.071,-107.899
525686.502,4112013.071,-107.841
525686.502,4111963.071,-108.658
525686.502,4111913.071,-110.366
525686.502,4111863.071,-110.717
525686.502,4111813.071,-108.685
525686.502,4111763.071,-106.645
525686.502,4111713.071,-105.883
525686.502,4111663.071,-105.761
525686.502,4111613.071,-105.925
525686.502,4111563.071,-105.750
525686.502,4111513.071,-104.965
525686.502,4111463.071,-104.149
525686.502,4111413.071,-103.572
525686.502,4111363.071,-102.424
525686.502,4111313.071,-101.801
525686.502,4111263.071,-101.573
525686.502,4111213.071,-101.518
525686.502,4111163.071,-98.882
525686.502,4111113.071,-91.227
525686.502,4111063.071,-86.229
525686.502,4111013.071,-85.060
525686.502,4110963.071,-84.715
525686.502,4110913.071,-84.743
525686.502,4110863.071,-84.965
525686.502,4110813.071,-84.686
525686.502,4110763.071,-84.928
525686.502,4110713.071,-85.021
525686.502,4110663.071,-84.855
525686.502,4110613.071,-84.486
525686.502,4110563.071,-83.930
525686.502,4110513.071,-83.440
525686.502,4110463.071,-82.520
525686.502,4110413.071,-81.936
525686.502,4110363.071,-82.305
525686.502,4110313.071,-82.359
525686.502,4110263.071,-82.206
525686.502,4110213.071,-82.034
525686.502,4110163.071,-81.167
525686.502,4110113.071,-80.483
525686.502,4110063.071,-79.612
525686.502,4110013.071,-78.870
525686.502,4109963.071,-78.783
525686.502,4109913.071,-78.895
525686.502,4109863.071,-79.005
525686.502,4109813.071,-79.185
525686.502,4109763.071,-79.237
525686.502,4109713.071,-79.164
525686.502,4109663.071,-79.442
525686.502,4109613.071,-79.452
525686.502,4109563.071,-79.423
525686.502,4109513.071,-79.479
525686.502,4109463.071,-79.407
525686.502,4109413.071,-79.307
525686.502,4109363.071,-79.453
525686.502,4109313.071,-79.335
525686.502,4109263.071,-79.285
525686.502,4109213.071,-79.287
525686.502,4109163.071,-79.048
525686.502,4109113.071,-78.985
525686.502,4109063.071,-78.758
525686.502,4109013.071,-78.644
525686.502,4108963.071,-78.219
525686.502,4108913.071,-77.949
525686.502,4108863.071,-73.334
525686.502,4108813.071,-69.624
525686.502,4108763.071,-69.801
525686.502,4108713.071,-69.139
525686.502,4108663.071,-69.254
525686.502,4108613.071,-69.412
525686.502,4108563.071,-69.387
525686.502,4108513.071,-69.440
525686.502,4108463.071,-69.742
525686.502,4108413.071,-69.926
525686.502,4108363.071,-69.965
525686.502,4108313.071,-69.715
525686.502,4108263.071,-69.327
525686.502,4108213.071,-68.818
525686.502,4108163.071,-68.599
525686.502,4108113.071,-68.440
525686.502,4108063.071,-69.145
525686.502,4108013.071,-68.817
525686.502,4107963.071,-68.136
525686.502,4107913.071,-67.140
525686.502,4107863.071,-66.000
525686.502,4107813.071,-64.783
525686.502,4092663.071,-66.282
525686.502,4092613.071,-66.394
525686.502,4092563.071,-66.353
525686.502,4092513.071,-65.762
525686.502,4092463.071,-65.569
525686.502,4092413.071,-65.317
525686.502,4092363.071,-65.455
525686.502,4092313.071,-66.123
525686.502,4092263.071,-66.958
525686.502,4092213.071,-67.843
525686.502,4092163.071,-67.953
525686.502,4092113.071,-68.368
525686.502,4092063.071,-68.689
525686.502,4092013.071,-68.808
525686.502,4091963.071,-68.750
525686.502,4091913.071,-68.454
525686.502,4091863.071,-67.081
525686.502,4091813.071,-65.989
525686.502,4091763.071,-65.699
525686.502,4091713.071,-65.462
525686.502,4091663.071,-65.501
525686.502,4091613.071,-65.491
525686.502,4091563.071,-65.443
525686.502,4091513.071,-65.102
525686.502,4091463.071,-64.835
525686.502,4091413.071,-64.805
525686.502,4091363.071,-65.112
525686.502,4091313.071,-65.603
525686.502,4091263.071,-66.006
525686.502,4091213.071,-66.388
525686.502,4091163.071,-66.479
525686.502,4091113.071,-66.718
525686.502,4091063.071,-66.619
525686.502,4091013.071,-66.500
525686.502,4090963.071,-66.457
525686.502,4090913.071,-66.579
525686.502,4090863.071,-66.812
525686.502,4090813.071,-67.010
525686.502,4090763.071,-67.269
525686.502,4090713.071,-67.464
525686.502,4090663.071,-67.586
525686.502,4090613.071,-68.415
525686.502,4090563.071,-69.426
525686.502,4090513.071,-71.064
525686.502,4090463.071,-72.585
525686.502,4090413.071,-73.242
525686.502,4090363.071,-73.620
525686.502,4090313.071,-73.914
525686.502,4090263.071,-74.283
525686.502,4090213.071,-74.510
525686.502,4090163.071,-74.607
525686.502,4090113.071,-74.489
525736.502,4122713.071,-238.460
525736.502,4122663.071,-222.358
525736.502,4122613.071,-217.487
525736.502,4122563.071,-217.657
525736.502,4122513.071,-201.726
525736.502,4122463.071,-185.304
525736.502,4122413.071,-174.076
525736.502,4122363.071,-166.175
525736.502,4122313.071,-159.274
525736.502,4122263.071,-151.508
525736.502,4122213.071,-146.976
525736.502,4122163.071,-139.684
525736.502,4122113.071,-126.282
525736.502,4122063.071,-121.541
525736.502,4122013.071,-120.140
525736.502,4121963.071,-118.719
525736.502,4121913.071,-117.634
525736.502,4121863.071,-116.299
525736.502,4121813.071,-115.174
525736.502,4121763.071,-113.981
525736.502,4121713.071,-112.532
525736.502,4121663.071,-110.807
525736.502,4121613.071,-106.146
525736.502,4121563.071,-102.027
525736.502,4121513.071,-99.430
525736.502,4121463.071,-98.420
525736.502,4121413.071,-97.285
525736.502,4121363.071,-96.620
525736.502,4121313.071,-95.852
525736.502,4121263.071,-94.250
525736.502,4121213.071,-91.715
525736.502,4121163.071,-91.226
525736.502,4121113.071,-91.388
525736.502,4121063.071,-91.127
525736.502,4121013.071,-89.900
525736.502,4120963.071,-88.083
525736.502,4120913.071,-86.304
525736.502,4120863.071,-86.180
525736.502,4120813.071,-85.902
525736.502,4120763.071,-84.893
525736.502,4120713.071,-86.447
525736.502,4120663.071,-86.741
525736.502,4120613.071,-86.419
525736.502,4120563.071,-86.436
525736.502,4120513.071,-86.629
525736.502,4120463.071,-86.907
525736.502,4120413.071,-87.712
525736.502,4120363.071,-88.851
525736.502,4120313.071,-90.035
525736.502,4120263.071,-91.152
525736.502,4120213.071,-91.926
525736.502,4120163.071,-92.690
525736.502,4120113.071,-93.433
525736.502,4120063.071,-93.957
525736.502,4120013.071,-94.535
525736.502,4119963.071,-95.215
525736.502,4119913.071,-95.864
525736.502,4119863.071,-96.356
525736.502,4119813.071,-97.148
525736.502,4119763.071,-98.056
525736.502,4119713.071,-99.059
525736.502,4119663.071,-100.300
525736.502,4119613.071,-102.006
525736.502,4119563.071,-104.355
525736.502,4119513.071,-107.493
525736.502,4119463.071,-112.178
525736.502,4119413.071,-120.704
525736.502,4119363.071,-141.774
525736.502,4119313.071,-161.878
525736.502,4119263.071,-171.011
525736.502,4119213.071,-179.336
525736.502,4119163.071,-190.848
525736.502,4119113.071,-201.579
525736.502,4119063.071,-215.997
525736.502,4119013.071,-230.248
525736.502,4118963.071,-246.562
525736.502,4118913.071,-245.961
525736.502,4114213.071,-248.037
525736.502,4114163.071,-240.521
525736.502,4114113.071,-222.449
525736.502,4114063.071,-215.091
525736.502,4114013.071,-204.574
525736.502,4113963.071,-191.743
525736.502,4113913.071,-175.314
525736.502,4113863.071,-161.360
525736.502,4113813.071,-155.524
525736.502,4113763.071,-162.649
525736.502,4113713.071,-165.172
525736.502,4113663.071,-165.869
525736.502,4113613.071,-161.467
525736.502,4113563.071,-159.915
525736.502,4113513.071,-156.143
525736.502,4113463.071,-153.745
525736.502,4113413.071,-152.371
525736.502,4113363.071,-147.012
525736.502,4113313.071,-139.788
525736.502,4113263.071,-134.425
525736.502,4113213.071,-129.618
525736.502,4113163.071,-125.255
525736.502,4113113.071,-121.624
525736.502,4113063.071,-118.610
525736.502,4113013.071,-116.699
525736.502,4112963.071,-115.234
525736.502,4112913.071,-114.129
525736.502,4112863.071,-113.063
525736.502,4112813.071,-112.064
525736.502,4112763.071,-111.288
525736.502,4112713.071,-110.519
525736.502,4112663.071,-109.885
525736.502,4112613.071,-109.497
525736.502,4112563.071,-109.204
525736.502,4112513.071,-109.168
525736.502,4112463.071,-109.272
525736.502,4112413.071,-109.459
525736.502,4112363.071,-109.615
525736.502,4112313.071,-109.466
525736.502,4112263.071,-109.401
525736.502,4112213.071,-109.243
525736.502,4112163.071,-108.939
525736.502,4112113.071,-108.577
525736.502,4112063.071,-108.255
525736.502,4112013.071,-108.054
525736.502,4111963.071,-107.880
525736.502,4111913.071,-102.627
525736.502,4111863.071,-105.091
525736.502,4111813.071,-110.571
525736.502,4111763.071,-107.942
525736.502,4111713.071,-107.245
525736.502,4111663.071,-107.524
525736.502,4111613.071,-107.768
525736.502,4111563.071,-107.597
525736.502,4111513.071,-106.620
525736.502,4111463.071,-105.499
525736.502,4111413.071,-104.465
525736.502,4111363.071,-103.614
525736.502,4111313.071,-102.903
525736.502,4111263.071,-102.220
525736.502,4111213.071,-97.547
525736.502,4111163.071,-94.413
525736.502,4111113.071,-91.415
525736.502,4111063.071,-87.577
525736.502,4111013.071,-86.381
525736.502,4110963.071,-85.785
525736.502,4110913.071,-85.320
525736.502,4110863.071,-85.349
525736.502,4110813.071,-85.384
525736.502,4110763.071,-85.512
525736.502,4110713.071,-85.817
525736.502,4110663.071,-85.312
525736.502,4110613.071,-84.926
525736.502,4110563.071,-84.116
525736.502,4110513.071,-82.561
525736.502,4110463.071,-79.209
525736.502,4110413.071,-78.511
525736.502,4110363.071,-80.812
525736.502,4110313.071,-82.052
525736.502,4110263.071,-81.931
525736.502,4110213.071,-81.670
525736.502,4110163.071,-80.862
525736.502,4110113.071,-80.247
525736.502,4110063.071,-79.596
525736.502,4110013.071,-79.609
525736.502,4109963.071,-79.534
525736.502,4109913.071,-79.433
525736.502,4109863.071,-79.394
525736.502,4109813.071,-79.459
525736.502,4109763.071,-79.482
525736.502,4109713.071,-79.479
525736.502,4109663.071,-79.591
525736.502,4109613.071,-79.630
525736.502,4109563.071,-79.572
525736.502,4109513.071,-79.478
525736.502,4109463.071,-79.480
525736.502,4109413.071,-79.560
525736.502,4109363.071,-79.613
525736.502,4109313.071,-79.580
525736.502,4109263.071,-79.482
525736.502,4109213.071,-79.427
525736.502,4109163.071,-79.388
525736.502,4109113.071,-79.418
525736.502,4109063.071,-79.106
525736.502,4109013.071,-79.065
525736.502,4108963.071,-78.815
525736.502,4108913.071,-78.514
525736.502,4108863.071,-76.560
525736.502,4108813.071,-70.974
525736.502,4108763.071,-70.084
525736.502,4108713.071,-68.679
525736.502,4108663.071,-69.060
525736.502,4108613.071,-69.149
525736.502,4108563.071,-68.953
525736.502,4108513.071,-69.066
525736.502,4108463.071,-69.227
525736.502,4108413.071,-70.288
525736.502,4108363.071,-70.533
525736.502,4108313.071,-70.645
525736.502,4108263.071,-69.780
525736.502,4108213.071,-69.504
525736.502,4108163.071,-70.084
525736.502,4108113.071,-71.703
525736.502,4108063.071,-71.332
525736.502,4108013.071,-70.630
525736.502,4107963.071,-69.788
525736.502,4107913.071,-68.694
525736.502,4107863.071,-67.284
525736.502,4107813.071,-65.895
525736.502,4107763.071,-64.737
525736.502,4092763.071,-66.284
525736.502,4092713.071,-66.354
525736.502,4092663.071,-66.710
525736.502,4092613.071,-66.893
525736.502,4092563.071,-67.015
525736.502,4092513.071,-65.921
525736.502,4092463.071,-65.373
525736.502,4092413.071,-65.321
525736.502,4092363.071,-65.878
525736.502,4092313.071,-67.039
525736.502,4092263.071,-68.252
525736.502,4092213.071,-68.818
525736.502,4092163.071,-68.884
525736.502,4092113.071,-68.823
525736.502,4092063.071,-68.917
525736.502,4092013.071,-68.853
525736.502,4091963.071,-68.275
525736.502,4091913.071,-67.792
525736.502,4091863.071,-66.533
525736.502,4091813.071,-66.055
525736.502,4091763.071,-65.811
525736.502,4091713.071,-65.488
525736.502,4091663.071,-65.441
525736.502,4091613.071,-65.577
525736.502,4091563.071,-65.539
525736.502,4091513.071,-65.358
525736.502,4091463.071,-65.214
525736.502,4091413.071,-65.183
525736.502,4091363.071,-65.479
525736.502,4091313.071,-66.048
525736.502,4091263.071,-67.036
525736.502,4091213.071,-67.442
525736.502,4091163.071,-67.532
525736.502,4091113.071,-67.692
525736.502,4091063.071,-67.747
525736.502,4091013.071,-67.730
525736.502,4090963.071,-67.621
525736.502,4090913.071,-67.643
525736.502,4090863.071,-67.797
525736.502,4090813.071,-67.903
525736.502,4090763.071,-68.121
525736.502,4090713.071,-68.168
525736.502,4090663.071,-68.001
525736.502,4090613.071,-69.000
525736.502,4090563.071,-70.186
525736.502,4090513.071,-71.328
525736.502,4090463.071,-72.412
525736.502,4090413.071,-73.127
525736.502,4090363.071,-73.616
525736.502,4090313.071,-73.827
525736.502,4090263.071,-73.887
525736.502,4090213.071,-74.178
525736.502,4090163.071,-74.024
525736.502,4090113.071,-73.776
525786.502,4122663.071,-232.254
525786.502,4122613.071,-234.891
525786.502,4122563.071,-229.823
525786.502,4122513.071,-215.618
525786.502,4122463.071,-189.358
525786.502,4122413.071,-181.046
525786.502,4122363.071,-173.922
525786.502,4122313.071,-164.118
525786.502,4122263.071,-156.807
525786.502,4122213.071,-151.368
525786.502,4122163.071,-142.178
525786.502,4122113.071,-130.015
525786.502,4122063.071,-125.534
525786.502,4122013.071,-123.845
525786.502,4121963.071,-122.365
525786.502,4121913.071,-120.468
525786.502,4121863.071,-118.548
525786.502,4121813.071,-117.323
525786.502,4121763.071,-116.307
525786.502,4121713.071,-115.242
525786.502,4121663.071,-114.099
525786.502,4121613.071,-112.435
525786.502,4121563.071,-109.335
525786.502,4121513.071,-104.340
525786.502,4121463.071,-100.790
525786.502,4121413.071,-99.351
525786.502,4121363.071,-98.368
525786.502,4121313.071,-97.562
525786.502,4121263.071,-96.494
525786.502,4121213.071,-95.019
525786.502,4121163.071,-93.434
525786.502,4121113.071,-93.232
525786.502,4121063.071,-92.959
525786.502,4121013.071,-92.549
525786.502,4120963.071,-91.041
525786.502,4120913.071,-89.726
525786.502,4120863.071,-88.401
525786.502,4120813.071,-87.009
525786.502,4120763.071,-86.672
525786.502,4120713.071,-87.729
525786.502,4120663.071,-88.235
525786.502,4120613.071,-87.982
525786.502,4120563.071,-87.829
525786.502,4120513.071,-87.625
525786.502,4120463.071,-87.717
525786.502,4120413.071,-88.021
525786.502,4120363.071,-88.907
525786.502,4120313.071,-90.286
525786.502,4120263.071,-91.939
525786.502,4120213.071,-93.013
525786.502,4120163.071,-93.741
525786.502,4120113.071,-94.442
525786.502,4120063.071,-94.896
525786.502,4120013.071,-95.353
525786.502,4119963.071,-96.004
525786.502,4119913.071,-96.530
525786.502,4119863.071,-97.216
