432902.332,4373638.221,-3523.352
432902.332,4373438.221,-3523.014
432902.332,4373238.221,-3522.329
432902.332,4373038.221,-3521.332
432902.332,4372838.221,-3520.178
432902.332,4372638.221,-3518.823
432902.332,4372438.221,-3517.131
432902.332,4372238.221,-3515.061
432902.332,4372038.221,-3512.263
432902.332,4371838.221,-3507.936
432902.332,4371638.221,-3500.881
432902.332,4371438.221,-3490.670
432902.332,4371238.221,-3478.454
432902.332,4371038.221,-3466.055
432902.332,4370838.221,-3454.345
432902.332,4370638.221,-3443.220
432902.332,4370438.221,-3432.619
432902.332,4370238.221,-3423.048
432902.332,4370038.221,-3415.188
432902.332,4369838.221,-3409.103
432902.332,4369638.221,-3404.214
432902.332,4369438.221,-3399.972
432902.332,4369238.221,-3396.381
432902.332,4369038.221,-3393.658
432902.332,4368838.221,-3391.852
432902.332,4368638.221,-3390.947
432902.332,4368438.221,-3390.497
432902.332,4368238.221,-3389.708
432902.332,4368038.221,-3388.141
432902.332,4367838.221,-3385.588
432902.332,4367638.221,-3381.220
432902.332,4367438.221,-3373.603
432902.332,4367238.221,-3361.688
432902.332,4367038.221,-3346.229
432902.332,4366838.221,-3329.667
432902.332,4366638.221,-3314.888
432902.332,4366438.221,-3303.336
432902.332,4366238.221,-3294.682
432902.332,4366038.221,-3287.476
432902.332,4365838.221,-3280.489
432902.332,4365638.221,-3274.085
432902.332,4365438.221,-3271.499
432902.332,4365238.221,-3276.744
432902.332,4365038.221,-3287.797
432902.332,4364838.221,-3298.160
432902.332,4364638.221,-3304.973
432902.332,4364438.221,-3309.649
432902.332,4364238.221,-3313.733
432902.332,4364038.221,-3317.889
432902.332,4363838.221,-3321.918
432902.332,4363638.221,-3324.913
432902.332,4363438.221,-3326.129
432902.332,4363238.221,-3325.822
432902.332,4363038.221,-3325.144
432902.332,4362838.221,-3324.382
432902.332,4362638.221,-3323.074
432902.332,4362438.221,-3321.566
432902.332,4362238.221,-3320.637
432902.332,4362038.221,-3320.210
432902.332,4361838.221,-3320.304
432902.332,4361638.221,-3320.945
432902.332,4361438.221,-3321.546
432902.332,4361238.221,-3321.318
432902.332,4361038.221,-3319.280
432902.332,4360838.221,-3315.150
432902.332,4360638.221,-3310.296
432902.332,4360438.221,-3305.333
432902.332,4360238.221,-3299.854
432902.332,4360038.221,-3295.147
432902.332,4359838.221,-3292.277
432902.332,4359638.221,-3289.108
432902.332,4359438.221,-3283.769
432902.332,4359238.221,-3277.970
432902.332,4359038.221,-3272.871
432902.332,4358838.221,-3265.871
432902.332,4358638.221,-3253.956
432902.332,4358438.221,-3236.770
432902.332,4358238.221,-3220.588
432902.332,4358038.221,-3214.477
432902.332,4357838.221,-3218.526
432902.332,4357638.221,-3227.241
432902.332,4357438.221,-3238.682
432902.332,4357238.221,-3251.330
432902.332,4357038.221,-3259.014
432902.332,4356838.221,-3257.055
432902.332,4356638.221,-3247.320
432902.332,4356438.221,-3236.892
432902.332,4356238.221,-3228.020
432902.332,4356038.221,-3221.621
432902.332,4355838.221,-3216.724
432902.332,4355638.221,-3212.272
432902.332,4355438.221,-3210.093
432902.332,4355238.221,-3206.533
432902.332,4355038.221,-3200.645
432902.332,4354838.221,-3191.353
432902.332,4354638.221,-3168.480
432902.332,4354438.221,-3128.369
432902.332,4354238.221,-3072.902
432902.332,4354038.221,-3010.991
432902.332,4353838.221,-2952.464
432902.332,4353638.221,-2895.125
432902.332,4353438.221,-2848.730
432902.332,4353238.221,-2823.425
432902.332,4353038.221,-2814.859
432902.332,4352838.221,-2813.596
432902.332,4352638.221,-2812.303
432902.332,4352438.221,-2810.508
432902.332,4352238.221,-2810.195
432902.332,4352038.221,-2810.900
432902.332,4351838.221,-2811.423
432902.332,4351638.221,-2812.171
432902.332,4351438.221,-2810.514
432902.332,4351238.221,-2808.782
432902.332,4351038.221,-2810.557
432902.332,4350838.221,-2812.567
432902.332,4350638.221,-2813.645
432902.332,4350438.221,-2814.792
432902.332,4350238.221,-2815.679
432902.332,4350038.221,-2817.993
432902.332,4349838.221,-2817.360
432902.332,4349638.221,-2808.399
432902.332,4349438.221,-2799.490
432902.332,4349238.221,-2796.947
432902.332,4349038.221,-2805.277
432902.332,4348838.221,-2810.569
432902.332,4348638.221,-2793.554
432902.332,4348438.221,-2787.455
432902.332,4348238.221,-2785.856
432902.332,4348038.221,-2790.047
432902.332,4347838.221,-2791.894
432902.332,4347638.221,-2791.806
432902.332,4347438.221,-2780.381
432902.332,4347238.221,-2773.261
432902.332,4347038.221,-2800.134
432902.332,4346838.221,-2861.926
432902.332,4346638.221,-2920.546
432902.332,4346438.221,-2944.822
432902.332,4346238.221,-2971.487
432902.332,4346038.221,-3041.714
432902.332,4345838.221,-3115.796
432902.332,4345638.221,-3161.580
432902.332,4345438.221,-3187.854
432902.332,4345238.221,-3211.893
432902.332,4345038.221,-3233.971
432902.332,4344838.221,-3261.248
432902.332,4344638.221,-3296.731
432902.332,4344438.221,-3324.274
432902.332,4344238.221,-3348.183
432902.332,4344038.221,-3366.927
432902.332,4343838.221,-3374.811
432902.332,4343638.221,-3375.703
432902.332,4343438.221,-3376.982
432902.332,4343238.221,-3379.577
432902.332,4343038.221,-3382.293
432902.332,4342838.221,-3384.802
432902.332,4342638.221,-3386.976
432902.332,4342438.221,-3388.435
432902.332,4342238.221,-3390.990
432902.332,4342038.221,-3395.243
432902.332,4341838.221,-3396.934
432902.332,4341638.221,-3396.290
432902.332,4341438.221,-3396.789
432902.332,4341238.221,-3397.510
432902.332,4341038.221,-3397.646
432902.332,4340838.221,-3397.168
432902.332,4340638.221,-3396.477
432902.332,4340438.221,-3397.219
432902.332,4340238.221,-3398.635
432902.332,4340038.221,-3400.119
432902.332,4339838.221,-3402.415
432902.332,4339638.221,-3406.494
432902.332,4339438.221,-3411.865
432902.332,4339238.221,-3413.482
432902.332,4339038.221,-3408.928
432902.332,4338838.221,-3405.349
432902.332,4338638.221,-3408.229
432902.332,4338438.221,-3414.603
432902.332,4338238.221,-3417.472
432902.332,4338038.221,-3420.368
432902.332,4337838.221,-3424.941
432902.332,4337638.221,-3428.317
432902.332,4337438.221,-3429.429
432902.332,4337238.221,-3428.384
432902.332,4337038.221,-3427.514
432902.332,4336838.221,-3427.342
432902.332,4336638.221,-3427.528
432902.332,4336438.221,-3427.700
432902.332,4336238.221,-3427.267
432902.332,4336038.221,-3423.672
432902.332,4335838.221,-3416.570
432902.332,4335638.221,-3410.249
432902.332,4335438.221,-3407.052
432902.332,4335238.221,-3406.362
432902.332,4335038.221,-3406.489
432902.332,4334838.221,-3406.166
432902.332,4334638.221,-3406.003
432902.332,4334438.221,-3406.719
432902.332,4334238.221,-3408.414
432902.332,4334038.221,-3409.363
432902.332,4333838.221,-3408.329
432902.332,4333638.221,-3406.101
432902.332,4333438.221,-3403.778
432902.332,4333238.221,-3402.061
432902.332,4333038.221,-3401.192
432902.332,4332838.221,-3401.367
432902.332,4332638.221,-3402.895
432902.332,4332438.221,-3405.977
432902.332,4332238.221,-3410.019
432902.332,4332038.221,-3413.452
432902.332,4331838.221,-3415.197
432902.332,4331638.221,-3415.360
432902.332,4331438.221,-3414.970
432902.332,4331238.221,-3415.596
432902.332,4331038.221,-3417.849
432902.332,4330838.221,-3420.772
432902.332,4330638.221,-3422.848
432902.332,4330438.221,-3423.659
432902.332,4330238.221,-3423.114
432902.332,4330038.221,-3422.353
432902.332,4329838.221,-3422.966
432902.332,4329638.221,-3425.476
432902.332,4329438.221,-3428.737
432902.332,4329238.221,-3431.870
432902.332,4329038.221,-3435.087
432902.332,4328838.221,-3438.142
432902.332,4328638.221,-3440.899
432902.332,4328438.221,-3444.359
432902.332,4328238.221,-3449.155
432902.332,4328038.221,-3453.435
432902.332,4327838.221,-3455.813
432902.332,4327638.221,-3456.809
432902.332,4327438.221,-3456.919
432902.332,4327238.221,-3456.280
432902.332,4327038.221,-3455.347
432902.332,4326838.221,-3454.590
432902.332,4326638.221,-3453.885
432902.332,4326438.221,-3452.888
432902.332,4326238.221,-3452.145
432902.332,4326038.221,-3453.169
432902.332,4325838.221,-3456.234
432902.332,4325638.221,-3459.509
432902.332,4325438.221,-3460.978
432902.332,4325238.221,-3460.418
432902.332,4325038.221,-3458.049
432902.332,4324838.221,-3454.245
432902.332,4324638.221,-3449.524
432902.332,4324438.221,-3444.654
432902.332,4324238.221,-3440.671
432902.332,4324038.221,-3438.629
432902.332,4323838.221,-3439.477
432902.332,4323638.221,-3443.865
432902.332,4323438.221,-3451.775
432902.332,4323238.221,-3461.872
432902.332,4323038.221,-3472.103
432902.332,4322838.221,-3480.966
432902.332,4322638.221,-3487.823
432902.332,4322438.221,-3492.695
432902.332,4322238.221,-3495.964
432902.332,4322038.221,-3498.118
432902.332,4321838.221,-3499.498
432902.332,4321638.221,-3500.318
432902.332,4321438.221,-3500.812
432902.332,4321238.221,-3501.280
432902.332,4321038.221,-3501.976
432902.332,4320838.221,-3502.895
432902.332,4320638.221,-3503.644
432902.332,4320438.221,-3504.013
432902.332,4320238.221,-3504.236
432902.332,4320038.221,-3504.547
432902.332,4319838.221,-3504.609
432902.332,4319638.221,-3504.483
432902.332,4319438.221,-3504.799
432902.332,4319238.221,-3505.586
432902.332,4319038.221,-3506.708
432902.332,4318838.221,-3507.581
432902.332,4318638.221,-3508.111
432902.332,4318438.221,-3508.564
432902.332,4318238.221,-3508.881
433102.332,4374238.221,-3523.400
433102.332,4374038.221,-3523.383
433102.332,4373838.221,-3523.288
433102.332,4373638.221,-3523.114
433102.332,4373438.221,-3522.951
433102.332,4373238.221,-3522.526
433102.332,4373038.221,-3521.757
433102.332,4372838.221,-3520.665
433102.332,4372638.221,-3519.280
433102.332,4372438.221,-3517.594
433102.332,4372238.221,-3515.541
433102.332,4372038.221,-3512.786
433102.332,4371838.221,-3507.984
433102.332,4371638.221,-3499.588
433102.332,4371438.221,-3487.229
433102.332,4371238.221,-3472.865
433102.332,4371038.221,-3459.228
433102.332,4370838.221,-3447.416
433102.332,4370638.221,-3437.077
433102.332,4370438.221,-3427.570
433102.332,4370238.221,-3418.884
433102.332,4370038.221,-3411.647
433102.332,4369838.221,-3406.208
433102.332,4369638.221,-3402.167
433102.332,4369438.221,-3399.020
433102.332,4369238.221,-3396.682
433102.332,4369038.221,-3395.078
433102.332,4368838.221,-3394.044
433102.332,4368638.221,-3393.423
433102.332,4368438.221,-3392.704
433102.332,4368238.221,-3391.394
433102.332,4368038.221,-3389.411
433102.332,4367838.221,-3386.656
433102.332,4367638.221,-3382.147
433102.332,4367438.221,-3374.450
433102.332,4367238.221,-3363.351
433102.332,4367038.221,-3350.231
433102.332,4366838.221,-3336.723
433102.332,4366638.221,-3323.853
433102.332,4366438.221,-3311.929
433102.332,4366238.221,-3301.059
433102.332,4366038.221,-3291.352
433102.332,4365838.221,-3283.414
433102.332,4365638.221,-3278.076
433102.332,4365438.221,-3276.449
433102.332,4365238.221,-3279.759
433102.332,4365038.221,-3286.729
433102.332,4364838.221,-3293.934
433102.332,4364638.221,-3299.544
433102.332,4364438.221,-3303.781
433102.332,4364238.221,-3307.509
433102.332,4364038.221,-3311.445
433102.332,4363838.221,-3315.405
433102.332,4363638.221,-3318.362
433102.332,4363438.221,-3319.363
433102.332,4363238.221,-3318.758
433102.332,4363038.221,-3318.025
433102.332,4362838.221,-3317.687
433102.332,4362638.221,-3317.181
433102.332,4362438.221,-3316.356
433102.332,4362238.221,-3315.254
433102.332,4362038.221,-3313.756
433102.332,4361838.221,-3312.323
433102.332,4361638.221,-3311.655
433102.332,4361438.221,-3311.400
433102.332,4361238.221,-3310.805
433102.332,4361038.221,-3309.384
433102.332,4360838.221,-3306.608
433102.332,4360638.221,-3302.342
433102.332,4360438.221,-3296.805
433102.332,4360238.221,-3290.803
433102.332,4360038.221,-3286.005
433102.332,4359838.221,-3283.103
433102.332,4359638.221,-3279.655
433102.332,4359438.221,-3272.632
433102.332,4359238.221,-3262.253
433102.332,4359038.221,-3249.727
433102.332,4358838.221,-3235.106
433102.332,4358638.221,-3219.000
433102.332,4358438.221,-3204.144
433102.332,4358238.221,-3196.322
433102.332,4358038.221,-3198.989
433102.332,4357838.221,-3208.533
433102.332,4357638.221,-3219.592
433102.332,4357438.221,-3229.653
433102.332,4357238.221,-3236.878
433102.332,4357038.221,-3237.589
433102.332,4356838.221,-3230.896
433102.332,4356638.221,-3218.942
433102.332,4356438.221,-3205.284
433102.332,4356238.221,-3190.704
433102.332,4356038.221,-3176.341
433102.332,4355838.221,-3163.083
433102.332,4355638.221,-3151.865
433102.332,4355438.221,-3144.503
433102.332,4355238.221,-3137.632
433102.332,4355038.221,-3129.839
433102.332,4354838.221,-3120.078
433102.332,4354638.221,-3097.120
433102.332,4354438.221,-3054.463
433102.332,4354238.221,-2995.377
433102.332,4354038.221,-2935.219
433102.332,4353838.221,-2881.900
433102.332,4353638.221,-2828.747
433102.332,4353438.221,-2787.042
433102.332,4353238.221,-2772.037
433102.332,4353038.221,-2775.688
433102.332,4352838.221,-2784.419
433102.332,4352638.221,-2789.849
433102.332,4352438.221,-2791.783
433102.332,4352238.221,-2792.563
433102.332,4352038.221,-2793.082
433102.332,4351838.221,-2793.776
433102.332,4351638.221,-2795.030
433102.332,4351438.221,-2795.597
433102.332,4351238.221,-2796.066
433102.332,4351038.221,-2797.505
433102.332,4350838.221,-2797.248
433102.332,4350638.221,-2795.596
433102.332,4350438.221,-2795.991
433102.332,4350238.221,-2798.790
433102.332,4350038.221,-2801.695
433102.332,4349838.221,-2799.193
433102.332,4349638.221,-2788.952
433102.332,4349438.221,-2776.889
433102.332,4349238.221,-2771.158
433102.332,4349038.221,-2776.460
433102.332,4348838.221,-2784.671
433102.332,4348638.221,-2770.907
433102.332,4348438.221,-2765.302
433102.332,4348238.221,-2765.268
433102.332,4348038.221,-2776.415
433102.332,4347838.221,-2786.101
433102.332,4347638.221,-2798.438
433102.332,4347438.221,-2802.272
433102.332,4347238.221,-2811.136
433102.332,4347038.221,-2861.380
433102.332,4346838.221,-2941.620
433102.332,4346638.221,-2999.866
433102.332,4346438.221,-3024.760
433102.332,4346238.221,-3047.174
433102.332,4346038.221,-3101.817
433102.332,4345838.221,-3161.243
433102.332,4345638.221,-3196.980
433102.332,4345438.221,-3218.525
433102.332,4345238.221,-3237.071
433102.332,4345038.221,-3255.163
433102.332,4344838.221,-3276.619
433102.332,4344638.221,-3304.396
433102.332,4344438.221,-3325.998
433102.332,4344238.221,-3346.822
433102.332,4344038.221,-3364.366
433102.332,4343838.221,-3373.132
433102.332,4343638.221,-3373.847
433102.332,4343438.221,-3374.322
433102.332,4343238.221,-3377.284
433102.332,4343038.221,-3380.979
433102.332,4342838.221,-3383.546
433102.332,4342638.221,-3385.365
433102.332,4342438.221,-3386.875
433102.332,4342238.221,-3388.677
433102.332,4342038.221,-3391.599
433102.332,4341838.221,-3393.159
433102.332,4341638.221,-3392.979
433102.332,4341438.221,-3393.688
433102.332,4341238.221,-3394.544
433102.332,4341038.221,-3394.794
433102.332,4340838.221,-3394.388
433102.332,4340638.221,-3392.990
433102.332,4340438.221,-3393.034
433102.332,4340238.221,-3394.496
433102.332,4340038.221,-3396.110
433102.332,4339838.221,-3398.387
433102.332,4339638.221,-3402.282
433102.332,4339438.221,-3406.526
433102.332,4339238.221,-3405.920
433102.332,4339038.221,-3399.664
433102.332,4338838.221,-3394.909
433102.332,4338638.221,-3396.781
433102.332,4338438.221,-3402.658
433102.332,4338238.221,-3406.638
433102.332,4338038.221,-3411.111
433102.332,4337838.221,-3416.961
433102.332,4337638.221,-3420.400
433102.332,4337438.221,-3420.966
433102.332,4337238.221,-3419.217
433102.332,4337038.221,-3417.599
433102.332,4336838.221,-3417.168
433102.332,4336638.221,-3417.682
433102.332,4336438.221,-3417.231
433102.332,4336238.221,-3414.921
433102.332,4336038.221,-3408.418
433102.332,4335838.221,-3398.651
433102.332,4335638.221,-3390.975
433102.332,4335438.221,-3388.623
433102.332,4335238.221,-3389.782
433102.332,4335038.221,-3391.020
433102.332,4334838.221,-3390.531
433102.332,4334638.221,-3389.739
433102.332,4334438.221,-3390.009
433102.332,4334238.221,-3391.315
433102.332,4334038.221,-3391.733
433102.332,4333838.221,-3390.353
433102.332,4333638.221,-3387.997
433102.332,4333438.221,-3385.691
433102.332,4333238.221,-3383.804
433102.332,4333038.221,-3382.547
433102.332,4332838.221,-3382.455
433102.332,4332638.221,-3384.145
433102.332,4332438.221,-3387.700
433102.332,4332238.221,-3392.367
433102.332,4332038.221,-3396.791
433102.332,4331838.221,-3399.864
433102.332,4331638.221,-3401.350
433102.332,4331438.221,-3401.839
433102.332,4331238.221,-3402.557
433102.332,4331038.221,-3404.295
433102.332,4330838.221,-3406.466
433102.332,4330638.221,-3407.944
433102.332,4330438.221,-3408.289
433102.332,4330238.221,-3407.415
433102.332,4330038.221,-3406.452
433102.332,4329838.221,-3406.975
433102.332,4329638.221,-3409.501
433102.332,4329438.221,-3413.044
433102.332,4329238.221,-3416.547
433102.332,4329038.221,-3420.170
433102.332,4328838.221,-3423.523
433102.332,4328638.221,-3426.604
433102.332,4328438.221,-3431.102
433102.332,4328238.221,-3437.633
433102.332,4328038.221,-3443.597
433102.332,4327838.221,-3447.015
433102.332,4327638.221,-3448.541
433102.332,4327438.221,-3449.167
433102.332,4327238.221,-3449.150
433102.332,4327038.221,-3448.917
433102.332,4326838.221,-3448.888
433102.332,4326638.221,-3448.634
433102.332,4326438.221,-3447.150
433102.332,4326238.221,-3444.886
433102.332,4326038.221,-3444.273
433102.332,4325838.221,-3446.456
433102.332,4325638.221,-3449.473
433102.332,4325438.221,-3451.328
433102.332,4325238.221,-3451.916
433102.332,4325038.221,-3451.174
433102.332,4324838.221,-3449.489
433102.332,4324638.221,-3447.649
433102.332,4324438.221,-3446.331
433102.332,4324238.221,-3445.720
433102.332,4324038.221,-3446.110
433102.332,4323838.221,-3448.282
433102.332,4323638.221,-3453.061
433102.332,4323438.221,-3460.292
433102.332,4323238.221,-3468.608
433102.332,4323038.221,-3476.408
433102.332,4322838.221,-3482.857
433102.332,4322638.221,-3487.771
433102.332,4322438.221,-3491.314
433102.332,4322238.221,-3493.950
433102.332,4322038.221,-3496.013
433102.332,4321838.221,-3497.631
433102.332,4321638.221,-3498.761
433102.332,4321438.221,-3499.427
433102.332,4321238.221,-3499.994
433102.332,4321038.221,-3500.839
433102.332,4320838.221,-3502.010
433102.332,4320638.221,-3502.988
433102.332,4320438.221,-3503.436
433102.332,4320238.221,-3503.646
433102.332,4320038.221,-3503.830
433102.332,4319838.221,-3503.919
433102.332,4319638.221,-3503.869
433102.332,4319438.221,-3504.104
433102.332,4319238.221,-3504.770
433102.332,4319038.221,-3505.641
433102.332,4318838.221,-3506.433
433102.332,4318638.221,-3507.118
433102.332,4318438.221,-3507.854
433102.332,4318238.221,-3508.338
433302.332,4374238.221,-3523.472
433302.332,4374038.221,-3523.375
433302.332,4373838.221,-3523.277
433302.332,4373638.221,-3523.179
433302.332,4373438.221,-3523.146
433302.332,4373238.221,-3522.916
433302.332,4373038.221,-3522.493
433302.332,4372838.221,-3521.650
433302.332,4372638.221,-3520.485
433302.332,4372438.221,-3518.951
433302.332,4372238.221,-3516.979
433302.332,4372038.221,-3513.685
433302.332,4371838.221,-3507.162
433302.332,4371638.221,-3496.124
433302.332,4371438.221,-3481.313
433302.332,4371238.221,-3465.418
433302.332,4371038.221,-3451.266
433302.332,4370838.221,-3439.924
433302.332,4370638.221,-3430.893
433302.332,4370438.221,-3423.096
433302.332,4370238.221,-3416.001
433302.332,4370038.221,-3409.915
433302.332,4369838.221,-3405.246
433302.332,4369638.221,-3401.791
433302.332,4369438.221,-3399.123
433302.332,4369238.221,-3397.234
433302.332,4369038.221,-3396.059
433302.332,4368838.221,-3395.220
433302.332,4368638.221,-3394.479
433302.332,4368438.221,-3393.499
433302.332,4368238.221,-3391.914
433302.332,4368038.221,-3389.806
433302.332,4367838.221,-3386.998
433302.332,4367638.221,-3382.552
433302.332,4367438.221,-3375.517
433302.332,4367238.221,-3366.395
433302.332,4367038.221,-3356.819
433302.332,4366838.221,-3347.111
433302.332,4366638.221,-3336.396
433302.332,4366438.221,-3324.180
433302.332,4366238.221,-3311.304
433302.332,4366038.221,-3299.524
433302.332,4365838.221,-3291.157
433302.332,4365638.221,-3287.248
433302.332,4365438.221,-3286.962
433302.332,4365238.221,-3289.088
433302.332,4365038.221,-3291.967
433302.332,4364838.221,-3294.121
433302.332,4364638.221,-3295.727
433302.332,4364438.221,-3297.841
433302.332,4364238.221,-3300.656
433302.332,4364038.221,-3304.107
433302.332,4363838.221,-3307.677
433302.332,4363638.221,-3310.408
433302.332,4363438.221,-3311.345
433302.332,4363238.221,-3310.859
433302.332,4363038.221,-3310.602
433302.332,4362838.221,-3311.039
433302.332,4362638.221,-3311.439
433302.332,4362438.221,-3311.046
433302.332,4362238.221,-3309.573
433302.332,4362038.221,-3307.259
433302.332,4361838.221,-3304.957
433302.332,4361638.221,-3303.210
433302.332,4361438.221,-3301.683
433302.332,4361238.221,-3299.960
433302.332,4361038.221,-3297.993
433302.332,4360838.221,-3295.276
433302.332,4360638.221,-3290.752
433302.332,4360438.221,-3284.451
433302.332,4360238.221,-3277.758
433302.332,4360038.221,-3272.207
433302.332,4359838.221,-3268.203
433302.332,4359638.221,-3263.505
433302.332,4359438.221,-3254.900
433302.332,4359238.221,-3241.628
433302.332,4359038.221,-3224.677
433302.332,4358838.221,-3205.963
433302.332,4358638.221,-3189.351
433302.332,4358438.221,-3179.831
433302.332,4358238.221,-3180.786
433302.332,4358038.221,-3189.801
433302.332,4357838.221,-3201.646
433302.332,4357638.221,-3212.552
433302.332,4357438.221,-3219.581
433302.332,4357238.221,-3220.618
433302.332,4357038.221,-3214.687
433302.332,4356838.221,-3203.712
433302.332,4356638.221,-3189.126
433302.332,4356438.221,-3172.090
433302.332,4356238.221,-3153.187
433302.332,4356038.221,-3131.593
433302.332,4355838.221,-3109.170
433302.332,4355638.221,-3090.313
433302.332,4355438.221,-3076.828
433302.332,4355238.221,-3066.130
433302.332,4355038.221,-3057.442
433302.332,4354838.221,-3049.337
433302.332,4354638.221,-3030.799
433302.332,4354438.221,-2991.180
433302.332,4354238.221,-2934.966
433302.332,4354038.221,-2883.032
433302.332,4353838.221,-2842.537
433302.332,4353638.221,-2804.817
433302.332,4353438.221,-2775.461
433302.332,4353238.221,-2767.098
433302.332,4353038.221,-2772.724
433302.332,4352838.221,-2781.585
433302.332,4352638.221,-2787.080
433302.332,4352438.221,-2788.730
433302.332,4352238.221,-2788.454
433302.332,4352038.221,-2787.582
433302.332,4351838.221,-2786.914
433302.332,4351638.221,-2786.508
433302.332,4351438.221,-2786.411
433302.332,4351238.221,-2786.229
433302.332,4351038.221,-2785.460
433302.332,4350838.221,-2781.698
433302.332,4350638.221,-2776.428
433302.332,4350438.221,-2775.523
433302.332,4350238.221,-2779.569
433302.332,4350038.221,-2783.281
433302.332,4349838.221,-2780.037
433302.332,4349638.221,-2768.697
433302.332,4349438.221,-2755.724
433302.332,4349238.221,-2750.829
433302.332,4349038.221,-2752.356
433302.332,4348838.221,-2759.087
433302.332,4348638.221,-2756.226
433302.332,4348438.221,-2758.874
433302.332,4348238.221,-2765.320
433302.332,4348038.221,-2795.026
433302.332,4347838.221,-2819.694
433302.332,4347638.221,-2840.221
433302.332,4347438.221,-2855.283
433302.332,4347238.221,-2880.846
433302.332,4347038.221,-2943.503
433302.332,4346838.221,-3018.108
433302.332,4346638.221,-3063.659
433302.332,4346438.221,-3087.589
433302.332,4346238.221,-3109.740
433302.332,4346038.221,-3150.709
433302.332,4345838.221,-3192.275
433302.332,4345638.221,-3217.880
433302.332,4345438.221,-3237.316
433302.332,4345238.221,-3254.906
433302.332,4345038.221,-3271.756
433302.332,4344838.221,-3290.913
433302.332,4344638.221,-3313.830
433302.332,4344438.221,-3330.767
433302.332,4344238.221,-3347.006
433302.332,4344038.221,-3360.891
433302.332,4343838.221,-3369.402
433302.332,4343638.221,-3369.815
433302.332,4343438.221,-3368.835
433302.332,4343238.221,-3370.556
433302.332,4343038.221,-3374.501
433302.332,4342838.221,-3377.248
433302.332,4342638.221,-3380.157
433302.332,4342438.221,-3383.746
433302.332,4342238.221,-3385.735
433302.332,4342038.221,-3386.969
433302.332,4341838.221,-3387.814
433302.332,4341638.221,-3387.946
433302.332,4341438.221,-3388.882
433302.332,4341238.221,-3389.887
433302.332,4341038.221,-3390.396
433302.332,4340838.221,-3390.566
433302.332,4340638.221,-3389.158
433302.332,4340438.221,-3388.739
433302.332,4340238.221,-3390.164
433302.332,4340038.221,-3391.863
433302.332,4339838.221,-3393.780
433302.332,4339638.221,-3396.838
433302.332,4339438.221,-3399.855
433302.332,4339238.221,-3397.972
433302.332,4339038.221,-3391.739
433302.332,4338838.221,-3387.080
433302.332,4338638.221,-3387.783
433302.332,4338438.221,-3392.366
433302.332,4338238.221,-3396.943
433302.332,4338038.221,-3402.288
433302.332,4337838.221,-3408.148
433302.332,4337638.221,-3410.744
433302.332,4337438.221,-3410.441
433302.332,4337238.221,-3408.206
433302.332,4337038.221,-3406.319
433302.332,4336838.221,-3405.777
433302.332,4336638.221,-3405.984
433302.332,4336438.221,-3404.269
433302.332,4336238.221,-3399.249
433302.332,4336038.221,-3389.540
433302.332,4335838.221,-3378.114
433302.332,4335638.221,-3370.823
433302.332,4335438.221,-3370.104
433302.332,4335238.221,-3372.766
433302.332,4335038.221,-3374.310
433302.332,4334838.221,-3373.388
433302.332,4334638.221,-3371.899
433302.332,4334438.221,-3371.474
433302.332,4334238.221,-3371.907
433302.332,4334038.221,-3371.783
433302.332,4333838.221,-3370.338
433302.332,4333638.221,-3368.011
433302.332,4333438.221,-3365.696
433302.332,4333238.221,-3363.718
433302.332,4333038.221,-3362.306
433302.332,4332838.221,-3362.183
433302.332,4332638.221,-3364.052
433302.332,4332438.221,-3368.044
433302.332,4332238.221,-3373.375
433302.332,4332038.221,-3378.663
433302.332,4331838.221,-3382.872
433302.332,4331638.221,-3385.580
433302.332,4331438.221,-3387.026
433302.332,4331238.221,-3388.090
433302.332,4331038.221,-3389.350
433302.332,4330838.221,-3390.582
433302.332,4330638.221,-3391.228
433302.332,4330438.221,-3391.016
433302.332,4330238.221,-3389.931
433302.332,4330038.221,-3389.031
433302.332,4329838.221,-3389.813
433302.332,4329638.221,-3392.550
433302.332,4329438.221,-3396.299
433302.332,4329238.221,-3400.069
433302.332,4329038.221,-3403.887
433302.332,4328838.221,-3407.561
433302.332,4328638.221,-3410.840
433302.332,4328438.221,-3415.680
433302.332,4328238.221,-3423.105
433302.332,4328038.221,-3430.185
433302.332,4327838.221,-3434.588
433302.332,4327638.221,-3436.927
433302.332,4327438.221,-3438.746
433302.332,4327238.221,-3440.153
433302.332,4327038.221,-3441.317
433302.332,4326838.221,-3442.425
433302.332,4326638.221,-3442.926
433302.332,4326438.221,-3441.629
433302.332,4326238.221,-3438.563
433302.332,4326038.221,-3436.496
433302.332,4325838.221,-3437.369
433302.332,4325638.221,-3439.872
433302.332,4325438.221,-3442.330
433302.332,4325238.221,-3444.556
433302.332,4325038.221,-3446.264
433302.332,4324838.221,-3447.315
433302.332,4324638.221,-3448.330
433302.332,4324438.221,-3449.756
433302.332,4324238.221,-3451.260
433302.332,4324038.221,-3452.725
433302.332,4323838.221,-3455.151
433302.332,4323638.221,-3459.529
433302.332,4323438.221,-3465.604
433302.332,4323238.221,-3472.115
433302.332,4323038.221,-3477.899
433302.332,4322838.221,-3482.710
433302.332,4322638.221,-3486.691
433302.332,4322438.221,-3489.855
433302.332,4322238.221,-3492.343
433302.332,4322038.221,-3494.352
433302.332,4321838.221,-3496.071
433302.332,4321638.221,-3497.428
433302.332,4321438.221,-3498.300
433302.332,4321238.221,-3498.985
433302.332,4321038.221,-3499.983
433302.332,4320838.221,-3501.262
433302.332,4320638.221,-3502.372
433302.332,4320438.221,-3502.904
433302.332,4320238.221,-3503.194
433302.332,4320038.221,-3503.402
433302.332,4319838.221,-3503.575
433302.332,4319638.221,-3503.623
433302.332,4319438.221,-3503.855
433302.332,4319238.221,-3504.309
433302.332,4319038.221,-3504.656
433302.332,4318838.221,-3504.970
433302.332,4318638.221,-3505.572
433302.332,4318438.221,-3506.508
433302.332,4318238.221,-3507.458
433502.332,4374238.221,-3523.988
433502.332,4374038.221,-3523.901
433502.332,4373838.221,-3523.793
433502.332,4373638.221,-3523.675
433502.332,4373438.221,-3523.475
433502.332,4373238.221,-3523.455
433502.332,4373038.221,-3523.311
433502.332,4372838.221,-3522.905
433502.332,4372638.221,-3522.150
433502.332,4372438.221,-3520.980
433502.332,4372238.221,-3518.940
433502.332,4372038.221,-3514.303
433502.332,4371838.221,-3505.108
433502.332,4371638.221,-3491.158
433502.332,4371438.221,-3474.756
433502.332,4371238.221,-3458.751
433502.332,4371038.221,-3445.064
433502.332,4370838.221,-3434.372
433502.332,4370638.221,-3426.216
433502.332,4370438.221,-3419.768
433502.332,4370238.221,-3414.255
433502.332,4370038.221,-3409.521
433502.332,4369838.221,-3405.690
433502.332,4369638.221,-3402.638
433502.332,4369438.221,-3400.203
433502.332,4369238.221,-3398.372
433502.332,4369038.221,-3397.042
433502.332,4368838.221,-3395.910
433502.332,4368638.221,-3394.800
433502.332,4368438.221,-3393.568
433502.332,4368238.221,-3391.944
433502.332,4368038.221,-3389.905
433502.332,4367838.221,-3387.274
433502.332,4367638.221,-3383.193
433502.332,4367438.221,-3377.288
433502.332,4367238.221,-3370.545
433502.332,4367038.221,-3364.238
433502.332,4366838.221,-3357.955
433502.332,4366638.221,-3349.986
433502.332,4366438.221,-3339.581
433502.332,4366238.221,-3327.891
433502.332,4366038.221,-3316.981
433502.332,4365838.221,-3309.064
433502.332,4365638.221,-3305.395
433502.332,4365438.221,-3304.844
433502.332,4365238.221,-3305.260
433502.332,4365038.221,-3304.580
433502.332,4364838.221,-3301.730
433502.332,4364638.221,-3298.441
433502.332,4364438.221,-3297.093
433502.332,4364238.221,-3297.814
433502.332,4364038.221,-3299.609
433502.332,4363838.221,-3302.035
433502.332,4363638.221,-3304.366
433502.332,4363438.221,-3305.586
433502.332,4363238.221,-3306.060
433502.332,4363038.221,-3306.843
433502.332,4362838.221,-3308.047
433502.332,4362638.221,-3308.733
433502.332,4362438.221,-3307.933
433502.332,4362238.221,-3305.534
433502.332,4362038.221,-3302.341
433502.332,4361838.221,-3299.091
433502.332,4361638.221,-3295.833
433502.332,4361438.221,-3292.455
433502.332,4361238.221,-3288.796
433502.332,4361038.221,-3284.790
433502.332,4360838.221,-3280.320
433502.332,4360638.221,-3274.613
433502.332,4360438.221,-3267.660
433502.332,4360238.221,-3260.535
433502.332,4360038.221,-3254.004
433502.332,4359838.221,-3248.224
433502.332,4359638.221,-3241.899
433502.332,4359438.221,-3232.655
433502.332,4359238.221,-3219.214
433502.332,4359038.221,-3201.902
433502.332,4358838.221,-3183.570
433502.332,4358638.221,-3169.598
433502.332,4358438.221,-3165.174
433502.332,4358238.221,-3171.028
433502.332,4358038.221,-3181.488
433502.332,4357838.221,-3191.902
433502.332,4357638.221,-3200.214
433502.332,4357438.221,-3203.383
433502.332,4357238.221,-3199.187
433502.332,4357038.221,-3188.353
433502.332,4356838.221,-3173.296
433502.332,4356638.221,-3154.938
433502.332,4356438.221,-3133.440
433502.332,4356238.221,-3111.258
433502.332,4356038.221,-3084.962
433502.332,4355838.221,-3055.443
433502.332,4355638.221,-3030.552
433502.332,4355438.221,-3012.099
433502.332,4355238.221,-2997.931
433502.332,4355038.221,-2987.822
433502.332,4354838.221,-2980.813
433502.332,4354638.221,-2968.345
433502.332,4354438.221,-2937.055
433502.332,4354238.221,-2892.000
433502.332,4354038.221,-2853.720
433502.332,4353838.221,-2828.086
433502.332,4353638.221,-2807.345
433502.332,4353438.221,-2790.741
433502.332,4353238.221,-2785.011
433502.332,4353038.221,-2786.574
433502.332,4352838.221,-2790.045
433502.332,4352638.221,-2791.600
433502.332,4352438.221,-2790.870
433502.332,4352238.221,-2788.916
433502.332,4352038.221,-2786.249
433502.332,4351838.221,-2783.272
433502.332,4351638.221,-2779.990
433502.332,4351438.221,-2777.430
433502.332,4351238.221,-2774.654
433502.332,4351038.221,-2770.540
433502.332,4350838.221,-2762.927
433502.332,4350638.221,-2753.811
433502.332,4350438.221,-2750.721
433502.332,4350238.221,-2753.917
433502.332,4350038.221,-2756.238
433502.332,4349838.221,-2752.046
433502.332,4349638.221,-2742.341
433502.332,4349438.221,-2734.285
433502.332,4349238.221,-2735.823
433502.332,4349038.221,-2738.928
433502.332,4348838.221,-2747.935
433502.332,4348638.221,-2762.858
433502.332,4348438.221,-2779.089
433502.332,4348238.221,-2795.457
433502.332,4348038.221,-2844.866
433502.332,4347838.221,-2882.737
433502.332,4347638.221,-2903.509
433502.332,4347438.221,-2921.433
433502.332,4347238.221,-2960.284
433502.332,4347038.221,-3022.461
433502.332,4346838.221,-3076.776
433502.332,4346638.221,-3106.959
433502.332,4346438.221,-3129.207
433502.332,4346238.221,-3152.768
433502.332,4346038.221,-3186.591
433502.332,4345838.221,-3213.891
433502.332,4345638.221,-3232.186
433502.332,4345438.221,-3250.813
433502.332,4345238.221,-3267.673
433502.332,4345038.221,-3283.259
433502.332,4344838.221,-3301.210
433502.332,4344638.221,-3319.992
433502.332,4344438.221,-3333.067
433502.332,4344238.221,-3345.421
433502.332,4344038.221,-3354.977
433502.332,4343838.221,-3362.233
433502.332,4343638.221,-3362.835
433502.332,4343438.221,-3360.602
433502.332,4343238.221,-3360.106
433502.332,4343038.221,-3362.541
433502.332,4342838.221,-3364.702
433502.332,4342638.221,-3370.059
433502.332,4342438.221,-3377.417
433502.332,4342238.221,-3380.355
433502.332,4342038.221,-3379.889
433502.332,4341838.221,-3379.290
433502.332,4341638.221,-3379.352
433502.332,4341438.221,-3381.127
433502.332,4341238.221,-3383.377
433502.332,4341038.221,-3384.816
433502.332,4340838.221,-3385.615
433502.332,4340638.221,-3384.814
433502.332,4340438.221,-3384.533
433502.332,4340238.221,-3385.910
433502.332,4340038.221,-3387.373
433502.332,4339838.221,-3388.940
433502.332,4339638.221,-3391.167
433502.332,4339438.221,-3392.989
433502.332,4339238.221,-3390.980
433502.332,4339038.221,-3386.082
433502.332,4338838.221,-3382.394
433502.332,4338638.221,-3382.083
433502.332,4338438.221,-3384.906
433502.332,4338238.221,-3389.217
433502.332,4338038.221,-3394.219
433502.332,4337838.221,-3398.864
433502.332,4337638.221,-3400.172
433502.332,4337438.221,-3398.871
433502.332,4337238.221,-3396.038
433502.332,4337038.221,-3393.930
433502.332,4336838.221,-3393.093
433502.332,4336638.221,-3392.218
433502.332,4336438.221,-3388.670
433502.332,4336238.221,-3380.992
433502.332,4336038.221,-3369.042
433502.332,4335838.221,-3357.100
433502.332,4335638.221,-3351.009
433502.332,4335438.221,-3352.033
433502.332,4335238.221,-3355.205
433502.332,4335038.221,-3356.322
433502.332,4334838.221,-3354.922
433502.332,4334638.221,-3352.940
433502.332,4334438.221,-3351.859
433502.332,4334238.221,-3351.321
433502.332,4334038.221,-3350.362
433502.332,4333838.221,-3348.632
433502.332,4333638.221,-3346.286
433502.332,4333438.221,-3343.933
433502.332,4333238.221,-3341.978
433502.332,4333038.221,-3340.603
433502.332,4332838.221,-3340.468
433502.332,4332638.221,-3342.397
433502.332,4332438.221,-3346.572
433502.332,4332238.221,-3352.283
433502.332,4332038.221,-3358.273
433502.332,4331838.221,-3363.429
433502.332,4331638.221,-3367.203
433502.332,4331438.221,-3369.646
433502.332,4331238.221,-3371.254
433502.332,4331038.221,-3372.471
433502.332,4330838.221,-3373.248
433502.332,4330638.221,-3373.287
433502.332,4330438.221,-3372.538
433502.332,4330238.221,-3371.231
433502.332,4330038.221,-3370.367
433502.332,4329838.221,-3371.374
433502.332,4329638.221,-3374.436
433502.332,4329438.221,-3378.386
433502.332,4329238.221,-3382.393
433502.332,4329038.221,-3386.290
433502.332,4328838.221,-3390.025
433502.332,4328638.221,-3393.423
433502.332,4328438.221,-3398.194
433502.332,4328238.221,-3405.635
433502.332,4328038.221,-3413.157
433502.332,4327838.221,-3418.179
433502.332,4327638.221,-3421.617
433502.332,4327438.221,-3425.028
433502.332,4327238.221,-3428.489
433502.332,4327038.221,-3431.481
433502.332,4326838.221,-3434.179
433502.332,4326638.221,-3436.294
433502.332,4326438.221,-3436.446
433502.332,4326238.221,-3434.197
433502.332,4326038.221,-3431.799
433502.332,4325838.221,-3431.591
433502.332,4325638.221,-3433.490
433502.332,4325438.221,-3436.273
433502.332,4325238.221,-3439.687
433502.332,4325038.221,-3443.337
433502.332,4324838.221,-3446.630
433502.332,4324638.221,-3449.777
433502.332,4324438.221,-3452.938
433502.332,4324238.221,-3455.738
433502.332,4324038.221,-3458.112
433502.332,4323838.221,-3460.874
433502.332,4323638.221,-3464.961
433502.332,4323438.221,-3470.201
433502.332,4323238.221,-3475.477
433502.332,4323038.221,-3479.931
433502.332,4322838.221,-3483.670
433502.332,4322638.221,-3487.062
433502.332,4322438.221,-3490.021
433502.332,4322238.221,-3492.377
433502.332,4322038.221,-3494.162
433502.332,4321838.221,-3495.626
433502.332,4321638.221,-3496.871
433502.332,4321438.221,-3497.811
433502.332,4321238.221,-3498.583
433502.332,4321038.221,-3499.673
433502.332,4320838.221,-3500.996
433502.332,4320638.221,-3502.045
433502.332,4320438.221,-3502.613
433502.332,4320238.221,-3502.994
433502.332,4320038.221,-3503.261
433502.332,4319838.221,-3503.448
433502.332,4319638.221,-3503.657
433502.332,4319438.221,-3503.971
433502.332,4319238.221,-3504.261
433502.332,4319038.221,-3504.345
433502.332,4318838.221,-3504.123
433502.332,4318638.221,-3504.156
433502.332,4318438.221,-3504.745
433502.332,4318238.221,-3506.014
433702.332,4374238.221,-3524.768
433702.332,4374038.221,-3524.761
433702.332,4373838.221,-3524.564
433702.332,4373638.221,-3524.261
433702.332,4373438.221,-3523.960
433702.332,4373238.221,-3523.930
433702.332,4373038.221,-3524.023
433702.332,4372838.221,-3523.979
433702.332,4372638.221,-3523.723
433702.332,4372438.221,-3522.739
433702.332,4372238.221,-3519.967
433702.332,4372038.221,-3513.280
433702.332,4371838.221,-3501.447
433702.332,4371638.221,-3485.643
433702.332,4371438.221,-3469.131
433702.332,4371238.221,-3454.268
433702.332,4371038.221,-3441.770
433702.332,4370838.221,-3431.716
433702.332,4370638.221,-3423.991
433702.332,4370438.221,-3418.201
433702.332,4370238.221,-3413.690
433702.332,4370038.221,-3409.871
433702.332,4369838.221,-3406.527
433702.332,4369638.221,-3403.711
433702.332,4369438.221,-3401.472
433702.332,4369238.221,-3399.701
433702.332,4369038.221,-3398.068
433702.332,4368838.221,-3396.449
433702.332,4368638.221,-3395.036
433702.332,4368438.221,-3393.733
433702.332,4368238.221,-3392.236
433702.332,4368038.221,-3390.314
433702.332,4367838.221,-3387.768
433702.332,4367638.221,-3384.149
433702.332,4367438.221,-3379.369
433702.332,4367238.221,-3374.421
433702.332,4367038.221,-3370.335
433702.332,4366838.221,-3366.495
433702.332,4366638.221,-3361.438
433702.332,4366438.221,-3354.670
433702.332,4366238.221,-3347.045
433702.332,4366038.221,-3339.625
433702.332,4365838.221,-3333.419
433702.332,4365638.221,-3329.162
433702.332,4365438.221,-3326.843
433702.332,4365238.221,-3325.123
433702.332,4365038.221,-3322.031
433702.332,4364838.221,-3316.646
433702.332,4364638.221,-3310.405
433702.332,4364438.221,-3305.875
433702.332,4364238.221,-3303.038
433702.332,4364038.221,-3301.544
433702.332,4363838.221,-3301.667
433702.332,4363638.221,-3303.391
433702.332,4363438.221,-3305.586
433702.332,4363238.221,-3307.419
433702.332,4363038.221,-3309.177
433702.332,4362838.221,-3310.658
433702.332,4362638.221,-3310.671
433702.332,4362438.221,-3308.326
433702.332,4362238.221,-3304.014
433702.332,4362038.221,-3298.833
433702.332,4361838.221,-3293.252
433702.332,4361638.221,-3287.037
433702.332,4361438.221,-3280.764
433702.332,4361238.221,-3274.481
433702.332,4361038.221,-3267.722
433702.332,4360838.221,-3260.913
433702.332,4360638.221,-3254.395
433702.332,4360438.221,-3248.053
433702.332,4360238.221,-3241.630
433702.332,4360038.221,-3234.764
433702.332,4359838.221,-3227.622
433702.332,4359638.221,-3220.143
433702.332,4359438.221,-3211.213
433702.332,4359238.221,-3199.516
433702.332,4359038.221,-3184.765
433702.332,4358838.221,-3169.579
433702.332,4358638.221,-3159.140
433702.332,4358438.221,-3157.539
433702.332,4358238.221,-3163.681
433702.332,4358038.221,-3171.733
433702.332,4357838.221,-3178.283
433702.332,4357638.221,-3182.021
433702.332,4357438.221,-3180.541
433702.332,4357238.221,-3172.306
433702.332,4357038.221,-3158.799
433702.332,4356838.221,-3141.333
433702.332,4356638.221,-3119.315
433702.332,4356438.221,-3092.556
433702.332,4356238.221,-3066.619
433702.332,4356038.221,-3038.110
433702.332,4355838.221,-3005.496
433702.332,4355638.221,-2978.015
433702.332,4355438.221,-2957.484
433702.332,4355238.221,-2940.677
433702.332,4355038.221,-2927.207
433702.332,4354838.221,-2918.081
433702.332,4354638.221,-2909.756
433702.332,4354438.221,-2890.167
433702.332,4354238.221,-2862.236
433702.332,4354038.221,-2839.541
433702.332,4353838.221,-2825.726
433702.332,4353638.221,-2816.063
433702.332,4353438.221,-2807.302
433702.332,4353238.221,-2802.086
433702.332,4353038.221,-2799.850
433702.332,4352838.221,-2798.540
433702.332,4352638.221,-2796.058
433702.332,4352438.221,-2792.677
433702.332,4352238.221,-2789.289
433702.332,4352038.221,-2784.677
433702.332,4351838.221,-2778.648
433702.332,4351638.221,-2772.129
433702.332,4351438.221,-2766.585
433702.332,4351238.221,-2760.306
433702.332,4351038.221,-2751.731
433702.332,4350838.221,-2739.168
433702.332,4350638.221,-2725.012
433702.332,4350438.221,-2717.840
433702.332,4350238.221,-2718.644
433702.332,4350038.221,-2720.855
433702.332,4349838.221,-2720.817
433702.332,4349638.221,-2720.230
433702.332,4349438.221,-2725.488
433702.332,4349238.221,-2740.283
433702.332,4349038.221,-2753.759
433702.332,4348838.221,-2773.898
433702.332,4348638.221,-2806.906
433702.332,4348438.221,-2834.290
433702.332,4348238.221,-2858.396
433702.332,4348038.221,-2911.488
433702.332,4347838.221,-2950.095
433702.332,4347638.221,-2965.755
433702.332,4347438.221,-2981.447
433702.332,4347238.221,-3027.202
433702.332,4347038.221,-3081.230
433702.332,4346838.221,-3114.979
433702.332,4346638.221,-3136.288
433702.332,4346438.221,-3156.245
433702.332,4346238.221,-3180.428
433702.332,4346038.221,-3210.532
433702.332,4345838.221,-3229.311
433702.332,4345638.221,-3244.093
433702.332,4345438.221,-3263.523
433702.332,4345238.221,-3278.928
433702.332,4345038.221,-3291.623
433702.332,4344838.221,-3307.010
433702.332,4344638.221,-3321.678
433702.332,4344438.221,-3330.771
433702.332,4344238.221,-3339.219
433702.332,4344038.221,-3345.649
433702.332,4343838.221,-3351.617
433702.332,4343638.221,-3353.416
433702.332,4343438.221,-3351.131
433702.332,4343238.221,-3348.374
433702.332,4343038.221,-3347.623
433702.332,4342838.221,-3348.232
433702.332,4342638.221,-3355.556
433702.332,4342438.221,-3365.735
433702.332,4342238.221,-3369.721
433702.332,4342038.221,-3368.381
433702.332,4341838.221,-3366.521
433702.332,4341638.221,-3366.871
433702.332,4341438.221,-3370.327
433702.332,4341238.221,-3374.662
433702.332,4341038.221,-3377.632
433702.332,4340838.221,-3379.134
433702.332,4340638.221,-3379.308
433702.332,4340438.221,-3379.808
433702.332,4340238.221,-3381.278
433702.332,4340038.221,-3382.428
433702.332,4339838.221,-3383.996
433702.332,4339638.221,-3385.668
433702.332,4339438.221,-3386.615
433702.332,4339238.221,-3385.397
433702.332,4339038.221,-3382.530
433702.332,4338838.221,-3380.116
433702.332,4338638.221,-3378.930
433702.332,4338438.221,-3379.721
433702.332,4338238.221,-3382.367
433702.332,4338038.221,-3385.756
433702.332,4337838.221,-3388.635
433702.332,4337638.221,-3388.819
433702.332,4337438.221,-3386.753
433702.332,4337238.221,-3383.092
433702.332,4337038.221,-3380.481
433702.332,4336838.221,-3378.500
433702.332,4336638.221,-3375.945
433702.332,4336438.221,-3370.647
433702.332,4336238.221,-3361.178
433702.332,4336038.221,-3348.415
433702.332,4335838.221,-3336.871
433702.332,4335638.221,-3331.660
433702.332,4335438.221,-3332.987
433702.332,4335238.221,-3335.082
433702.332,4335038.221,-3335.275
433702.332,4334838.221,-3334.252
433702.332,4334638.221,-3333.052
433702.332,4334438.221,-3331.940
433702.332,4334238.221,-3330.308
433702.332,4334038.221,-3328.096
433702.332,4333838.221,-3325.631
433702.332,4333638.221,-3323.107
433702.332,4333438.221,-3320.885
433702.332,4333238.221,-3319.010
433702.332,4333038.221,-3317.614
433702.332,4332838.221,-3317.348
433702.332,4332638.221,-3319.012
433702.332,4332438.221,-3322.936
433702.332,4332238.221,-3328.710
433702.332,4332038.221,-3335.098
433702.332,4331838.221,-3340.869
433702.332,4331638.221,-3345.584
433702.332,4331438.221,-3349.072
433702.332,4331238.221,-3351.461
433702.332,4331038.221,-3353.123
433702.332,4330838.221,-3354.104
433702.332,4330638.221,-3354.009
433702.332,4330438.221,-3352.905
433702.332,4330238.221,-3351.298
433702.332,4330038.221,-3350.403
433702.332,4329838.221,-3351.592
433702.332,4329638.221,-3354.833
433702.332,4329438.221,-3358.938
433702.332,4329238.221,-3363.024
433702.332,4329038.221,-3366.877
433702.332,4328838.221,-3370.302
433702.332,4328638.221,-3373.455
433702.332,4328438.221,-3378.330
433702.332,4328238.221,-3385.798
433702.332,4328038.221,-3393.496
433702.332,4327838.221,-3398.794
433702.332,4327638.221,-3403.063
433702.332,4327438.221,-3408.036
433702.332,4327238.221,-3413.530
433702.332,4327038.221,-3418.426
433702.332,4326838.221,-3423.101
433702.332,4326638.221,-3427.644
433702.332,4326438.221,-3430.716
433702.332,4326238.221,-3431.086
433702.332,4326038.221,-3430.026
433702.332,4325838.221,-3429.803
433702.332,4325638.221,-3431.069
433702.332,4325438.221,-3433.580
433702.332,4325238.221,-3437.405
433702.332,4325038.221,-3442.116
433702.332,4324838.221,-3446.858
433702.332,4324638.221,-3451.272
433702.332,4324438.221,-3455.556
433702.332,4324238.221,-3459.471
433702.332,4324038.221,-3462.746
433702.332,4323838.221,-3465.944
433702.332,4323638.221,-3469.898
433702.332,4323438.221,-3474.539
433702.332,4323238.221,-3478.903
433702.332,4323038.221,-3482.381
433702.332,4322838.221,-3485.332
433702.332,4322638.221,-3488.240
433702.332,4322438.221,-3490.993
433702.332,4322238.221,-3493.214
433702.332,4322038.221,-3494.792
433702.332,4321838.221,-3495.997
433702.332,4321638.221,-3497.016
433702.332,4321438.221,-3497.848
433702.332,4321238.221,-3498.661
433702.332,4321038.221,-3499.813
433702.332,4320838.221,-3501.132
433702.332,4320638.221,-3502.227
433702.332,4320438.221,-3502.959
433702.332,4320238.221,-3503.401
433702.332,4320038.221,-3503.571
433702.332,4319838.221,-3503.654
433702.332,4319638.221,-3503.870
433702.332,4319438.221,-3504.359
433702.332,4319238.221,-3504.752
433702.332,4319038.221,-3504.832
433702.332,4318838.221,-3504.357
433702.332,4318638.221,-3503.861
433702.332,4318438.221,-3503.628
433702.332,4318238.221,-3504.110
433902.332,4374238.221,-3525.625
433902.332,4374038.221,-3525.529
433902.332,4373838.221,-3525.241
433902.332,4373638.221,-3524.755
433902.332,4373438.221,-3524.352
433902.332,4373238.221,-3524.313
433902.332,4373038.221,-3524.492
433902.332,4372838.221,-3524.776
433902.332,4372638.221,-3524.556
