524927.103,4083404.265,-742.775
524927.103,4083304.265,-751.386
524927.103,4083204.265,-773.076
524927.103,4083104.265,-786.328
524927.103,4083004.265,-794.501
524927.103,4081404.265,-790.780
524927.103,4081304.265,-747.686
524927.103,4081204.265,-729.555
524927.103,4081104.265,-704.587
524927.103,4081004.265,-685.557
524927.103,4080904.265,-657.272
524927.103,4080804.265,-665.606
524927.103,4080704.265,-684.021
524927.103,4080604.265,-697.658
524927.103,4080504.265,-732.008
524927.103,4080404.265,-764.494
524927.103,4080304.265,-777.841
524927.103,4080204.265,-797.066
524927.103,4078704.265,-799.831
524927.103,4078604.265,-781.396
524927.103,4078504.265,-759.544
524927.103,4078404.265,-726.771
524927.103,4078304.265,-741.306
524927.103,4078204.265,-732.964
524927.103,4078104.265,-729.449
524927.103,4078004.265,-734.466
524927.103,4077904.265,-749.538
524927.103,4077804.265,-753.216
524927.103,4077704.265,-770.753
524927.103,4077604.265,-784.054
524927.103,4074104.265,-784.194
524927.103,4074004.265,-747.277
524927.103,4073904.265,-717.311
524927.103,4073804.265,-707.469
524927.103,4073704.265,-689.435
524927.103,4073604.265,-655.649
524927.103,4073504.265,-626.502
524927.103,4073404.265,-599.090
524927.103,4073304.265,-571.293
524927.103,4073204.265,-557.782
524927.103,4073104.265,-533.310
524927.103,4073004.265,-508.541
524927.103,4072904.265,-491.640
524927.103,4072804.265,-463.915
524927.103,4072704.265,-440.146
524927.103,4072604.265,-417.750
524927.103,4072504.265,-410.673
524927.103,4072404.265,-404.906
524927.103,4072304.265,-401.895
524927.103,4072204.265,-392.099
524927.103,4072104.265,-390.576
524927.103,4072004.265,-385.068
524927.103,4071904.265,-382.424
524927.103,4071804.265,-394.811
524927.103,4071704.265,-404.266
524927.103,4071604.265,-401.726
524927.103,4071504.265,-387.878
524927.103,4071404.265,-383.419
524927.103,4071304.265,-376.328
524927.103,4071204.265,-367.832
524927.103,4071104.265,-361.330
524927.103,4071004.265,-358.691
524927.103,4070904.265,-356.909
524927.103,4070804.265,-354.559
524927.103,4070704.265,-343.092
524927.103,4070604.265,-327.534
524927.103,4070504.265,-315.584
524927.103,4070404.265,-306.048
524927.103,4070304.265,-297.792
524927.103,4070204.265,-293.437
524927.103,4070104.265,-287.984
524927.103,4070004.265,-278.493
524927.103,4069904.265,-263.126
524927.103,4069804.265,-256.346
524927.103,4069704.265,-253.938
524927.103,4069604.265,-246.502
524927.103,4069504.265,-235.670
524927.103,4069404.265,-223.207
524927.103,4069304.265,-212.450
524927.103,4069204.265,-205.206
524927.103,4069104.265,-199.422
524927.103,4069004.265,-194.453
524927.103,4068904.265,-189.758
524927.103,4068804.265,-185.443
524927.103,4068704.265,-180.701
524927.103,4068604.265,-176.550
524927.103,4068504.265,-172.004
524927.103,4068404.265,-167.173
524927.103,4068304.265,-162.073
524927.103,4068204.265,-156.527
524927.103,4068104.265,-151.496
524927.103,4068004.265,-147.945
524927.103,4067904.265,-145.302
524927.103,4067804.265,-143.349
524927.103,4067704.265,-142.252
524927.103,4067604.265,-140.996
524927.103,4067504.265,-139.922
524927.103,4067404.265,-138.906
524927.103,4067304.265,-137.770
524927.103,4067204.265,-136.725
524927.103,4067104.265,-135.778
524927.103,4067004.265,-134.761
524927.103,4066904.265,-133.829
524927.103,4066804.265,-132.897
524927.103,4066704.265,-131.962
524927.103,4066604.265,-131.040
524927.103,4066504.265,-130.319
524927.103,4066404.265,-129.550
524927.103,4066304.265,-128.086
524927.103,4066204.265,-127.445
524927.103,4066104.265,-126.570
524927.103,4066004.265,-125.790
524927.103,4065904.265,-124.531
524927.103,4065804.265,-122.999
524927.103,4065704.265,-121.179
524927.103,4061504.265,-121.529
524927.103,4059804.265,-122.146
524927.103,4059704.265,-122.117
524927.103,4059604.265,-121.328
524927.103,4059504.265,-120.978
524927.103,4059404.265,-120.613
524927.103,4059304.265,-120.476
524927.103,4059204.265,-121.277
524927.103,4059104.265,-121.166
524927.103,4059004.265,-121.622
524927.103,4058904.265,-122.212
524927.103,4058804.265,-122.164
524927.103,4058704.265,-121.335
524927.103,4058604.265,-120.294
524927.103,4058504.265,-120.104
525027.103,4088204.265,-121.216
525027.103,4088104.265,-123.867
525027.103,4088004.265,-132.448
525027.103,4087904.265,-163.360
525027.103,4087804.265,-183.863
525027.103,4087704.265,-200.063
525027.103,4087604.265,-213.882
525027.103,4087504.265,-225.919
525027.103,4087404.265,-239.337
525027.103,4087304.265,-252.389
525027.103,4087204.265,-262.511
525027.103,4087104.265,-275.105
525027.103,4087004.265,-298.516
525027.103,4086904.265,-308.609
525027.103,4086804.265,-323.849
525027.103,4086704.265,-345.919
525027.103,4086604.265,-364.609
525027.103,4086504.265,-377.157
525027.103,4086404.265,-393.365
525027.103,4086304.265,-405.328
525027.103,4086204.265,-420.421
525027.103,4086104.265,-442.412
525027.103,4086004.265,-449.731
525027.103,4085904.265,-461.981
525027.103,4085804.265,-474.152
525027.103,4085704.265,-484.892
525027.103,4085604.265,-497.616
525027.103,4085504.265,-515.975
525027.103,4085404.265,-522.676
525027.103,4085304.265,-561.670
525027.103,4085204.265,-595.530
525027.103,4085104.265,-623.410
525027.103,4085004.265,-632.682
525027.103,4084904.265,-640.009
525027.103,4084804.265,-646.352
525027.103,4084704.265,-650.801
525027.103,4084604.265,-651.645
525027.103,4084504.265,-653.584
525027.103,4084404.265,-657.171
525027.103,4084304.265,-656.651
525027.103,4084204.265,-664.997
525027.103,4084104.265,-673.662
525027.103,4084004.265,-681.346
525027.103,4083904.265,-691.911
525027.103,4083804.265,-710.092
525027.103,4083704.265,-720.118
525027.103,4083604.265,-734.044
525027.103,4083504.265,-748.601
525027.103,4083404.265,-766.971
525027.103,4083304.265,-787.171
525027.103,4081404.265,-794.124
525027.103,4081304.265,-760.691
525027.103,4081204.265,-744.221
525027.103,4081104.265,-727.841
525027.103,4081004.265,-698.470
525027.103,4080904.265,-671.982
525027.103,4080804.265,-687.600
525027.103,4080704.265,-699.028
525027.103,4080604.265,-715.599
525027.103,4080504.265,-763.303
525027.103,4080404.265,-782.912
525027.103,4078604.265,-799.579
525027.103,4078504.265,-763.726
525027.103,4078404.265,-752.959
525027.103,4078304.265,-769.550
525027.103,4078204.265,-762.559
525027.103,4078104.265,-751.931
525027.103,4078004.265,-753.104
525027.103,4077904.265,-769.401
525027.103,4077804.265,-771.855
525027.103,4077704.265,-777.044
525027.103,4074104.265,-764.317
525027.103,4074004.265,-734.526
525027.103,4073904.265,-692.294
525027.103,4073804.265,-676.460
525027.103,4073704.265,-664.440
525027.103,4073604.265,-638.946
525027.103,4073504.265,-607.504
525027.103,4073404.265,-585.676
525027.103,4073304.265,-590.022
525027.103,4073204.265,-565.683
525027.103,4073104.265,-551.251
525027.103,4073004.265,-528.190
525027.103,4072904.265,-505.086
525027.103,4072804.265,-481.006
525027.103,4072704.265,-450.150
525027.103,4072604.265,-444.469
525027.103,4072504.265,-432.234
525027.103,4072404.265,-428.569
525027.103,4072304.265,-421.507
525027.103,4072204.265,-417.656
525027.103,4072104.265,-409.787
525027.103,4072004.265,-411.121
525027.103,4071904.265,-408.243
525027.103,4071804.265,-421.275
525027.103,4071704.265,-426.020
525027.103,4071604.265,-423.097
525027.103,4071504.265,-406.616
525027.103,4071404.265,-406.812
525027.103,4071304.265,-401.524
525027.103,4071204.265,-386.103
525027.103,4071104.265,-381.471
525027.103,4071004.265,-378.219
525027.103,4070904.265,-376.590
525027.103,4070804.265,-371.146
525027.103,4070704.265,-358.391
525027.103,4070604.265,-346.325
525027.103,4070504.265,-332.280
525027.103,4070404.265,-322.138
525027.103,4070304.265,-311.526
525027.103,4070204.265,-308.460
525027.103,4070104.265,-301.421
525027.103,4070004.265,-290.624
525027.103,4069904.265,-276.268
525027.103,4069804.265,-267.969
525027.103,4069704.265,-261.090
525027.103,4069604.265,-249.090
525027.103,4069504.265,-235.468
525027.103,4069404.265,-222.774
525027.103,4069304.265,-213.222
525027.103,4069204.265,-206.596
525027.103,4069104.265,-201.174
525027.103,4069004.265,-196.128
525027.103,4068904.265,-191.489
525027.103,4068804.265,-187.241
525027.103,4068704.265,-182.746
525027.103,4068604.265,-178.271
525027.103,4068504.265,-173.613
525027.103,4068404.265,-168.842
525027.103,4068304.265,-163.443
525027.103,4068204.265,-157.936
525027.103,4068104.265,-152.863
525027.103,4068004.265,-148.404
525027.103,4067904.265,-145.365
525027.103,4067804.265,-143.812
525027.103,4067704.265,-142.308
525027.103,4067604.265,-141.202
525027.103,4067504.265,-140.329
525027.103,4067404.265,-139.174
525027.103,4067304.265,-138.208
525027.103,4067204.265,-137.157
525027.103,4067104.265,-136.140
525027.103,4067004.265,-135.160
525027.103,4066904.265,-134.280
525027.103,4066804.265,-133.480
525027.103,4066704.265,-132.624
525027.103,4066604.265,-131.718
525027.103,4066504.265,-130.843
525027.103,4066404.265,-129.937
525027.103,4066304.265,-128.815
525027.103,4066204.265,-127.347
525027.103,4066104.265,-127.030
525027.103,4066004.265,-125.432
525027.103,4065904.265,-123.594
525027.103,4065804.265,-122.049
525027.103,4061704.265,-122.767
525027.103,4061604.265,-123.646
525027.103,4061504.265,-121.501
525027.103,4059704.265,-124.627
525027.103,4059604.265,-123.387
525027.103,4059504.265,-122.791
525027.103,4059404.265,-122.607
525027.103,4059304.265,-122.678
525027.103,4059204.265,-123.011
525027.103,4059104.265,-122.815
525027.103,4059004.265,-122.940
525027.103,4058904.265,-123.461
525027.103,4058804.265,-123.059
525027.103,4058704.265,-122.477
525027.103,4058604.265,-121.073
525027.103,4058504.265,-120.834
525127.103,4088204.265,-121.621
525127.103,4088104.265,-123.873
525127.103,4088004.265,-129.290
525127.103,4087904.265,-157.246
525127.103,4087804.265,-178.928
525127.103,4087704.265,-192.524
525127.103,4087604.265,-204.158
525127.103,4087504.265,-216.347
525127.103,4087404.265,-227.648
525127.103,4087304.265,-243.430
525127.103,4087204.265,-265.987
525127.103,4087104.265,-285.022
525127.103,4087004.265,-312.163
525127.103,4086904.265,-326.727
525127.103,4086804.265,-341.546
525127.103,4086704.265,-363.129
525127.103,4086604.265,-385.696
525127.103,4086504.265,-400.792
525127.103,4086404.265,-416.993
525127.103,4086304.265,-431.850
525127.103,4086204.265,-450.324
525127.103,4086104.265,-464.900
525127.103,4086004.265,-476.764
525127.103,4085904.265,-483.515
525127.103,4085804.265,-493.334
525127.103,4085704.265,-506.532
525127.103,4085604.265,-521.034
525127.103,4085504.265,-542.096
525127.103,4085404.265,-564.092
525127.103,4085304.265,-580.341
525127.103,4085204.265,-602.628
525127.103,4085104.265,-632.598
525127.103,4085004.265,-651.745
525127.103,4084904.265,-655.638
525127.103,4084804.265,-663.540
525127.103,4084704.265,-671.914
525127.103,4084604.265,-678.176
525127.103,4084504.265,-683.761
525127.103,4084404.265,-688.422
525127.103,4084304.265,-688.184
525127.103,4084204.265,-687.888
525127.103,4084104.265,-698.488
525127.103,4084004.265,-704.488
525127.103,4083904.265,-725.020
525127.103,4083804.265,-742.877
525127.103,4083704.265,-746.853
525127.103,4083604.265,-754.345
525127.103,4083504.265,-776.726
525127.103,4081304.265,-777.775
525127.103,4081204.265,-760.630
525127.103,4081104.265,-740.078
525127.103,4081004.265,-709.949
525127.103,4080904.265,-685.704
525127.103,4080804.265,-701.375
525127.103,4080704.265,-707.470
525127.103,4080604.265,-725.637
525127.103,4080504.265,-753.755
525127.103,4080404.265,-792.441
525127.103,4078504.265,-771.122
525127.103,4078404.265,-775.191
525127.103,4078304.265,-792.979
525127.103,4078204.265,-787.130
525127.103,4078104.265,-774.612
525127.103,4078004.265,-775.555
525127.103,4077904.265,-790.814
525127.103,4077804.265,-799.162
525127.103,4077704.265,-794.989
525127.103,4074204.265,-785.278
525127.103,4074104.265,-758.081
525127.103,4074004.265,-717.512
525127.103,4073904.265,-686.783
525127.103,4073804.265,-658.806
525127.103,4073704.265,-639.058
525127.103,4073604.265,-628.104
525127.103,4073504.265,-609.037
525127.103,4073404.265,-616.580
525127.103,4073304.265,-609.310
525127.103,4073204.265,-594.287
525127.103,4073104.265,-575.198
525127.103,4073004.265,-540.165
525127.103,4072904.265,-518.361
525127.103,4072804.265,-486.237
525127.103,4072704.265,-475.982
525127.103,4072604.265,-470.565
525127.103,4072504.265,-463.960
525127.103,4072404.265,-460.246
525127.103,4072304.265,-447.600
525127.103,4072204.265,-444.124
525127.103,4072104.265,-433.541
525127.103,4072004.265,-433.849
525127.103,4071904.265,-430.419
525127.103,4071804.265,-443.017
525127.103,4071704.265,-446.800
525127.103,4071604.265,-449.063
525127.103,4071504.265,-435.154
525127.103,4071404.265,-429.043
525127.103,4071304.265,-418.595
525127.103,4071204.265,-406.511
525127.103,4071104.265,-402.449
525127.103,4071004.265,-400.230
525127.103,4070904.265,-398.049
525127.103,4070804.265,-390.044
525127.103,4070704.265,-373.155
525127.103,4070604.265,-363.942
525127.103,4070504.265,-347.841
525127.103,4070404.265,-335.450
525127.103,4070304.265,-329.324
525127.103,4070204.265,-326.806
525127.103,4070104.265,-315.150
525127.103,4070004.265,-302.025
525127.103,4069904.265,-291.840
525127.103,4069804.265,-281.371
525127.103,4069704.265,-273.613
525127.103,4069604.265,-259.091
525127.103,4069504.265,-235.566
525127.103,4069404.265,-222.320
525127.103,4069304.265,-214.202
525127.103,4069204.265,-208.026
525127.103,4069104.265,-202.641
525127.103,4069004.265,-197.921
525127.103,4068904.265,-193.156
525127.103,4068804.265,-188.977
525127.103,4068704.265,-184.654
525127.103,4068604.265,-180.174
525127.103,4068504.265,-175.408
525127.103,4068404.265,-170.445
525127.103,4068304.265,-165.150
525127.103,4068204.265,-159.436
525127.103,4068104.265,-154.050
525127.103,4068004.265,-149.614
525127.103,4067904.265,-146.422
525127.103,4067804.265,-144.434
525127.103,4067704.265,-142.873
525127.103,4067604.265,-141.433
525127.103,4067504.265,-140.234
525127.103,4067404.265,-139.294
525127.103,4067304.265,-138.291
525127.103,4067204.265,-137.290
525127.103,4067104.265,-136.404
525127.103,4067004.265,-135.483
525127.103,4066904.265,-134.772
525127.103,4066804.265,-133.938
525127.103,4066704.265,-133.153
525127.103,4066604.265,-132.344
525127.103,4066504.265,-131.511
525127.103,4066404.265,-130.452
525127.103,4066304.265,-129.423
525127.103,4066204.265,-128.174
525127.103,4066104.265,-126.305
525127.103,4066004.265,-124.773
525127.103,4065904.265,-122.303
525127.103,4065804.265,-120.393
525127.103,4061604.265,-123.561
525127.103,4061504.265,-121.943
525127.103,4059704.265,-125.717
525127.103,4059604.265,-124.776
525127.103,4059504.265,-123.674
525127.103,4059404.265,-123.524
525127.103,4059304.265,-124.288
525127.103,4059204.265,-124.696
525127.103,4059104.265,-124.774
525127.103,4059004.265,-124.837
525127.103,4058904.265,-124.602
525127.103,4058804.265,-123.945
525127.103,4058704.265,-123.281
525127.103,4058604.265,-122.266
525127.103,4058504.265,-121.452
525127.103,4058404.265,-120.626
525227.103,4088204.265,-121.899
525227.103,4088104.265,-124.027
525227.103,4088004.265,-127.923
525227.103,4087904.265,-143.335
525227.103,4087804.265,-174.157
525227.103,4087704.265,-185.771
525227.103,4087604.265,-198.636
525227.103,4087504.265,-213.210
525227.103,4087404.265,-225.285
525227.103,4087304.265,-239.590
525227.103,4087204.265,-255.969
525227.103,4087104.265,-273.147
525227.103,4087004.265,-311.055
525227.103,4086904.265,-332.285
525227.103,4086804.265,-346.116
525227.103,4086704.265,-361.169
525227.103,4086604.265,-378.378
525227.103,4086504.265,-394.455
525227.103,4086404.265,-411.641
525227.103,4086304.265,-425.302
525227.103,4086204.265,-440.525
525227.103,4086104.265,-456.431
525227.103,4086004.265,-478.252
525227.103,4085904.265,-483.889
525227.103,4085804.265,-493.990
525227.103,4085704.265,-506.812
525227.103,4085604.265,-520.391
525227.103,4085504.265,-532.574
525227.103,4085404.265,-557.485
525227.103,4085304.265,-576.192
525227.103,4085204.265,-599.148
525227.103,4085104.265,-615.355
525227.103,4085004.265,-646.632
525227.103,4084904.265,-653.866
525227.103,4084804.265,-664.064
525227.103,4084704.265,-674.000
525227.103,4084604.265,-680.931
525227.103,4084504.265,-687.704
525227.103,4084404.265,-702.342
525227.103,4084304.265,-709.931
525227.103,4084204.265,-717.133
525227.103,4084104.265,-729.768
525227.103,4084004.265,-740.980
525227.103,4083904.265,-756.238
525227.103,4083804.265,-772.308
525227.103,4083704.265,-775.135
525227.103,4083604.265,-784.766
525227.103,4083504.265,-795.494
525227.103,4081304.265,-783.614
525227.103,4081204.265,-767.994
525227.103,4081104.265,-750.609
525227.103,4081004.265,-722.515
525227.103,4080904.265,-700.420
525227.103,4080804.265,-715.190
525227.103,4080704.265,-728.927
525227.103,4080604.265,-741.407
525227.103,4080504.265,-753.710
525227.103,4080404.265,-785.527
525227.103,4078504.265,-796.287
525227.103,4074304.265,-785.067
525227.103,4074204.265,-766.877
525227.103,4074104.265,-745.004
525227.103,4074004.265,-719.591
525227.103,4073904.265,-689.028
525227.103,4073804.265,-673.746
525227.103,4073704.265,-668.648
525227.103,4073604.265,-656.147
525227.103,4073504.265,-655.118
525227.103,4073404.265,-639.809
525227.103,4073304.265,-627.474
525227.103,4073204.265,-609.382
525227.103,4073104.265,-576.772
525227.103,4073004.265,-548.488
525227.103,4072904.265,-519.646
525227.103,4072804.265,-492.694
525227.103,4072704.265,-495.090
525227.103,4072604.265,-482.458
525227.103,4072504.265,-487.886
525227.103,4072404.265,-490.909
525227.103,4072304.265,-482.373
525227.103,4072204.265,-477.404
525227.103,4072104.265,-463.103
525227.103,4072004.265,-453.510
525227.103,4071904.265,-458.148
525227.103,4071804.265,-463.867
525227.103,4071704.265,-473.704
525227.103,4071604.265,-475.835
525227.103,4071504.265,-458.536
525227.103,4071404.265,-449.884
525227.103,4071304.265,-436.990
525227.103,4071204.265,-428.938
525227.103,4071104.265,-428.147
525227.103,4071004.265,-422.060
525227.103,4070904.265,-414.118
525227.103,4070804.265,-407.536
525227.103,4070704.265,-393.785
525227.103,4070604.265,-385.431
525227.103,4070504.265,-369.401
525227.103,4070404.265,-357.208
525227.103,4070304.265,-347.641
525227.103,4070204.265,-339.465
525227.103,4070104.265,-328.723
525227.103,4070004.265,-317.269
525227.103,4069904.265,-310.320
525227.103,4069804.265,-293.620
525227.103,4069704.265,-277.909
525227.103,4069604.265,-262.335
525227.103,4069504.265,-236.901
525227.103,4069404.265,-222.417
525227.103,4069304.265,-215.300
525227.103,4069204.265,-209.459
525227.103,4069104.265,-204.333
525227.103,4069004.265,-199.610
525227.103,4068904.265,-194.711
525227.103,4068804.265,-190.631
525227.103,4068704.265,-186.277
525227.103,4068604.265,-181.753
525227.103,4068504.265,-176.974
525227.103,4068404.265,-172.038
525227.103,4068304.265,-166.701
525227.103,4068204.265,-160.906
525227.103,4068104.265,-155.443
525227.103,4068004.265,-150.780
525227.103,4067904.265,-147.505
525227.103,4067804.265,-145.503
525227.103,4067704.265,-144.061
525227.103,4067604.265,-142.662
525227.103,4067504.265,-141.270
525227.103,4067404.265,-139.960
525227.103,4067304.265,-138.449
525227.103,4067204.265,-137.660
525227.103,4067104.265,-136.439
525227.103,4067004.265,-135.844
525227.103,4066904.265,-135.101
525227.103,4066804.265,-134.195
525227.103,4066704.265,-133.597
525227.103,4066604.265,-132.898
525227.103,4066504.265,-132.081
525227.103,4066404.265,-131.129
525227.103,4066304.265,-129.941
525227.103,4066204.265,-128.226
525227.103,4066104.265,-126.090
525227.103,4066004.265,-123.478
525227.103,4065904.265,-120.808
525227.103,4061804.265,-120.416
525227.103,4061704.265,-122.564
525227.103,4061604.265,-123.062
525227.103,4061504.265,-122.690
525227.103,4061404.265,-120.405
525227.103,4061204.265,-120.942
525227.103,4060304.265,-121.240
525227.103,4059704.265,-126.973
525227.103,4059604.265,-125.580
525227.103,4059504.265,-123.926
525227.103,4059404.265,-125.332
525227.103,4059304.265,-125.826
525227.103,4059204.265,-126.215
525227.103,4059104.265,-126.403
525227.103,4059004.265,-126.326
525227.103,4058904.265,-125.739
525227.103,4058804.265,-125.006
525227.103,4058704.265,-124.116
525227.103,4058604.265,-122.943
525227.103,4058504.265,-122.278
525227.103,4058404.265,-120.951
525227.103,4058304.265,-120.132
525327.103,4088204.265,-122.146
525327.103,4088104.265,-124.424
525327.103,4088004.265,-127.695
525327.103,4087904.265,-137.875
525327.103,4087804.265,-169.300
525327.103,4087704.265,-184.456
525327.103,4087604.265,-199.371
525327.103,4087504.265,-214.702
525327.103,4087404.265,-228.772
525327.103,4087304.265,-241.525
525327.103,4087204.265,-252.342
525327.103,4087104.265,-265.899
525327.103,4087004.265,-284.932
525327.103,4086904.265,-304.546
525327.103,4086804.265,-325.786
525327.103,4086704.265,-337.029
525327.103,4086604.265,-358.232
525327.103,4086504.265,-374.655
525327.103,4086404.265,-390.504
525327.103,4086304.265,-402.653
525327.103,4086204.265,-426.177
525327.103,4086104.265,-443.677
525327.103,4086004.265,-458.536
525327.103,4085904.265,-463.411
525327.103,4085804.265,-477.074
525327.103,4085704.265,-480.211
525327.103,4085604.265,-487.552
525327.103,4085504.265,-505.173
525327.103,4085404.265,-526.299
525327.103,4085304.265,-547.134
525327.103,4085204.265,-570.562
525327.103,4085104.265,-587.682
525327.103,4085004.265,-621.748
525327.103,4084904.265,-642.587
525327.103,4084804.265,-650.878
525327.103,4084704.265,-660.346
525327.103,4084604.265,-673.467
525327.103,4084504.265,-689.525
525327.103,4084404.265,-706.506
525327.103,4084304.265,-717.852
525327.103,4084204.265,-737.586
525327.103,4084104.265,-758.129
525327.103,4084004.265,-772.909
525327.103,4083904.265,-782.908
525327.103,4083804.265,-794.030
525327.103,4081304.265,-787.812
525327.103,4081204.265,-772.174
525327.103,4081104.265,-758.351
525327.103,4081004.265,-746.742
525327.103,4080904.265,-714.522
525327.103,4080804.265,-732.381
525327.103,4080704.265,-742.942
525327.103,4080604.265,-760.592
525327.103,4080504.265,-775.774
525327.103,4080404.265,-777.066
525327.103,4074304.265,-775.361
525327.103,4074204.265,-751.740
525327.103,4074104.265,-728.060
525327.103,4074004.265,-715.252
525327.103,4073904.265,-710.921
525327.103,4073804.265,-708.867
525327.103,4073704.265,-708.205
525327.103,4073604.265,-696.342
525327.103,4073504.265,-682.509
525327.103,4073404.265,-650.457
525327.103,4073304.265,-622.660
525327.103,4073204.265,-593.074
525327.103,4073104.265,-568.300
525327.103,4073004.265,-553.024
525327.103,4072904.265,-520.808
525327.103,4072804.265,-506.131
525327.103,4072704.265,-516.674
525327.103,4072604.265,-505.541
525327.103,4072504.265,-507.420
525327.103,4072404.265,-513.169
525327.103,4072304.265,-514.228
525327.103,4072204.265,-510.697
525327.103,4072104.265,-493.480
525327.103,4072004.265,-477.552
525327.103,4071904.265,-491.710
525327.103,4071804.265,-487.271
525327.103,4071704.265,-499.666
525327.103,4071604.265,-495.014
525327.103,4071504.265,-483.299
525327.103,4071404.265,-480.623
525327.103,4071304.265,-464.030
525327.103,4071204.265,-455.669
525327.103,4071104.265,-450.181
525327.103,4071004.265,-444.475
525327.103,4070904.265,-438.390
525327.103,4070804.265,-429.186
525327.103,4070704.265,-421.846
525327.103,4070604.265,-408.691
525327.103,4070504.265,-396.693
525327.103,4070404.265,-378.740
525327.103,4070304.265,-364.766
525327.103,4070204.265,-357.129
525327.103,4070104.265,-340.546
525327.103,4070004.265,-323.737
525327.103,4069904.265,-304.703
525327.103,4069804.265,-287.310
525327.103,4069704.265,-274.082
525327.103,4069604.265,-256.439
525327.103,4069504.265,-232.966
525327.103,4069404.265,-223.139
525327.103,4069304.265,-216.919
525327.103,4069204.265,-211.274
525327.103,4069104.265,-206.115
525327.103,4069004.265,-201.183
525327.103,4068904.265,-196.402
525327.103,4068804.265,-192.185
525327.103,4068704.265,-187.950
525327.103,4068604.265,-183.561
525327.103,4068504.265,-178.719
525327.103,4068404.265,-173.556
525327.103,4068304.265,-168.145
525327.103,4068204.265,-162.330
525327.103,4068104.265,-156.664
525327.103,4068004.265,-151.745
525327.103,4067904.265,-148.430
525327.103,4067804.265,-146.419
525327.103,4067704.265,-144.975
525327.103,4067604.265,-143.763
525327.103,4067504.265,-142.383
525327.103,4067404.265,-141.028
525327.103,4067304.265,-139.745
525327.103,4067204.265,-138.454
525327.103,4067104.265,-137.050
525327.103,4067004.265,-135.655
525327.103,4066904.265,-135.221
525327.103,4066804.265,-134.619
525327.103,4066704.265,-133.825
525327.103,4066604.265,-133.176
525327.103,4066504.265,-132.576
525327.103,4066404.265,-131.432
525327.103,4066304.265,-129.872
525327.103,4066204.265,-127.316
525327.103,4066104.265,-124.077
525327.103,4066004.265,-120.883
525327.103,4061904.265,-120.862
525327.103,4061804.265,-122.105
525327.103,4061704.265,-123.864
525327.103,4061604.265,-124.222
525327.103,4061504.265,-123.148
525327.103,4061404.265,-121.377
525327.103,4061204.265,-121.708
525327.103,4061104.265,-120.904
525327.103,4061004.265,-120.420
525327.103,4060304.265,-123.594
525327.103,4060204.265,-124.414
525327.103,4060104.265,-124.554
525327.103,4060004.265,-125.484
525327.103,4059804.265,-120.720
525327.103,4059704.265,-127.776
525327.103,4059604.265,-126.836
525327.103,4059504.265,-126.908
525327.103,4059404.265,-127.383
525327.103,4059304.265,-126.985
525327.103,4059204.265,-127.171
525327.103,4059104.265,-127.391
525327.103,4059004.265,-127.311
525327.103,4058904.265,-126.728
525327.103,4058804.265,-125.932
525327.103,4058704.265,-125.058
525327.103,4058604.265,-123.959
525327.103,4058504.265,-122.728
525327.103,4058404.265,-121.633
525327.103,4058304.265,-120.653
525427.103,4088204.265,-122.704
525427.103,4088104.265,-124.818
525427.103,4088004.265,-127.992
525427.103,4087904.265,-137.176
525427.103,4087804.265,-169.721
525427.103,4087704.265,-185.187
525427.103,4087604.265,-200.675
525427.103,4087504.265,-214.707
525427.103,4087404.265,-227.083
525427.103,4087304.265,-238.624
525427.103,4087204.265,-249.279
525427.103,4087104.265,-258.805
525427.103,4087004.265,-273.988
525427.103,4086904.265,-288.225
525427.103,4086804.265,-308.172
525427.103,4086704.265,-325.635
525427.103,4086604.265,-339.670
525427.103,4086504.265,-355.154
525427.103,4086404.265,-365.532
525427.103,4086304.265,-380.422
525427.103,4086204.265,-405.549
525427.103,4086104.265,-421.337
525427.103,4086004.265,-436.560
525427.103,4085904.265,-440.317
525427.103,4085804.265,-443.606
525427.103,4085704.265,-453.464
525427.103,4085604.265,-468.939
525427.103,4085504.265,-489.964
525427.103,4085404.265,-507.217
525427.103,4085304.265,-522.002
525427.103,4085204.265,-544.331
525427.103,4085104.265,-564.775
525427.103,4085004.265,-587.686
525427.103,4084904.265,-610.004
525427.103,4084804.265,-629.012
525427.103,4084704.265,-642.116
525427.103,4084604.265,-661.194
525427.103,4084504.265,-685.019
525427.103,4084404.265,-694.312
525427.103,4084304.265,-707.432
525427.103,4084204.265,-721.807
525427.103,4084104.265,-739.330
525427.103,4084004.265,-762.958
525427.103,4083904.265,-777.641
525427.103,4083804.265,-789.081
525427.103,4081204.265,-796.486
525427.103,4081104.265,-775.100
525427.103,4081004.265,-747.547
525427.103,4080904.265,-723.763
525427.103,4080804.265,-747.181
525427.103,4080704.265,-764.089
525427.103,4080604.265,-779.719
525427.103,4080504.265,-795.810
525427.103,4074304.265,-768.424
525427.103,4074204.265,-748.339
525427.103,4074104.265,-746.903
525427.103,4074004.265,-738.167
525427.103,4073904.265,-738.416
525427.103,4073804.265,-736.536
525427.103,4073704.265,-728.873
525427.103,4073604.265,-700.141
525427.103,4073504.265,-669.878
525427.103,4073404.265,-639.125
525427.103,4073304.265,-615.853
525427.103,4073204.265,-596.188
525427.103,4073104.265,-568.141
525427.103,4073004.265,-543.237
525427.103,4072904.265,-531.106
525427.103,4072804.265,-537.151
525427.103,4072704.265,-543.182
525427.103,4072604.265,-530.127
525427.103,4072504.265,-534.340
525427.103,4072404.265,-542.553
525427.103,4072304.265,-545.429
525427.103,4072204.265,-544.606
525427.103,4072104.265,-510.569
525427.103,4072004.265,-499.257
525427.103,4071904.265,-515.796
525427.103,4071804.265,-525.524
525427.103,4071704.265,-527.651
525427.103,4071604.265,-517.055
525427.103,4071504.265,-512.263
525427.103,4071404.265,-499.562
525427.103,4071304.265,-483.160
525427.103,4071204.265,-478.690
525427.103,4071104.265,-475.525
525427.103,4071004.265,-466.222
525427.103,4070904.265,-463.415
525427.103,4070804.265,-449.301
525427.103,4070704.265,-438.959
525427.103,4070604.265,-432.364
525427.103,4070504.265,-415.945
525427.103,4070404.265,-399.887
525427.103,4070304.265,-376.247
525427.103,4070204.265,-355.992
525427.103,4070104.265,-338.252
525427.103,4070004.265,-320.493
525427.103,4069904.265,-303.441
525427.103,4069804.265,-284.339
525427.103,4069704.265,-267.598
525427.103,4069604.265,-244.772
525427.103,4069504.265,-232.003
525427.103,4069404.265,-224.193
525427.103,4069304.265,-218.397
525427.103,4069204.265,-212.967
525427.103,4069104.265,-207.848
525427.103,4069004.265,-203.015
525427.103,4068904.265,-198.274
525427.103,4068804.265,-193.809
525427.103,4068704.265,-189.801
525427.103,4068604.265,-185.449
525427.103,4068504.265,-180.450
525427.103,4068404.265,-175.208
525427.103,4068304.265,-169.680
525427.103,4068204.265,-163.795
525427.103,4068104.265,-157.998
525427.103,4068004.265,-152.733
525427.103,4067904.265,-149.284
525427.103,4067804.265,-146.896
525427.103,4067704.265,-145.419
525427.103,4067604.265,-144.391
525427.103,4067504.265,-143.280
525427.103,4067404.265,-142.051
525427.103,4067304.265,-140.780
525427.103,4067204.265,-139.535
525427.103,4067104.265,-138.367
525427.103,4067004.265,-137.278
525427.103,4066904.265,-136.015
525427.103,4066804.265,-135.361
525427.103,4066704.265,-134.678
525427.103,4066604.265,-133.458
525427.103,4066504.265,-131.497
525427.103,4066404.265,-130.978
525427.103,4066304.265,-126.213
525427.103,4066204.265,-122.533
525427.103,4061804.265,-123.136
525427.103,4061704.265,-124.315
525427.103,4061604.265,-124.143
525427.103,4061504.265,-121.220
525427.103,4061404.265,-121.897
525427.103,4061304.265,-122.421
525427.103,4061204.265,-122.703
525427.103,4061104.265,-122.414
525427.103,4061004.265,-121.658
525427.103,4060904.265,-121.418
525427.103,4060804.265,-120.829
525427.103,4060704.265,-120.186
525427.103,4060304.265,-126.367
525427.103,4060204.265,-126.479
525427.103,4060104.265,-126.647
525427.103,4060004.265,-126.445
525427.103,4059904.265,-126.608
525427.103,4059804.265,-126.755
525427.103,4059704.265,-128.510
525427.103,4059604.265,-128.013
525427.103,4059504.265,-127.565
525427.103,4059404.265,-127.519
525427.103,4059304.265,-127.214
525427.103,4059204.265,-127.588
525427.103,4059104.265,-127.999
525427.103,4059004.265,-128.060
525427.103,4058904.265,-127.512
525427.103,4058804.265,-126.690
525427.103,4058704.265,-125.780
525427.103,4058604.265,-124.771
525427.103,4058504.265,-123.551
525427.103,4058404.265,-122.424
525427.103,4058304.265,-121.301
525427.103,4058204.265,-120.435
525527.103,4088204.265,-123.401
525527.103,4088104.265,-125.478
525527.103,4088004.265,-129.067
525527.103,4087904.265,-145.690
525527.103,4087804.265,-172.003
525527.103,4087704.265,-185.964
525527.103,4087604.265,-198.832
525527.103,4087504.265,-208.253
525527.103,4087404.265,-217.237
525527.103,4087304.265,-228.411
525527.103,4087204.265,-239.910
525527.103,4087104.265,-247.691
525527.103,4087004.265,-259.365
525527.103,4086904.265,-271.709
525527.103,4086804.265,-299.410
525527.103,4086704.265,-310.218
525527.103,4086604.265,-320.678
525527.103,4086504.265,-332.602
525527.103,4086404.265,-346.022
525527.103,4086304.265,-358.945
525527.103,4086204.265,-372.959
525527.103,4086104.265,-395.606
525527.103,4086004.265,-410.746
525527.103,4085904.265,-410.766
525527.103,4085804.265,-426.861
525527.103,4085704.265,-444.511
525527.103,4085604.265,-458.902
525527.103,4085504.265,-472.708
525527.103,4085404.265,-495.916
525527.103,4085304.265,-521.584
525527.103,4085204.265,-540.155
525527.103,4085104.265,-557.877
525527.103,4085004.265,-574.265
525527.103,4084904.265,-589.995
525527.103,4084804.265,-619.712
525527.103,4084704.265,-643.176
525527.103,4084604.265,-662.442
525527.103,4084504.265,-666.019
525527.103,4084404.265,-666.366
525527.103,4084304.265,-674.920
525527.103,4084204.265,-691.138
525527.103,4084104.265,-709.719
525527.103,4084004.265,-742.168
525527.103,4083904.265,-758.445
525527.103,4083804.265,-776.278
525527.103,4081104.265,-784.968
525527.103,4081004.265,-748.018
525527.103,4080904.265,-735.519
525527.103,4080804.265,-756.736
525527.103,4080704.265,-774.906
525527.103,4074404.265,-790.899
525527.103,4074304.265,-780.930
525527.103,4074204.265,-767.822
525527.103,4074104.265,-766.758
525527.103,4074004.265,-771.270
525527.103,4073904.265,-768.511
525527.103,4073804.265,-741.176
525527.103,4073704.265,-710.294
525527.103,4073604.265,-687.266
525527.103,4073504.265,-669.519
525527.103,4073404.265,-646.741
525527.103,4073304.265,-623.836
525527.103,4073204.265,-605.981
525527.103,4073104.265,-582.557
525527.103,4073004.265,-559.420
525527.103,4072904.265,-564.767
525527.103,4072804.265,-570.201
525527.103,4072704.265,-572.938
525527.103,4072604.265,-562.870
525527.103,4072504.265,-559.368
525527.103,4072404.265,-574.435
525527.103,4072304.265,-580.429
525527.103,4072204.265,-565.639
525527.103,4072104.265,-540.390
525527.103,4072004.265,-525.787
525527.103,4071904.265,-537.675
525527.103,4071804.265,-558.508
525527.103,4071704.265,-553.931
525527.103,4071604.265,-546.154
525527.103,4071504.265,-544.488
525527.103,4071404.265,-523.843
525527.103,4071304.265,-511.050
525527.103,4071204.265,-507.505
525527.103,4071104.265,-500.895
525527.103,4071004.265,-495.855
525527.103,4070904.265,-486.089
525527.103,4070804.265,-471.772
525527.103,4070704.265,-457.315
525527.103,4070604.265,-445.939
525527.103,4070504.265,-430.997
525527.103,4070404.265,-401.679
525527.103,4070304.265,-374.434
525527.103,4070204.265,-352.206
525527.103,4070104.265,-331.319
525527.103,4070004.265,-315.552
525527.103,4069904.265,-299.978
525527.103,4069804.265,-280.965
525527.103,4069704.265,-261.470
525527.103,4069604.265,-243.060
525527.103,4069504.265,-233.384
525527.103,4069404.265,-226.033
525527.103,4069304.265,-220.587
525527.103,4069204.265,-214.906
525527.103,4069104.265,-210.061
525527.103,4069004.265,-204.864
525527.103,4068904.265,-199.914
525527.103,4068804.265,-195.651
525527.103,4068704.265,-191.278
525527.103,4068604.265,-187.101
525527.103,4068504.265,-182.170
525527.103,4068404.265,-176.909
525527.103,4068304.265,-171.317
525527.103,4068204.265,-165.361
525527.103,4068104.265,-159.380
525527.103,4068004.265,-153.733
525527.103,4067904.265,-149.549
525527.103,4067804.265,-147.583
525527.103,4067704.265,-146.042
525527.103,4067604.265,-145.190
525527.103,4067504.265,-143.992
525527.103,4067404.265,-142.810
525527.103,4067304.265,-141.532
525527.103,4067204.265,-140.399
525527.103,4067104.265,-139.367
525527.103,4067004.265,-138.358
525527.103,4066904.265,-137.488
525527.103,4066804.265,-136.483
525527.103,4066704.265,-135.190
525527.103,4066604.265,-133.662
525527.103,4066504.265,-130.413
525527.103,4066404.265,-125.777
525527.103,4066304.265,-120.823
525527.103,4061804.265,-121.602
525527.103,4061604.265,-124.193
525527.103,4061504.265,-120.346
525527.103,4061404.265,-120.503
525527.103,4061304.265,-122.339
525527.103,4061204.265,-123.528
525527.103,4061104.265,-123.685
525527.103,4061004.265,-123.061
525527.103,4060904.265,-123.394
525527.103,4060804.265,-123.387
525527.103,4060704.265,-122.782
525527.103,4060604.265,-121.621
525527.103,4060504.265,-120.842
525527.103,4060304.265,-127.510
525527.103,4060204.265,-128.491
525527.103,4060104.265,-128.355
525527.103,4060004.265,-128.050
525527.103,4059904.265,-128.027
525527.103,4059804.265,-128.423
525527.103,4059704.265,-129.026
525527.103,4059604.265,-128.966
525527.103,4059504.265,-128.623
525527.103,4059404.265,-128.006
525527.103,4059304.265,-127.728
525527.103,4059204.265,-127.616
525527.103,4059104.265,-128.145
525527.103,4059004.265,-128.500
525527.103,4058904.265,-127.962
525527.103,4058804.265,-127.274
525527.103,4058704.265,-126.435
525527.103,4058604.265,-125.385
525527.103,4058504.265,-124.271
525527.103,4058404.265,-122.856
525527.103,4058304.265,-121.806
525527.103,4058204.265,-120.826
525527.103,4058104.265,-120.076
525627.103,4088204.265,-124.121
525627.103,4088104.265,-126.181
525627.103,4088004.265,-129.918
525627.103,4087904.265,-145.521
525627.103,4087804.265,-171.284
525627.103,4087704.265,-183.119
525627.103,4087604.265,-190.793
525627.103,4087504.265,-199.492
525627.103,4087404.265,-207.856
525627.103,4087304.265,-213.965
525627.103,4087204.265,-230.766
525627.103,4087104.265,-241.182
525627.103,4087004.265,-248.376
525627.103,4086904.265,-258.005
525627.103,4086804.265,-272.052
525627.103,4086704.265,-289.732
525627.103,4086604.265,-299.450
525627.103,4086504.265,-315.286
525627.103,4086404.265,-325.569
525627.103,4086304.265,-336.604
525627.103,4086204.265,-353.395
525627.103,4086104.265,-368.638
525627.103,4086004.265,-386.328
525627.103,4085904.265,-395.312
525627.103,4085804.265,-412.809
525627.103,4085704.265,-421.371
525627.103,4085604.265,-440.133
525627.103,4085504.265,-463.446
525627.103,4085404.265,-486.791
525627.103,4085304.265,-514.442
525627.103,4085204.265,-542.204
525627.103,4085104.265,-563.417
525627.103,4085004.265,-582.165
525627.103,4084904.265,-602.585
525627.103,4084804.265,-622.795
525627.103,4084704.265,-637.674
525627.103,4084604.265,-643.587
525627.103,4084504.265,-642.137
525627.103,4084404.265,-641.264
525627.103,4084304.265,-641.283
525627.103,4084204.265,-656.876
525627.103,4084104.265,-677.985
525627.103,4084004.265,-705.244
525627.103,4083904.265,-726.501
525627.103,4083804.265,-742.247
525627.103,4083704.265,-769.119
525627.103,4083604.265,-781.961
525627.103,4083504.265,-795.108
525627.103,4081104.265,-796.456
525627.103,4081004.265,-764.674
525627.103,4080904.265,-758.412
525627.103,4080804.265,-769.891
525627.103,4080704.265,-790.020
525627.103,4074304.265,-791.484
525627.103,4074204.265,-794.958
525627.103,4074004.265,-794.639
525627.103,4073904.265,-757.318
525627.103,4073804.265,-736.707
525627.103,4073704.265,-720.025
525627.103,4073604.265,-700.547
525627.103,4073504.265,-683.576
525627.103,4073404.265,-661.967
525627.103,4073304.265,-638.594
525627.103,4073204.265,-618.354
525627.103,4073104.265,-598.350
525627.103,4073004.265,-585.396
525627.103,4072904.265,-595.596
525627.103,4072804.265,-604.241
525627.103,4072704.265,-606.703
525627.103,4072604.265,-588.282
525627.103,4072504.265,-577.195
525627.103,4072404.265,-604.086
525627.103,4072304.265,-630.558
525627.103,4072204.265,-600.072
525627.103,4072104.265,-566.121
525627.103,4072004.265,-552.508
525627.103,4071904.265,-570.776
525627.103,4071804.265,-576.161
525627.103,4071704.265,-588.502
525627.103,4071604.265,-574.337
525627.103,4071504.265,-563.883
525627.103,4071404.265,-547.805
525627.103,4071304.265,-542.539
525627.103,4071204.265,-541.920
525627.103,4071104.265,-525.832
525627.103,4071004.265,-521.945
525627.103,4070904.265,-504.234
525627.103,4070804.265,-481.419
525627.103,4070704.265,-459.184
525627.103,4070604.265,-441.966
525627.103,4070504.265,-425.211
525627.103,4070404.265,-403.168
525627.103,4070304.265,-379.383
525627.103,4070204.265,-348.955
525627.103,4070104.265,-326.577
525627.103,4070004.265,-307.687
525627.103,4069904.265,-291.636
525627.103,4069804.265,-273.612
525627.103,4069704.265,-258.061
525627.103,4069604.265,-245.191
525627.103,4069504.265,-235.729
525627.103,4069404.265,-228.297
525627.103,4069304.265,-222.843
525627.103,4069204.265,-217.521
525627.103,4069104.265,-212.678
525627.103,4069004.265,-207.243
525627.103,4068904.265,-202.322
525627.103,4068804.265,-198.147
525627.103,4068704.265,-193.823
525627.103,4068604.265,-189.539
525627.103,4068504.265,-184.514
525627.103,4068404.265,-179.109
525627.103,4068304.265,-173.443
525627.103,4068204.265,-167.073
525627.103,4068104.265,-161.243
525627.103,4068004.265,-155.208
525627.103,4067904.265,-150.522
525627.103,4067804.265,-148.032
525627.103,4067704.265,-146.411
525627.103,4067604.265,-145.469
525627.103,4067504.265,-144.746
525627.103,4067404.265,-143.598
525627.103,4067304.265,-142.320
525627.103,4067204.265,-141.131
525627.103,4067104.265,-140.120
525627.103,4067004.265,-139.238
525627.103,4066904.265,-138.416
525627.103,4066804.265,-137.473
525627.103,4066704.265,-136.085
525627.103,4066604.265,-130.734
525627.103,4066504.265,-121.945
525627.103,4061604.265,-124.128
525627.103,4061504.265,-121.282
525627.103,4061404.265,-120.629
525627.103,4061304.265,-124.694
525627.103,4061204.265,-125.688
525627.103,4061104.265,-125.756
525627.103,4061004.265,-125.967
525627.103,4060904.265,-125.947
525627.103,4060804.265,-125.601
525627.103,4060704.265,-124.957
525627.103,4060604.265,-125.335
525627.103,4060504.265,-124.685
525627.103,4060404.265,-124.338
525627.103,4060304.265,-129.448
525627.103,4060204.265,-130.207
525627.103,4060104.265,-129.943
525627.103,4060004.265,-129.783
525627.103,4059904.265,-129.669
525627.103,4059804.265,-130.153
525627.103,4059704.265,-130.853
525627.103,4059604.265,-130.867
525627.103,4059504.265,-130.509
525627.103,4059404.265,-129.531
525627.103,4059304.265,-128.557
525627.103,4059204.265,-127.928
525627.103,4059104.265,-127.796
525627.103,4059004.265,-128.919
525627.103,4058904.265,-128.373
525627.103,4058804.265,-127.581
525627.103,4058704.265,-126.957
525627.103,4058604.265,-125.897
525627.103,4058504.265,-124.760
525627.103,4058404.265,-123.611
525627.103,4058304.265,-122.236
525627.103,4058204.265,-121.314
525627.103,4058104.265,-120.434
525627.103,4057904.265,-120.137
525627.103,4057804.265,-120.331
525727.103,4088204.265,-124.325
525727.103,4088104.265,-126.530
525727.103,4088004.265,-129.734
525727.103,4087904.265,-137.602
525727.103,4087804.265,-161.015
525727.103,4087704.265,-175.494
525727.103,4087604.265,-181.922
525727.103,4087504.265,-188.580
525727.103,4087404.265,-196.598
525727.103,4087304.265,-203.133
525727.103,4087204.265,-216.926
525727.103,4087104.265,-230.268
525727.103,4087004.265,-237.587
525727.103,4086904.265,-245.026
525727.103,4086804.265,-259.955
525727.103,4086704.265,-276.715
525727.103,4086604.265,-288.884
525727.103,4086504.265,-299.751
525727.103,4086404.265,-309.003
525727.103,4086304.265,-319.400
525727.103,4086204.265,-329.172
525727.103,4086104.265,-344.281
525727.103,4086004.265,-355.715
525727.103,4085904.265,-375.431
525727.103,4085804.265,-394.409
525727.103,4085704.265,-416.032
525727.103,4085604.265,-440.663
525727.103,4085504.265,-457.645
525727.103,4085404.265,-486.586
525727.103,4085304.265,-517.709
525727.103,4085204.265,-546.769
525727.103,4085104.265,-558.008
525727.103,4085004.265,-580.477
525727.103,4084904.265,-589.944
525727.103,4084804.265,-609.543
525727.103,4084704.265,-610.324
525727.103,4084604.265,-605.705
525727.103,4084504.265,-604.752
525727.103,4084404.265,-608.174
525727.103,4084304.265,-620.753
525727.103,4084204.265,-641.890
525727.103,4084104.265,-659.792
525727.103,4084004.265,-691.826
525727.103,4083904.265,-713.033
525727.103,4083804.265,-733.689
525727.103,4083704.265,-751.584
525727.103,4083604.265,-770.493
525727.103,4083504.265,-786.231
525727.103,4081104.265,-798.627
525727.103,4081004.265,-791.376
525727.103,4080904.265,-792.044
525727.103,4080804.265,-785.577
525727.103,4074004.265,-783.027
525727.103,4073904.265,-770.212
525727.103,4073804.265,-749.767
525727.103,4073704.265,-730.638
525727.103,4073604.265,-715.731
525727.103,4073504.265,-689.711
525727.103,4073404.265,-676.513
525727.103,4073304.265,-657.775
525727.103,4073204.265,-638.456
525727.103,4073104.265,-617.878
525727.103,4073004.265,-619.281
525727.103,4072904.265,-625.837
525727.103,4072804.265,-647.254
525727.103,4072704.265,-651.320
525727.103,4072604.265,-616.432
525727.103,4072504.265,-615.452
525727.103,4072404.265,-643.148
525727.103,4072304.265,-661.901
525727.103,4072204.265,-623.128
525727.103,4072104.265,-594.762
525727.103,4072004.265,-587.393
525727.103,4071904.265,-596.082
525727.103,4071804.265,-600.566
525727.103,4071704.265,-612.541
525727.103,4071604.265,-605.596
525727.103,4071504.265,-590.420
525727.103,4071404.265,-585.663
525727.103,4071304.265,-576.468
525727.103,4071204.265,-564.930
525727.103,4071104.265,-548.401
525727.103,4071004.265,-526.659
525727.103,4070904.265,-498.446
525727.103,4070804.265,-470.945
525727.103,4070704.265,-438.475
525727.103,4070604.265,-420.222
525727.103,4070504.265,-405.023
525727.103,4070404.265,-392.528
525727.103,4070304.265,-364.714
525727.103,4070204.265,-342.220
525727.103,4070104.265,-327.360
525727.103,4070004.265,-308.438
525727.103,4069904.265,-291.095
525727.103,4069804.265,-274.793
525727.103,4069704.265,-260.510
525727.103,4069604.265,-248.257
525727.103,4069504.265,-238.387
525727.103,4069404.265,-230.828
525727.103,4069304.265,-225.441
525727.103,4069204.265,-220.315
525727.103,4069104.265,-215.296
525727.103,4069004.265,-210.175
525727.103,4068904.265,-205.370
525727.103,4068804.265,-200.934
525727.103,4068704.265,-196.417
525727.103,4068604.265,-192.165
525727.103,4068504.265,-187.618
525727.103,4068404.265,-182.167
525727.103,4068304.265,-176.231
525727.103,4068204.265,-170.189
525727.103,4068104.265,-163.705
525727.103,4068004.265,-157.224
525727.103,4067904.265,-152.635
525727.103,4067804.265,-148.873
525727.103,4067704.265,-147.439
525727.103,4067604.265,-146.021
525727.103,4067504.265,-145.506
525727.103,4067404.265,-144.168
525727.103,4067304.265,-143.068
525727.103,4067204.265,-141.791
525727.103,4067104.265,-140.767
525727.103,4067004.265,-139.995
525727.103,4066904.265,-139.116
525727.103,4066804.265,-137.629
525727.103,4066704.265,-132.393
525727.103,4061704.265,-122.135
525727.103,4061604.265,-124.064
525727.103,4061504.265,-124.012
525727.103,4061404.265,-122.624
525727.103,4061304.265,-125.997
525727.103,4061204.265,-126.713
525727.103,4061104.265,-127.360
525727.103,4061004.265,-127.551
525727.103,4060904.265,-128.149
525727.103,4060804.265,-128.057
525727.103,4060704.265,-128.795
525727.103,4060604.265,-128.839
525727.103,4060504.265,-128.671
525727.103,4060404.265,-129.170
525727.103,4060304.265,-131.402
525727.103,4060204.265,-131.811
525727.103,4060104.265,-131.864
525727.103,4060004.265,-131.892
525727.103,4059904.265,-131.426
