537527.103,4058597.499,-2041.546
537527.103,4058397.499,-2046.555
537527.103,4058197.499,-2019.107
537527.103,4057997.499,-1857.590
537527.103,4057797.499,-1868.969
537527.103,4057597.499,-1906.943
537527.103,4057397.499,-1901.268
537527.103,4057197.499,-1869.977
537527.103,4056997.499,-1845.989
537527.103,4056797.499,-1810.627
537527.103,4056597.499,-1828.463
537527.103,4056397.499,-1810.611
537527.103,4056197.499,-1803.633
537527.103,4055797.499,-1749.255
537527.103,4055597.499,-1738.419
537527.103,4055397.499,-1704.062
537527.103,4055197.499,-1677.595
537527.103,4054997.499,-1735.942
537527.103,4052997.499,-1409.971
537527.103,4052797.499,-1388.776
537527.103,4052597.499,-1330.144
537527.103,4052397.499,-1287.373
537527.103,4052197.499,-1227.842
537527.103,4051997.499,-1188.615
537527.103,4051797.499,-1197.564
537527.103,4051597.499,-1191.513
537527.103,4051397.499,-1199.350
537527.103,4051197.499,-1218.338
537527.103,4050997.499,-1266.748
537527.103,4050797.499,-1287.050
537527.103,4050597.499,-1275.955
537527.103,4050397.499,-1232.561
537527.103,4050197.499,-1239.573
537527.103,4049997.499,-1242.033
537527.103,4049797.499,-1236.290
537527.103,4049597.499,-1202.818
537527.103,4049397.499,-1142.755
537527.103,4049197.499,-1113.947
537527.103,4048997.499,-1064.017
537527.103,4048797.499,-1013.185
537527.103,4048597.499,-1019.031
537527.103,4048397.499,-1031.423
537527.103,4048197.499,-1074.949
537527.103,4047997.499,-1095.494
537527.103,4047797.499,-1106.731
537527.103,4047597.499,-1103.202
537527.103,4047397.499,-1070.695
537527.103,4047197.499,-1021.317
537527.103,4046997.499,-987.076
537527.103,4046797.499,-969.717
537527.103,4046597.499,-912.904
537527.103,4046397.499,-888.382
537527.103,4046197.499,-851.995
537527.103,4045997.499,-828.453
537527.103,4045797.499,-799.953
537527.103,4045597.499,-791.070
537527.103,4045397.499,-753.900
537527.103,4045197.499,-699.304
537527.103,4044997.499,-643.095
537527.103,4044797.499,-629.612
537527.103,4044597.499,-647.593
537527.103,4044397.499,-639.893
537527.103,4044197.499,-610.955
537527.103,4043997.499,-597.827
537527.103,4043797.499,-570.889
537527.103,4043397.499,-574.767
537727.103,4093397.499,-2274.986
537727.103,4093197.499,-2196.544
537727.103,4092997.499,-2237.637
537727.103,4092797.499,-2134.566
537727.103,4092597.499,-2096.580
537727.103,4092397.499,-2038.932
537727.103,4092197.499,-1974.628
537727.103,4091997.499,-1925.813
537727.103,4091797.499,-1930.290
537727.103,4091597.499,-2037.666
537727.103,4091397.499,-2150.300
537727.103,4091197.499,-2033.695
537727.103,4090997.499,-1973.420
537727.103,4090797.499,-1780.152
537727.103,4090597.499,-1563.672
537727.103,4090397.499,-1558.903
537727.103,4090197.499,-1648.219
537727.103,4089997.499,-1584.631
537727.103,4089797.499,-1614.370
537727.103,4089597.499,-1486.260
537727.103,4089397.499,-1376.314
537727.103,4089197.499,-1482.167
537727.103,4088997.499,-1450.146
537727.103,4088797.499,-1492.983
537727.103,4088597.499,-1512.297
537727.103,4088397.499,-1491.431
537727.103,4088197.499,-1374.100
537727.103,4087997.499,-1477.153
537727.103,4087797.499,-1506.703
537727.103,4087597.499,-1575.994
537727.103,4087397.499,-1490.744
537727.103,4087197.499,-1489.093
537727.103,4086997.499,-1458.187
537727.103,4086797.499,-1415.878
537727.103,4086597.499,-1327.411
537727.103,4086397.499,-1367.030
537727.103,4086197.499,-1326.328
537727.103,4085997.499,-1348.252
537727.103,4085797.499,-1406.760
537727.103,4085597.499,-1383.938
537727.103,4085397.499,-1302.624
537727.103,4085197.499,-1339.558
537727.103,4084997.499,-1312.187
537727.103,4084797.499,-1231.180
537727.103,4084597.499,-1267.507
537727.103,4084397.499,-1196.633
537727.103,4084197.499,-1098.719
537727.103,4083997.499,-1056.822
537727.103,4083797.499,-1016.401
537727.103,4083597.499,-1026.448
537727.103,4083397.499,-1078.581
537727.103,4083197.499,-1142.628
537727.103,4082997.499,-1221.422
537727.103,4082797.499,-1271.931
537727.103,4082597.499,-1191.125
537727.103,4082397.499,-1176.793
537727.103,4082197.499,-1228.150
537727.103,4081997.499,-1295.575
537727.103,4081797.499,-1398.352
537727.103,4081597.499,-1503.422
537727.103,4081397.499,-1550.440
537727.103,4081197.499,-1708.634
537727.103,4080997.499,-1752.578
537727.103,4080797.499,-1793.914
537727.103,4080597.499,-1936.671
537727.103,4080397.499,-2034.294
537727.103,4080197.499,-2156.756
537727.103,4079997.499,-2362.063
537727.103,4079797.499,-2421.526
537727.103,4079597.499,-2500.720
537727.103,4079397.499,-2531.794
537727.103,4079197.499,-2555.707
537727.103,4078997.499,-2578.947
537727.103,4078797.499,-2611.210
537727.103,4078597.499,-2618.064
537727.103,4078397.499,-2608.538
537727.103,4078197.499,-2613.222
537727.103,4077997.499,-2612.450
537727.103,4077797.499,-2609.548
537727.103,4077597.499,-2609.293
537727.103,4077397.499,-2617.778
537727.103,4077197.499,-2617.913
537727.103,4076997.499,-2622.018
537727.103,4076797.499,-2625.428
537727.103,4076597.499,-2592.861
537727.103,4076397.499,-2569.015
537727.103,4076197.499,-2547.943
537727.103,4075997.499,-2550.119
537727.103,4075797.499,-2279.947
537727.103,4075597.499,-2233.001
537727.103,4075397.499,-2150.725
537727.103,4075197.499,-2052.872
537727.103,4074997.499,-1905.940
537727.103,4074797.499,-1806.815
537727.103,4074597.499,-1717.194
537727.103,4074397.499,-1596.933
537727.103,4074197.499,-1600.964
537727.103,4073997.499,-1558.080
537727.103,4073797.499,-1475.269
537727.103,4073597.499,-1338.879
537727.103,4073397.499,-1244.512
537727.103,4073197.499,-1194.731
537727.103,4072997.499,-1167.131
537727.103,4072797.499,-1167.916
537727.103,4072597.499,-1135.133
537727.103,4072397.499,-1178.861
537727.103,4072197.499,-1157.779
537727.103,4071997.499,-1153.310
537727.103,4071797.499,-1149.858
537727.103,4071597.499,-1192.867
537727.103,4071397.499,-1187.904
537727.103,4071197.499,-1170.347
537727.103,4070997.499,-1152.199
537727.103,4070797.499,-1200.167
537727.103,4070597.499,-1226.651
537727.103,4070397.499,-1255.629
537727.103,4070197.499,-1300.358
537727.103,4069997.499,-1324.838
537727.103,4069797.499,-1357.615
537727.103,4069597.499,-1510.826
537727.103,4069397.499,-1528.446
537727.103,4069197.499,-1568.459
537727.103,4068997.499,-1590.199
537727.103,4068797.499,-1617.273
537727.103,4068597.499,-1605.570
537727.103,4068397.499,-1664.033
537727.103,4068197.499,-1751.884
537727.103,4067997.499,-1836.000
537727.103,4067797.499,-1963.208
537727.103,4067597.499,-2037.761
537727.103,4067397.499,-2054.312
537727.103,4067197.499,-2113.555
537727.103,4066997.499,-2078.955
537727.103,4066797.499,-2074.069
537727.103,4066597.499,-1862.872
537727.103,4066397.499,-1792.881
537727.103,4066197.499,-1782.523
537727.103,4065997.499,-1843.023
537727.103,4065797.499,-1925.588
537727.103,4065597.499,-1989.415
537727.103,4065397.499,-1979.965
537727.103,4065197.499,-2004.660
537727.103,4064997.499,-2009.196
537727.103,4064797.499,-1958.365
537727.103,4064597.499,-1927.682
537727.103,4064397.499,-1924.654
537727.103,4064197.499,-1962.876
537727.103,4063997.499,-1982.005
537727.103,4063797.499,-2048.941
537727.103,4063597.499,-2059.534
537727.103,4063397.499,-2070.671
537727.103,4063197.499,-2056.811
537727.103,4062997.499,-2037.872
537727.103,4062797.499,-2061.852
537727.103,4062597.499,-2108.076
537727.103,4062397.499,-2165.997
537727.103,4062197.499,-2230.450
537727.103,4061997.499,-2243.884
537727.103,4061797.499,-2238.600
537727.103,4061597.499,-2213.607
537727.103,4061397.499,-2168.013
537727.103,4061197.499,-2041.725
537727.103,4060997.499,-1919.153
537727.103,4060797.499,-1905.501
537727.103,4060597.499,-1941.508
537727.103,4060397.499,-1973.439
537727.103,4060197.499,-2000.673
537727.103,4059997.499,-2042.380
537727.103,4059797.499,-2074.625
537727.103,4059597.499,-2126.458
537727.103,4059397.499,-2125.351
537727.103,4059197.499,-2113.619
537727.103,4058997.499,-2098.819
537727.103,4058797.499,-2038.770
537727.103,4058597.499,-2014.691
537727.103,4058397.499,-2026.005
537727.103,4058197.499,-2088.684
537727.103,4057997.499,-1937.892
537727.103,4057797.499,-1947.855
537727.103,4057597.499,-1953.171
537727.103,4057397.499,-1931.660
537727.103,4057197.499,-1889.647
537727.103,4056997.499,-1857.384
537727.103,4056797.499,-1856.954
537727.103,4056597.499,-1853.965
537727.103,4056397.499,-1854.097
537727.103,4056197.499,-1911.880
537727.103,4055997.499,-1873.747
537727.103,4055797.499,-1834.215
537727.103,4055597.499,-1798.253
537727.103,4055397.499,-1735.052
537727.103,4055197.499,-1800.083
537727.103,4054997.499,-1774.385
537727.103,4052797.499,-1375.994
537727.103,4052597.499,-1298.409
537727.103,4052397.499,-1234.442
537727.103,4052197.499,-1179.391
537727.103,4051997.499,-1197.696
537727.103,4051797.499,-1232.875
537727.103,4051597.499,-1213.829
537727.103,4051397.499,-1223.260
537727.103,4051197.499,-1244.693
537727.103,4050997.499,-1281.187
537727.103,4050797.499,-1305.550
537727.103,4050597.499,-1291.916
537727.103,4050397.499,-1273.864
537727.103,4050197.499,-1274.642
537727.103,4049997.499,-1275.877
537727.103,4049797.499,-1241.469
537727.103,4049597.499,-1177.294
537727.103,4049397.499,-1100.818
537727.103,4049197.499,-1052.413
537727.103,4048997.499,-1035.545
537727.103,4048797.499,-1053.252
537727.103,4048597.499,-1061.931
537727.103,4048397.499,-1085.148
537727.103,4048197.499,-1127.868
537727.103,4047997.499,-1157.309
537727.103,4047797.499,-1167.372
537727.103,4047597.499,-1138.016
537727.103,4047397.499,-1103.221
537727.103,4047197.499,-1078.545
537727.103,4046997.499,-1035.696
537727.103,4046797.499,-980.330
537727.103,4046597.499,-951.090
537727.103,4046397.499,-930.245
537727.103,4046197.499,-909.257
537727.103,4045997.499,-941.121
537727.103,4045797.499,-982.051
537727.103,4045597.499,-814.563
537727.103,4045397.499,-763.888
537727.103,4045197.499,-689.715
537727.103,4044997.499,-625.458
537727.103,4044797.499,-657.365
537727.103,4044597.499,-671.118
537727.103,4044397.499,-660.430
537727.103,4044197.499,-632.333
537727.103,4043997.499,-620.969
537727.103,4043797.499,-604.598
537727.103,4043597.499,-587.263
537727.103,4043397.499,-627.480
537727.103,4043197.499,-605.839
537727.103,4042797.499,-591.660
537727.103,4042597.499,-607.146
537727.103,4042397.499,-603.259
537927.103,4093397.499,-2394.718
537927.103,4093197.499,-2381.036
537927.103,4092997.499,-2375.161
537927.103,4092797.499,-2360.312
537927.103,4092597.499,-2180.414
537927.103,4092397.499,-2084.219
537927.103,4092197.499,-2142.053
537927.103,4091997.499,-2169.106
537927.103,4091797.499,-2151.406
537927.103,4091597.499,-2261.905
537927.103,4091397.499,-2290.939
537927.103,4091197.499,-2216.811
537927.103,4090997.499,-2002.372
537927.103,4090797.499,-1871.337
537927.103,4090597.499,-1719.113
537927.103,4090397.499,-1733.065
537927.103,4090197.499,-1877.045
537927.103,4089997.499,-1777.026
537927.103,4089797.499,-1726.631
537927.103,4089597.499,-1696.055
537927.103,4089397.499,-1543.373
537927.103,4089197.499,-1509.954
537927.103,4088997.499,-1558.593
537927.103,4088797.499,-1550.361
537927.103,4088597.499,-1586.031
537927.103,4088397.499,-1434.133
537927.103,4088197.499,-1343.512
537927.103,4087997.499,-1521.504
537927.103,4087797.499,-1572.886
537927.103,4087597.499,-1625.864
537927.103,4087397.499,-1591.781
537927.103,4087197.499,-1548.334
537927.103,4086997.499,-1499.758
537927.103,4086797.499,-1443.106
537927.103,4086597.499,-1399.630
537927.103,4086397.499,-1426.922
537927.103,4086197.499,-1376.999
537927.103,4085997.499,-1426.142
537927.103,4085797.499,-1521.244
537927.103,4085597.499,-1503.473
537927.103,4085397.499,-1402.578
537927.103,4085197.499,-1398.222
537927.103,4084997.499,-1338.063
537927.103,4084797.499,-1331.317
537927.103,4084597.499,-1291.859
537927.103,4084397.499,-1231.830
537927.103,4084197.499,-1180.851
537927.103,4083997.499,-1120.086
537927.103,4083797.499,-1066.156
537927.103,4083597.499,-1052.957
537927.103,4083397.499,-1095.510
537927.103,4083197.499,-1164.932
537927.103,4082997.499,-1236.925
537927.103,4082797.499,-1315.695
537927.103,4082597.499,-1259.732
537927.103,4082397.499,-1277.867
537927.103,4082197.499,-1476.251
537927.103,4081997.499,-1587.350
537927.103,4081797.499,-1711.769
537927.103,4081597.499,-1743.766
537927.103,4081397.499,-1739.236
537927.103,4081197.499,-1890.624
537927.103,4080997.499,-1870.395
537927.103,4080797.499,-1952.264
537927.103,4080597.499,-2069.758
537927.103,4080397.499,-2255.000
537927.103,4080197.499,-2347.077
537927.103,4079997.499,-2485.262
537927.103,4079797.499,-2510.865
537927.103,4079597.499,-2544.323
537927.103,4079397.499,-2554.891
537927.103,4079197.499,-2564.396
537927.103,4078997.499,-2601.043
537927.103,4078797.499,-2601.115
537927.103,4078597.499,-2613.623
537927.103,4078397.499,-2621.967
537927.103,4078197.499,-2629.364
537927.103,4077997.499,-2630.832
537927.103,4077797.499,-2625.208
537927.103,4077597.499,-2629.890
537927.103,4077397.499,-2633.732
537927.103,4077197.499,-2627.794
537927.103,4076997.499,-2642.452
537927.103,4076797.499,-2650.487
537927.103,4076597.499,-2620.959
537927.103,4076397.499,-2604.685
537927.103,4076197.499,-2574.361
537927.103,4075997.499,-2555.285
537927.103,4075797.499,-2483.453
537927.103,4075597.499,-2386.747
537927.103,4075397.499,-2201.934
537927.103,4075197.499,-2016.211
537927.103,4074997.499,-1870.008
537927.103,4074797.499,-1793.534
537927.103,4074597.499,-1673.921
537927.103,4074397.499,-1547.497
537927.103,4074197.499,-1433.619
537927.103,4073997.499,-1380.145
537927.103,4073797.499,-1313.120
537927.103,4073597.499,-1246.615
537927.103,4073397.499,-1203.694
537927.103,4073197.499,-1224.755
537927.103,4072997.499,-1227.769
537927.103,4072797.499,-1220.430
537927.103,4072597.499,-1188.789
537927.103,4072397.499,-1231.128
537927.103,4072197.499,-1248.234
537927.103,4071997.499,-1265.581
537927.103,4071797.499,-1193.433
537927.103,4071597.499,-1150.481
537927.103,4071397.499,-1164.571
537927.103,4071197.499,-1181.154
537927.103,4070997.499,-1189.385
537927.103,4070797.499,-1210.244
537927.103,4070597.499,-1245.412
537927.103,4070397.499,-1277.365
537927.103,4070197.499,-1298.752
537927.103,4069997.499,-1314.141
537927.103,4069797.499,-1346.333
537927.103,4069597.499,-1399.404
537927.103,4069397.499,-1475.708
537927.103,4069197.499,-1511.501
537927.103,4068997.499,-1546.480
537927.103,4068797.499,-1563.524
537927.103,4068597.499,-1573.563
537927.103,4068397.499,-1671.036
537927.103,4068197.499,-1767.082
537927.103,4067997.499,-1828.854
537927.103,4067797.499,-1867.133
537927.103,4067597.499,-2083.511
537927.103,4067397.499,-2119.816
537927.103,4067197.499,-2152.530
537927.103,4066997.499,-2151.508
537927.103,4066797.499,-2136.686
537927.103,4066597.499,-1973.451
537927.103,4066397.499,-1915.536
537927.103,4066197.499,-1889.966
537927.103,4065997.499,-1899.233
537927.103,4065797.499,-1932.761
537927.103,4065597.499,-2015.758
537927.103,4065397.499,-2049.770
537927.103,4065197.499,-2048.613
537927.103,4064997.499,-2013.908
537927.103,4064797.499,-1971.442
537927.103,4064597.499,-1941.057
537927.103,4064397.499,-1937.042
537927.103,4064197.499,-1990.229
537927.103,4063997.499,-1999.496
537927.103,4063797.499,-2050.249
537927.103,4063597.499,-2079.788
537927.103,4063397.499,-2092.736
537927.103,4063197.499,-2093.049
537927.103,4062997.499,-2057.252
537927.103,4062797.499,-2068.161
537927.103,4062597.499,-2156.489
537927.103,4062397.499,-2207.479
537927.103,4062197.499,-2268.294
537927.103,4061997.499,-2274.830
537927.103,4061797.499,-2254.703
537927.103,4061597.499,-2158.629
537927.103,4061397.499,-2115.361
537927.103,4061197.499,-2129.728
537927.103,4060997.499,-1938.545
537927.103,4060797.499,-1939.927
537927.103,4060597.499,-1980.868
537927.103,4060397.499,-2016.691
537927.103,4060197.499,-2048.229
537927.103,4059997.499,-2082.100
537927.103,4059797.499,-2121.355
537927.103,4059597.499,-2164.237
537927.103,4059397.499,-2156.803
537927.103,4059197.499,-2140.430
537927.103,4058997.499,-2119.221
537927.103,4058797.499,-2016.297
537927.103,4058597.499,-1989.812
537927.103,4058397.499,-2005.831
537927.103,4058197.499,-1993.648
537927.103,4057997.499,-1998.796
537927.103,4057797.499,-2010.241
537927.103,4057597.499,-2020.066
537927.103,4057397.499,-1997.349
537927.103,4057197.499,-1989.238
537927.103,4056997.499,-1951.290
537927.103,4056797.499,-2018.638
537927.103,4056597.499,-1989.657
537927.103,4056397.499,-1975.522
537927.103,4056197.499,-1960.396
537927.103,4055997.499,-1935.049
537927.103,4055797.499,-1902.293
537927.103,4055597.499,-1876.303
537927.103,4055397.499,-1850.051
537927.103,4055197.499,-1811.776
537927.103,4054997.499,-1721.483
537927.103,4054797.499,-1684.498
537927.103,4052397.499,-1210.316
537927.103,4052197.499,-1179.591
537927.103,4051997.499,-1221.934
537927.103,4051797.499,-1261.014
537927.103,4051597.499,-1238.297
537927.103,4051397.499,-1241.936
537927.103,4051197.499,-1291.399
537927.103,4050997.499,-1309.625
537927.103,4050797.499,-1328.490
537927.103,4050597.499,-1317.554
537927.103,4050397.499,-1307.748
537927.103,4050197.499,-1301.426
537927.103,4049997.499,-1296.544
537927.103,4049797.499,-1259.765
537927.103,4049597.499,-1200.370
537927.103,4049397.499,-1116.402
537927.103,4049197.499,-1056.232
537927.103,4048997.499,-1081.875
537927.103,4048797.499,-1100.528
537927.103,4048597.499,-1112.613
537927.103,4048397.499,-1160.291
537927.103,4048197.499,-1182.549
537927.103,4047997.499,-1209.718
537927.103,4047797.499,-1189.451
537927.103,4047597.499,-1147.656
537927.103,4047397.499,-1098.287
537927.103,4047197.499,-1044.520
537927.103,4046997.499,-986.306
537927.103,4046797.499,-1011.943
537927.103,4046597.499,-1045.828
537927.103,4046397.499,-1048.063
537927.103,4046197.499,-1066.395
537927.103,4045997.499,-1087.330
537927.103,4045797.499,-1002.686
537927.103,4045597.499,-843.466
537927.103,4045397.499,-785.216
537927.103,4045197.499,-745.651
537927.103,4044997.499,-677.215
537927.103,4044797.499,-682.737
537927.103,4044597.499,-695.176
537927.103,4044397.499,-686.192
537927.103,4044197.499,-673.141
537927.103,4043997.499,-669.433
537927.103,4043797.499,-615.807
537927.103,4043597.499,-619.646
537927.103,4043397.499,-659.660
537927.103,4043197.499,-647.960
537927.103,4042997.499,-604.057
537927.103,4042797.499,-617.263
537927.103,4042597.499,-647.316
537927.103,4042397.499,-612.264
537927.103,4042197.499,-570.170
538127.103,4093397.499,-2477.441
538127.103,4093197.499,-2476.842
538127.103,4092997.499,-2476.373
538127.103,4092797.499,-2495.284
538127.103,4092597.499,-2339.819
538127.103,4092397.499,-2251.617
538127.103,4092197.499,-2310.777
538127.103,4091997.499,-2369.590
538127.103,4091797.499,-2383.978
538127.103,4091597.499,-2420.738
538127.103,4091397.499,-2415.572
538127.103,4091197.499,-2331.954
538127.103,4090997.499,-2135.291
538127.103,4090797.499,-1924.938
538127.103,4090597.499,-1825.727
538127.103,4090397.499,-1912.414
538127.103,4090197.499,-2057.740
538127.103,4089997.499,-2081.946
538127.103,4089797.499,-1912.727
538127.103,4089597.499,-1996.826
538127.103,4089397.499,-1825.503
538127.103,4089197.499,-1710.699
538127.103,4088997.499,-1779.498
538127.103,4088797.499,-1615.757
538127.103,4088597.499,-1814.228
538127.103,4088397.499,-1577.317
538127.103,4088197.499,-1483.774
538127.103,4087997.499,-1577.233
538127.103,4087797.499,-1718.107
538127.103,4087597.499,-1719.748
538127.103,4087397.499,-1589.063
538127.103,4087197.499,-1561.636
538127.103,4086997.499,-1511.834
538127.103,4086797.499,-1433.671
538127.103,4086597.499,-1450.506
538127.103,4086397.499,-1499.808
538127.103,4086197.499,-1465.927
538127.103,4085997.499,-1553.325
538127.103,4085797.499,-1617.008
538127.103,4085597.499,-1623.079
538127.103,4085397.499,-1568.027
538127.103,4085197.499,-1445.087
538127.103,4084997.499,-1420.127
538127.103,4084797.499,-1405.756
538127.103,4084597.499,-1372.588
538127.103,4084397.499,-1301.863
538127.103,4084197.499,-1272.356
538127.103,4083997.499,-1188.320
538127.103,4083797.499,-1109.447
538127.103,4083597.499,-1122.239
538127.103,4083197.499,-1169.103
538127.103,4082997.499,-1251.815
538127.103,4082797.499,-1319.887
538127.103,4082597.499,-1363.023
538127.103,4082397.499,-1305.126
538127.103,4082197.499,-1399.507
538127.103,4081997.499,-1601.632
538127.103,4081797.499,-1691.379
538127.103,4081597.499,-1829.844
538127.103,4081397.499,-1950.016
538127.103,4081197.499,-2053.338
538127.103,4080997.499,-2147.682
538127.103,4080797.499,-2237.422
538127.103,4080597.499,-2299.777
538127.103,4080397.499,-2421.516
538127.103,4080197.499,-2463.326
538127.103,4079997.499,-2445.500
538127.103,4079797.499,-2503.948
538127.103,4079597.499,-2544.492
538127.103,4079397.499,-2590.439
538127.103,4079197.499,-2587.232
538127.103,4078997.499,-2611.498
538127.103,4078797.499,-2607.967
538127.103,4078597.499,-2621.344
538127.103,4078397.499,-2630.595
538127.103,4078197.499,-2639.714
538127.103,4077997.499,-2645.480
538127.103,4077797.499,-2648.341
538127.103,4077597.499,-2653.320
538127.103,4077397.499,-2656.301
538127.103,4077197.499,-2659.683
538127.103,4076997.499,-2663.565
538127.103,4076797.499,-2672.829
538127.103,4076597.499,-2657.303
538127.103,4076397.499,-2614.260
538127.103,4076197.499,-2569.560
538127.103,4075997.499,-2545.541
538127.103,4075797.499,-2527.526
538127.103,4075597.499,-2403.132
538127.103,4075397.499,-2186.041
538127.103,4075197.499,-2044.245
538127.103,4074997.499,-1823.009
538127.103,4074797.499,-1737.067
538127.103,4074597.499,-1623.603
538127.103,4074397.499,-1544.764
538127.103,4074197.499,-1444.231
538127.103,4073997.499,-1362.081
538127.103,4073797.499,-1262.269
538127.103,4073597.499,-1274.219
538127.103,4073397.499,-1281.883
538127.103,4073197.499,-1319.340
538127.103,4072997.499,-1339.144
538127.103,4072797.499,-1304.721
538127.103,4072597.499,-1256.683
538127.103,4072397.499,-1309.300
538127.103,4072197.499,-1416.412
538127.103,4071997.499,-1372.881
538127.103,4071797.499,-1289.943
538127.103,4071597.499,-1327.381
538127.103,4071397.499,-1274.734
538127.103,4071197.499,-1275.510
538127.103,4070997.499,-1292.342
538127.103,4070797.499,-1287.783
538127.103,4070597.499,-1308.540
538127.103,4070397.499,-1319.462
538127.103,4070197.499,-1351.792
538127.103,4069997.499,-1363.488
538127.103,4069797.499,-1360.072
538127.103,4069597.499,-1334.057
538127.103,4069397.499,-1320.999
538127.103,4069197.499,-1358.888
538127.103,4068997.499,-1364.774
538127.103,4068797.499,-1372.013
538127.103,4068597.499,-1386.073
538127.103,4068397.499,-1504.543
538127.103,4068197.499,-1545.421
538127.103,4067997.499,-1641.225
538127.103,4067797.499,-1706.208
538127.103,4067597.499,-1888.192
538127.103,4067397.499,-2124.101
538127.103,4067197.499,-2234.662
538127.103,4066997.499,-2233.634
538127.103,4066797.499,-2154.927
538127.103,4066597.499,-2038.956
538127.103,4066397.499,-1957.994
538127.103,4066197.499,-1964.233
538127.103,4065997.499,-1972.144
538127.103,4065797.499,-1991.494
538127.103,4065597.499,-2058.704
538127.103,4065397.499,-2086.188
538127.103,4065197.499,-2061.962
538127.103,4064997.499,-2028.757
538127.103,4064797.499,-1993.186
538127.103,4064597.499,-1975.076
538127.103,4064397.499,-1968.658
538127.103,4064197.499,-2013.150
538127.103,4063997.499,-2029.151
538127.103,4063797.499,-2066.309
538127.103,4063597.499,-2093.147
538127.103,4063397.499,-2132.492
538127.103,4063197.499,-2145.411
538127.103,4062997.499,-2157.140
538127.103,4062797.499,-2165.790
538127.103,4062597.499,-2224.497
538127.103,4062397.499,-2294.997
538127.103,4062197.499,-2306.705
538127.103,4061997.499,-2299.747
538127.103,4061797.499,-2273.927
538127.103,4061597.499,-2196.434
538127.103,4061397.499,-2060.098
538127.103,4061197.499,-2057.909
538127.103,4060997.499,-1955.770
538127.103,4060797.499,-1968.912
538127.103,4060597.499,-2012.608
538127.103,4060397.499,-2046.970
538127.103,4060197.499,-2110.046
538127.103,4059997.499,-2132.199
538127.103,4059797.499,-2174.822
538127.103,4059597.499,-2172.334
538127.103,4059397.499,-2171.860
538127.103,4059197.499,-2148.268
538127.103,4058997.499,-2119.468
538127.103,4058797.499,-2060.086
538127.103,4058597.499,-1992.276
538127.103,4058397.499,-2005.926
538127.103,4058197.499,-2037.990
538127.103,4057997.499,-2037.564
538127.103,4057797.499,-2034.073
538127.103,4057597.499,-2048.303
538127.103,4057397.499,-2049.456
538127.103,4057197.499,-2027.920
538127.103,4056997.499,-2040.166
538127.103,4056797.499,-2012.339
538127.103,4056597.499,-1991.496
538127.103,4056397.499,-1971.076
538127.103,4056197.499,-1963.047
538127.103,4055997.499,-1903.907
538127.103,4055797.499,-1884.446
538127.103,4055597.499,-1807.960
538127.103,4055397.499,-1849.512
538127.103,4055197.499,-1834.086
538127.103,4054997.499,-1800.454
538127.103,4054797.499,-1746.616
538127.103,4054597.499,-1684.015
538127.103,4054397.499,-1540.907
538127.103,4052197.499,-1218.388
538127.103,4051997.499,-1259.022
538127.103,4051797.499,-1299.887
538127.103,4051597.499,-1281.631
538127.103,4051397.499,-1276.705
538127.103,4051197.499,-1319.536
538127.103,4050997.499,-1340.868
538127.103,4050797.499,-1353.423
538127.103,4050597.499,-1339.639
538127.103,4050397.499,-1332.102
538127.103,4050197.499,-1319.846
538127.103,4049997.499,-1315.258
538127.103,4049797.499,-1270.167
538127.103,4049597.499,-1181.696
538127.103,4049397.499,-1103.716
538127.103,4049197.499,-1096.969
538127.103,4048997.499,-1127.749
538127.103,4048797.499,-1156.817
538127.103,4048597.499,-1177.794
538127.103,4048397.499,-1228.339
538127.103,4048197.499,-1249.340
538127.103,4047997.499,-1248.863
538127.103,4047797.499,-1197.660
538127.103,4047597.499,-1162.335
538127.103,4047397.499,-1094.646
538127.103,4047197.499,-1038.742
538127.103,4046997.499,-1023.832
538127.103,4046797.499,-1061.164
538127.103,4046597.499,-1151.545
538127.103,4046397.499,-1217.726
538127.103,4046197.499,-1196.235
538127.103,4045997.499,-1066.867
538127.103,4045797.499,-962.219
538127.103,4045597.499,-924.914
538127.103,4045397.499,-891.168
538127.103,4045197.499,-815.732
538127.103,4044997.499,-719.596
538127.103,4044797.499,-730.041
538127.103,4044597.499,-737.967
538127.103,4044397.499,-695.780
538127.103,4044197.499,-704.052
538127.103,4043997.499,-673.832
538127.103,4043797.499,-622.990
538127.103,4043597.499,-654.100
538127.103,4043397.499,-695.533
538127.103,4043197.499,-676.716
538127.103,4042997.499,-622.654
538127.103,4042797.499,-674.473
538127.103,4042597.499,-670.729
538127.103,4042397.499,-605.958
538127.103,4042197.499,-581.726
538127.103,4041997.499,-598.322
538127.103,4041797.499,-575.010
538327.103,4093397.499,-2501.757
538327.103,4093197.499,-2503.097
538327.103,4092997.499,-2506.961
538327.103,4092797.499,-2524.601
538327.103,4092597.499,-2504.077
538327.103,4092397.499,-2468.987
538327.103,4092197.499,-2469.535
538327.103,4091997.499,-2528.746
538327.103,4091797.499,-2549.874
538327.103,4091597.499,-2527.487
538327.103,4091397.499,-2519.196
538327.103,4091197.499,-2358.591
538327.103,4090997.499,-2161.608
538327.103,4090797.499,-2070.615
538327.103,4090597.499,-2118.455
538327.103,4090397.499,-2126.638
538327.103,4090197.499,-2161.224
538327.103,4089997.499,-2180.064
538327.103,4089797.499,-2055.094
538327.103,4089597.499,-2162.591
538327.103,4089397.499,-2082.826
538327.103,4089197.499,-2001.636
538327.103,4088997.499,-2056.848
538327.103,4088797.499,-1843.721
538327.103,4088597.499,-1953.023
538327.103,4088397.499,-1786.659
538327.103,4088197.499,-1826.366
538327.103,4087997.499,-1766.741
538327.103,4087797.499,-1890.386
538327.103,4087597.499,-1826.000
538327.103,4087397.499,-1703.257
538327.103,4087197.499,-1571.892
538327.103,4086997.499,-1466.894
538327.103,4086797.499,-1444.353
538327.103,4086597.499,-1508.312
538327.103,4086397.499,-1514.801
538327.103,4086197.499,-1626.338
538327.103,4085997.499,-1616.046
538327.103,4085797.499,-1684.820
538327.103,4085597.499,-1710.551
538327.103,4085397.499,-1839.390
538327.103,4085197.499,-1708.905
538327.103,4084997.499,-1536.027
538327.103,4084797.499,-1482.473
538327.103,4084597.499,-1424.919
538327.103,4084397.499,-1369.165
538327.103,4084197.499,-1308.811
538327.103,4083997.499,-1229.862
538327.103,4083597.499,-1177.000
538327.103,4083397.499,-1246.326
538327.103,4083197.499,-1340.561
538327.103,4082997.499,-1362.288
538327.103,4082797.499,-1351.243
538327.103,4082597.499,-1448.947
538327.103,4082397.499,-1448.823
538327.103,4082197.499,-1416.208
538327.103,4081997.499,-1486.014
538327.103,4081797.499,-1553.482
538327.103,4081597.499,-1709.384
538327.103,4081397.499,-1881.042
538327.103,4081197.499,-1984.848
538327.103,4080997.499,-2065.292
538327.103,4080797.499,-2150.910
538327.103,4080597.499,-2347.293
538327.103,4080397.499,-2412.986
538327.103,4080197.499,-2473.455
538327.103,4079997.499,-2501.378
538327.103,4079797.499,-2538.239
538327.103,4079597.499,-2540.722
538327.103,4079397.499,-2607.902
538327.103,4079197.499,-2608.634
538327.103,4078997.499,-2619.050
538327.103,4078797.499,-2620.984
538327.103,4078597.499,-2624.750
538327.103,4078397.499,-2632.042
538327.103,4078197.499,-2644.329
538327.103,4077997.499,-2655.649
538327.103,4077797.499,-2658.099
538327.103,4077597.499,-2668.032
538327.103,4077397.499,-2662.205
538327.103,4077197.499,-2664.269
538327.103,4076997.499,-2664.217
538327.103,4076797.499,-2666.909
538327.103,4076597.499,-2633.248
538327.103,4076397.499,-2608.418
538327.103,4076197.499,-2577.986
538327.103,4075997.499,-2533.761
538327.103,4075797.499,-2470.755
538327.103,4075597.499,-2387.555
538327.103,4075397.499,-2309.292
538327.103,4075197.499,-2109.595
538327.103,4074997.499,-1916.190
538327.103,4074797.499,-1942.574
538327.103,4074597.499,-1783.922
538327.103,4074397.499,-1570.962
538327.103,4074197.499,-1460.364
538327.103,4073997.499,-1369.867
538327.103,4073797.499,-1335.259
538327.103,4073597.499,-1377.699
538327.103,4073397.499,-1469.747
538327.103,4073197.499,-1515.407
538327.103,4072997.499,-1479.826
538327.103,4072797.499,-1407.336
538327.103,4072597.499,-1368.740
538327.103,4072397.499,-1457.219
538327.103,4072197.499,-1588.191
538327.103,4071997.499,-1508.411
538327.103,4071797.499,-1500.938
538327.103,4071597.499,-1422.919
538327.103,4071397.499,-1368.588
538327.103,4071197.499,-1376.157
538327.103,4070997.499,-1347.021
538327.103,4070797.499,-1347.131
538327.103,4070597.499,-1388.576
538327.103,4070397.499,-1402.162
538327.103,4070197.499,-1379.531
538327.103,4069997.499,-1395.517
538327.103,4069797.499,-1420.103
538327.103,4069597.499,-1432.715
538327.103,4069397.499,-1381.900
538327.103,4069197.499,-1389.234
538327.103,4068997.499,-1300.859
538327.103,4068797.499,-1336.898
538327.103,4068597.499,-1334.877
538327.103,4068397.499,-1483.804
538327.103,4068197.499,-1567.845
538327.103,4067997.499,-1670.268
538327.103,4067797.499,-1691.187
538327.103,4067597.499,-1834.041
538327.103,4067397.499,-2118.484
538327.103,4067197.499,-2285.545
538327.103,4066997.499,-2253.259
538327.103,4066797.499,-2241.203
538327.103,4066597.499,-2211.801
538327.103,4066397.499,-2012.342
538327.103,4066197.499,-2064.403
538327.103,4065997.499,-2089.559
538327.103,4065797.499,-2135.887
538327.103,4065597.499,-2104.825
538327.103,4065397.499,-2122.991
538327.103,4065197.499,-2077.426
538327.103,4064997.499,-2023.959
538327.103,4064797.499,-2009.470
538327.103,4064597.499,-2006.265
538327.103,4064397.499,-1984.451
538327.103,4064197.499,-2012.947
538327.103,4063997.499,-2063.125
538327.103,4063797.499,-2094.917
538327.103,4063597.499,-2117.935
538327.103,4063397.499,-2195.196
538327.103,4063197.499,-2264.695
538327.103,4062997.499,-2242.850
538327.103,4062797.499,-2217.116
538327.103,4062597.499,-2285.993
538327.103,4062397.499,-2332.433
538327.103,4062197.499,-2329.057
538327.103,4061997.499,-2311.644
538327.103,4061797.499,-2260.974
538327.103,4061597.499,-2199.402
538327.103,4061397.499,-2064.146
538327.103,4060997.499,-1994.213
538327.103,4060797.499,-1991.630
538327.103,4060597.499,-2048.820
538327.103,4060397.499,-2106.721
538327.103,4060197.499,-2182.902
538327.103,4059997.499,-2193.681
538327.103,4059797.499,-2212.858
538327.103,4059597.499,-2211.399
538327.103,4059397.499,-2188.953
538327.103,4059197.499,-2178.422
538327.103,4058997.499,-2122.995
538327.103,4058797.499,-2086.824
538327.103,4058597.499,-2079.512
538327.103,4058397.499,-2075.287
538327.103,4058197.499,-2094.898
538327.103,4057997.499,-2088.294
538327.103,4057797.499,-2077.247
538327.103,4057597.499,-2073.295
538327.103,4057397.499,-2072.486
538327.103,4057197.499,-2057.317
538327.103,4056997.499,-2028.942
538327.103,4056797.499,-2005.644
538327.103,4056597.499,-1958.171
538327.103,4056397.499,-1919.794
538327.103,4056197.499,-1856.796
538327.103,4055997.499,-1778.817
538327.103,4055797.499,-1754.188
538327.103,4055597.499,-1685.568
538327.103,4055397.499,-1720.337
538327.103,4055197.499,-1760.751
538327.103,4054997.499,-1767.400
538327.103,4054797.499,-1703.309
538327.103,4054597.499,-1667.185
538327.103,4054397.499,-1640.946
538327.103,4051797.499,-1320.675
538327.103,4051597.499,-1330.368
538327.103,4051397.499,-1315.626
538327.103,4051197.499,-1356.988
538327.103,4050997.499,-1382.390
538327.103,4050797.499,-1375.601
538327.103,4050597.499,-1373.245
538327.103,4050397.499,-1368.247
538327.103,4050197.499,-1366.581
538327.103,4049997.499,-1334.208
538327.103,4049797.499,-1291.920
538327.103,4049597.499,-1215.778
538327.103,4049397.499,-1141.110
538327.103,4049197.499,-1143.303
538327.103,4048997.499,-1183.398
538327.103,4048797.499,-1240.203
538327.103,4048597.499,-1241.868
538327.103,4048397.499,-1274.340
538327.103,4048197.499,-1301.730
538327.103,4047997.499,-1250.219
538327.103,4047797.499,-1214.533
538327.103,4047597.499,-1189.578
538327.103,4047397.499,-1122.643
538327.103,4047197.499,-1096.570
538327.103,4046997.499,-1120.766
538327.103,4046797.499,-1215.673
538327.103,4046597.499,-1267.039
538327.103,4046397.499,-1219.889
538327.103,4046197.499,-1122.223
538327.103,4045997.499,-1091.740
538327.103,4045797.499,-1014.938
538327.103,4045597.499,-965.738
538327.103,4045397.499,-925.441
538327.103,4045197.499,-894.723
538327.103,4044997.499,-784.548
538327.103,4044797.499,-774.984
538327.103,4044597.499,-768.421
538327.103,4044397.499,-739.665
538327.103,4044197.499,-744.898
538327.103,4043997.499,-674.068
538327.103,4043797.499,-618.201
538327.103,4043597.499,-655.541
538327.103,4043397.499,-724.534
538327.103,4043197.499,-711.926
538327.103,4042997.499,-661.396
538327.103,4042797.499,-725.089
538327.103,4042597.499,-682.468
538327.103,4042397.499,-613.596
538327.103,4042197.499,-659.593
538327.103,4041997.499,-624.113
538327.103,4041797.499,-609.010
538327.103,4041597.499,-577.404
538527.103,4093397.499,-2512.522
538527.103,4093197.499,-2518.616
538527.103,4092997.499,-2529.786
538527.103,4092797.499,-2525.594
538527.103,4092597.499,-2528.289
538527.103,4092397.499,-2539.618
538527.103,4092197.499,-2546.508
538527.103,4091997.499,-2569.606
538527.103,4091797.499,-2584.639
538527.103,4091597.499,-2596.450
538527.103,4091397.499,-2556.625
538527.103,4091197.499,-2461.980
538527.103,4090997.499,-2292.393
538527.103,4090797.499,-2325.792
538527.103,4090597.499,-2253.511
538527.103,4090397.499,-2337.545
538527.103,4090197.499,-2326.112
538527.103,4089997.499,-2300.335
538527.103,4089797.499,-2257.241
538527.103,4089597.499,-2292.052
538527.103,4089397.499,-2229.500
538527.103,4089197.499,-2153.207
538527.103,4088997.499,-2160.425
538527.103,4088797.499,-2093.339
538527.103,4088597.499,-2083.375
538527.103,4088397.499,-1977.032
538527.103,4088197.499,-1999.359
538527.103,4087997.499,-2004.228
538527.103,4087797.499,-2062.377
538527.103,4087597.499,-1872.426
538527.103,4087397.499,-1749.241
538527.103,4087197.499,-1678.865
538527.103,4086997.499,-1563.413
538527.103,4086797.499,-1535.773
538527.103,4086597.499,-1469.007
538527.103,4086397.499,-1513.416
538527.103,4086197.499,-1640.795
538527.103,4085997.499,-1725.255
538527.103,4085797.499,-1780.111
538527.103,4085597.499,-1681.540
538527.103,4085397.499,-1873.678
538527.103,4085197.499,-1769.391
538527.103,4084997.499,-1507.753
538527.103,4084797.499,-1429.591
538527.103,4084597.499,-1400.418
538527.103,4084397.499,-1355.535
538527.103,4084197.499,-1340.392
538527.103,4083997.499,-1324.158
538527.103,4083797.499,-1175.101
538527.103,4083597.499,-1215.581
538527.103,4083397.499,-1317.165
538527.103,4083197.499,-1427.699
538527.103,4082997.499,-1502.383
538527.103,4082797.499,-1582.409
538527.103,4082597.499,-1668.960
538527.103,4082397.499,-1714.451
538527.103,4082197.499,-1615.511
538527.103,4081997.499,-1577.342
538527.103,4081797.499,-1558.813
538527.103,4081597.499,-1643.511
538527.103,4081397.499,-1724.926
538527.103,4081197.499,-1881.083
538527.103,4080997.499,-2028.991
538527.103,4080797.499,-2122.571
538527.103,4080597.499,-2272.810
538527.103,4080397.499,-2401.823
538527.103,4080197.499,-2491.794
538527.103,4079997.499,-2521.492
538527.103,4079797.499,-2553.239
538527.103,4079597.499,-2606.797
538527.103,4079397.499,-2606.737
538527.103,4079197.499,-2631.902
538527.103,4078997.499,-2626.063
538527.103,4078797.499,-2634.306
538527.103,4078597.499,-2638.399
538527.103,4078397.499,-2641.075
538527.103,4078197.499,-2647.287
538527.103,4077997.499,-2656.585
538527.103,4077797.499,-2665.324
538527.103,4077597.499,-2665.367
538527.103,4077397.499,-2673.675
538527.103,4077197.499,-2667.356
538527.103,4076997.499,-2666.680
538527.103,4076797.499,-2660.635
538527.103,4076597.499,-2640.958
538527.103,4076397.499,-2614.159
538527.103,4076197.499,-2596.425
538527.103,4075997.499,-2549.694
538527.103,4075797.499,-2489.653
538527.103,4075597.499,-2460.637
538527.103,4075397.499,-2397.199
538527.103,4075197.499,-2255.218
538527.103,4074997.499,-2183.483
538527.103,4074797.499,-2051.741
538527.103,4074597.499,-1822.098
538527.103,4074397.499,-1618.589
538527.103,4074197.499,-1471.832
538527.103,4073997.499,-1579.363
538527.103,4073797.499,-1491.486
538527.103,4073597.499,-1590.039
538527.103,4073397.499,-1651.274
538527.103,4073197.499,-1639.550
538527.103,4072997.499,-1591.922
538527.103,4072797.499,-1503.931
538527.103,4072597.499,-1511.967
538527.103,4072397.499,-1640.061
538527.103,4072197.499,-1732.230
538527.103,4071997.499,-1684.880
538527.103,4071797.499,-1629.780
538527.103,4071597.499,-1538.300
538527.103,4071397.499,-1477.443
538527.103,4071197.499,-1446.775
538527.103,4070997.499,-1480.744
538527.103,4070797.499,-1432.016
538527.103,4070597.499,-1502.446
538527.103,4070397.499,-1513.276
538527.103,4070197.499,-1496.338
538527.103,4069997.499,-1438.583
538527.103,4069797.499,-1439.548
538527.103,4069597.499,-1512.854
538527.103,4069397.499,-1482.975
538527.103,4069197.499,-1509.057
538527.103,4068997.499,-1510.403
538527.103,4068797.499,-1454.835
538527.103,4068597.499,-1533.014
538527.103,4068397.499,-1587.466
538527.103,4068197.499,-1617.098
538527.103,4067997.499,-1727.425
538527.103,4067797.499,-1893.377
538527.103,4067597.499,-2057.294
538527.103,4067397.499,-2180.523
538527.103,4067197.499,-2265.506
538527.103,4066997.499,-2274.781
538527.103,4066797.499,-2260.145
538527.103,4066597.499,-2243.442
538527.103,4066397.499,-2182.862
538527.103,4066197.499,-2181.824
538527.103,4065997.499,-2174.904
538527.103,4065797.499,-2156.251
538527.103,4065597.499,-2162.796
538527.103,4065397.499,-2132.121
538527.103,4065197.499,-2074.681
538527.103,4064997.499,-2034.475
538527.103,4064797.499,-2025.040
538527.103,4064597.499,-2015.733
538527.103,4064397.499,-2013.246
538527.103,4064197.499,-2047.925
538527.103,4063997.499,-2089.610
538527.103,4063797.499,-2135.753
538527.103,4063597.499,-2161.316
538527.103,4063397.499,-2215.773
538527.103,4063197.499,-2267.000
538527.103,4062997.499,-2265.722
538527.103,4062797.499,-2300.584
538527.103,4062597.499,-2356.394
538527.103,4062397.499,-2368.584
538527.103,4062197.499,-2362.330
538527.103,4061997.499,-2327.317
538527.103,4061797.499,-2266.219
538527.103,4061597.499,-2197.009
538527.103,4061397.499,-2099.196
538527.103,4061197.499,-1993.502
538527.103,4060997.499,-2013.838
538527.103,4060797.499,-2025.972
538527.103,4060597.499,-2080.784
538527.103,4060397.499,-2143.240
538527.103,4060197.499,-2241.617
538527.103,4059997.499,-2244.350
538527.103,4059797.499,-2257.413
538527.103,4059597.499,-2245.935
538527.103,4059397.499,-2196.465
538527.103,4059197.499,-2185.986
538527.103,4058997.499,-2135.654
538527.103,4058797.499,-2147.219
538527.103,4058597.499,-2138.686
538527.103,4058397.499,-2129.597
538527.103,4058197.499,-2123.492
538527.103,4057997.499,-2115.157
538527.103,4057797.499,-2107.111
538527.103,4057597.499,-2092.338
538527.103,4057397.499,-2079.751
538527.103,4057197.499,-2061.245
538527.103,4056997.499,-2013.994
538527.103,4056797.499,-1928.398
538527.103,4056597.499,-1928.046
538527.103,4056397.499,-1906.249
538527.103,4056197.499,-1806.547
538527.103,4055997.499,-1731.593
538527.103,4055797.499,-1619.061
538527.103,4055597.499,-1620.426
538527.103,4055397.499,-1600.573
538527.103,4055197.499,-1619.466
538527.103,4054997.499,-1633.445
538527.103,4054797.499,-1631.438
538527.103,4054597.499,-1639.157
538527.103,4054397.499,-1575.002
538527.103,4054197.499,-1555.668
538527.103,4051197.499,-1391.893
538527.103,4050997.499,-1413.587
538527.103,4050797.499,-1409.558
538527.103,4050597.499,-1403.991
538527.103,4050397.499,-1409.690
538527.103,4050197.499,-1370.600
538527.103,4049997.499,-1342.080
538527.103,4049797.499,-1271.366
538527.103,4049597.499,-1200.353
538527.103,4049397.499,-1197.161
538527.103,4049197.499,-1192.491
538527.103,4048997.499,-1231.474
538527.103,4048797.499,-1299.734
538527.103,4048597.499,-1306.704
538527.103,4048397.499,-1318.145
538527.103,4048197.499,-1315.191
538527.103,4047997.499,-1239.897
538527.103,4047797.499,-1257.406
538527.103,4047597.499,-1196.406
538527.103,4047397.499,-1192.347
538527.103,4047197.499,-1177.835
538527.103,4046997.499,-1210.100
538527.103,4046797.499,-1324.217
538527.103,4046597.499,-1270.306
538527.103,4046397.499,-1235.760
538527.103,4046197.499,-1155.956
538527.103,4045997.499,-1066.704
538527.103,4045797.499,-1050.861
538527.103,4045597.499,-1001.516
538527.103,4045397.499,-972.836
538527.103,4045197.499,-952.236
538527.103,4044997.499,-901.484
538527.103,4044797.499,-836.790
538527.103,4044597.499,-806.941
538527.103,4044397.499,-786.615
538527.103,4044197.499,-756.248
538527.103,4043997.499,-675.489
538527.103,4043797.499,-650.377
538527.103,4043597.499,-682.768
538527.103,4043397.499,-747.458
538527.103,4043197.499,-754.876
538527.103,4042997.499,-726.647
538527.103,4042797.499,-748.587
538527.103,4042597.499,-663.685
538527.103,4042397.499,-690.209
538527.103,4042197.499,-696.459
538527.103,4041997.499,-638.013
538527.103,4041797.499,-648.168
538527.103,4041597.499,-599.389
538727.103,4093397.499,-2526.183
538727.103,4093197.499,-2529.381
538727.103,4092997.499,-2536.018
538727.103,4092797.499,-2538.763
538727.103,4092597.499,-2548.056
538727.103,4092397.499,-2558.824
538727.103,4092197.499,-2568.792
538727.103,4091997.499,-2588.394
538727.103,4091797.499,-2594.359
538727.103,4091597.499,-2600.923
538727.103,4091397.499,-2579.515
538727.103,4091197.499,-2524.538
538727.103,4090997.499,-2419.050
538727.103,4090797.499,-2391.921
538727.103,4090597.499,-2335.887
538727.103,4090397.499,-2393.060
538727.103,4090197.499,-2441.338
538727.103,4089997.499,-2420.776
538727.103,4089797.499,-2391.539
538727.103,4089597.499,-2367.911
538727.103,4089397.499,-2360.519
538727.103,4089197.499,-2381.466
538727.103,4088997.499,-2338.538
538727.103,4088797.499,-2275.283
538727.103,4088597.499,-2180.676
538727.103,4088397.499,-2193.617
538727.103,4088197.499,-2204.275
538727.103,4087997.499,-2222.909
538727.103,4087797.499,-2129.603
538727.103,4087597.499,-1950.193
538727.103,4087397.499,-1689.852
538727.103,4087197.499,-1628.435
538727.103,4086997.499,-1717.672
538727.103,4086797.499,-1797.171
538727.103,4086597.499,-1710.295
538727.103,4086397.499,-1687.611
538727.103,4086197.499,-1753.938
538727.103,4085997.499,-1802.113
538727.103,4085797.499,-2037.107
538727.103,4085597.499,-1872.525
538727.103,4085397.499,-1964.470
538727.103,4085197.499,-1791.739
538727.103,4084997.499,-1560.724
538727.103,4084797.499,-1484.138
538727.103,4084597.499,-1469.295
538727.103,4084397.499,-1469.771
538727.103,4084197.499,-1467.744
538727.103,4083997.499,-1412.575
538727.103,4083797.499,-1321.632
538727.103,4083597.499,-1259.208
538727.103,4083397.499,-1342.400
538727.103,4083197.499,-1396.993
538727.103,4082997.499,-1635.291
538727.103,4082797.499,-1714.819
538727.103,4082597.499,-1781.311
538727.103,4082397.499,-1784.236
538727.103,4082197.499,-1806.010
538727.103,4081997.499,-1751.321
538727.103,4081797.499,-1701.940
538727.103,4081597.499,-1661.544
538727.103,4081397.499,-1745.675
538727.103,4081197.499,-1842.898
538727.103,4080997.499,-1978.439
538727.103,4080797.499,-2129.481
538727.103,4080597.499,-2284.749
538727.103,4080397.499,-2455.940
538727.103,4080197.499,-2513.493
538727.103,4079997.499,-2565.154
538727.103,4079797.499,-2577.567
538727.103,4079597.499,-2591.975
538727.103,4079397.499,-2610.725
538727.103,4079197.499,-2631.038
538727.103,4078997.499,-2653.792
538727.103,4078797.499,-2655.470
538727.103,4078597.499,-2663.179
538727.103,4078397.499,-2654.853
538727.103,4078197.499,-2661.867
538727.103,4077997.499,-2667.030
538727.103,4077797.499,-2672.936
538727.103,4077597.499,-2673.932
538727.103,4077397.499,-2683.831
538727.103,4077197.499,-2679.929
538727.103,4076997.499,-2672.317
538727.103,4076797.499,-2665.874
538727.103,4076597.499,-2656.851
538727.103,4076397.499,-2645.931
538727.103,4076197.499,-2606.269
538727.103,4075997.499,-2561.447
538727.103,4075797.499,-2536.122
538727.103,4075597.499,-2493.055
538727.103,4075397.499,-2425.260
538727.103,4075197.499,-2366.195
538727.103,4074997.499,-2273.194
538727.103,4074797.499,-2189.580
538727.103,4074597.499,-2044.852
538727.103,4074397.499,-1861.944
538727.103,4074197.499,-1840.351
538727.103,4073997.499,-1811.024
538727.103,4073797.499,-1730.264
538727.103,4073597.499,-1728.371
538727.103,4073397.499,-1817.617
538727.103,4073197.499,-1805.957
538727.103,4072997.499,-1742.817
538727.103,4072797.499,-1730.342
538727.103,4072597.499,-1771.987
538727.103,4072397.499,-1832.687
538727.103,4072197.499,-1865.275
538727.103,4071997.499,-1784.013
538727.103,4071797.499,-1722.688
538727.103,4071597.499,-1619.076
538727.103,4071397.499,-1526.231
538727.103,4071197.499,-1627.726
538727.103,4070997.499,-1710.036
538727.103,4070797.499,-1666.188
538727.103,4070597.499,-1576.757
538727.103,4070397.499,-1568.049
538727.103,4070197.499,-1622.994
538727.103,4069997.499,-1585.894
