476345.077,4276985.266,-394.935
476345.077,4276885.259,-398.463
476345.077,4276785.252,-402.837
476345.077,4276685.245,-408.025
476345.077,4276585.238,-414.204
476345.077,4276485.231,-421.790
476345.077,4276385.224,-430.962
476345.077,4276285.218,-441.819
476345.077,4276185.211,-453.856
476345.077,4276085.204,-467.574
476345.077,4275985.197,-480.170
476345.077,4275885.190,-486.447
476345.077,4275785.183,-485.443
476345.077,4275685.176,-479.133
476345.077,4275585.169,-468.325
476345.077,4275485.162,-457.934
476345.077,4275385.155,-452.779
476345.077,4275285.149,-451.550
476345.077,4275185.142,-455.169
476345.077,4275085.135,-458.224
476345.077,4274985.128,-461.199
476345.077,4274885.121,-463.816
476345.077,4274785.114,-466.300
476345.077,4274685.107,-468.815
476345.077,4274585.100,-472.079
476345.077,4274485.093,-474.545
476345.077,4274385.086,-476.697
476345.077,4274285.079,-478.524
476345.077,4274185.073,-480.400
476345.077,4274085.066,-482.983
476345.077,4273985.059,-485.764
476345.077,4273885.052,-487.898
476345.077,4273785.045,-488.990
476345.077,4273685.038,-491.675
476345.077,4273585.031,-493.649
476345.077,4273485.024,-496.681
476345.077,4273385.017,-498.741
476345.077,4273285.010,-502.622
476345.077,4273185.003,-506.772
476345.077,4273084.997,-509.802
476345.077,4272984.990,-513.994
476345.077,4272884.983,-516.339
476345.077,4272784.976,-520.082
476345.077,4272684.969,-521.811
476345.077,4272584.962,-525.317
476345.077,4272484.955,-527.326
476345.077,4272384.948,-529.765
476345.077,4272284.941,-532.490
476345.077,4272184.934,-534.769
476345.077,4272084.927,-537.270
476345.077,4271984.921,-539.345
476345.077,4271884.914,-541.493
476345.077,4271784.907,-544.148
476345.077,4271684.900,-546.904
476345.077,4271584.893,-548.966
476345.077,4271484.886,-551.734
476345.077,4271384.879,-553.522
476345.077,4271284.872,-555.473
476345.077,4271184.865,-557.892
476345.077,4271084.858,-559.092
476345.077,4270984.851,-561.366
476345.077,4270884.845,-563.127
476345.077,4270784.838,-563.935
476345.077,4270684.831,-568.199
476345.077,4270584.824,-571.551
476345.077,4270484.817,-573.939
476345.077,4270384.810,-575.958
476345.077,4270284.803,-577.769
476345.077,4270184.796,-579.787
476345.077,4270084.789,-581.760
476345.077,4269984.782,-584.065
476345.077,4269884.776,-586.305
476345.077,4269784.769,-588.570
476345.077,4269684.762,-590.890
476345.077,4269584.755,-592.741
476345.077,4269484.748,-594.653
476345.077,4269384.741,-596.916
476345.077,4269284.734,-599.214
476345.077,4269184.727,-600.912
476345.077,4269084.720,-602.547
476345.077,4268984.713,-604.468
476345.077,4268884.706,-606.091
476345.077,4268784.700,-607.436
476345.077,4268684.693,-608.784
476345.077,4268584.686,-610.026
476345.077,4268484.679,-611.571
476345.077,4268384.672,-613.225
476345.077,4268284.665,-614.709
476345.077,4268184.658,-615.910
476345.077,4268084.651,-616.781
476345.077,4267984.644,-617.786
476345.077,4267884.637,-618.876
476345.077,4267784.630,-620.126
476345.077,4267684.624,-621.584
476345.077,4267584.617,-622.704
476345.077,4267484.610,-623.200
476345.077,4267384.603,-623.559
476345.077,4267284.596,-624.085
476345.077,4267184.589,-624.665
476345.077,4267084.582,-624.849
476345.077,4266984.575,-624.315
476345.077,4266884.568,-623.706
476345.077,4266784.561,-622.971
476345.077,4266684.554,-622.532
476345.077,4266584.548,-621.974
476345.077,4266484.541,-620.975
476345.077,4266384.534,-619.428
476345.077,4266284.527,-618.486
476345.077,4266184.520,-618.508
476345.077,4266084.513,-618.236
476345.077,4265984.506,-617.486
476345.077,4265884.499,-616.600
476345.077,4265784.492,-616.253
476345.077,4265684.485,-616.717
476345.077,4265584.478,-616.789
476345.077,4265484.472,-617.023
476345.077,4265384.465,-617.537
476345.077,4265284.458,-617.982
476345.077,4265184.451,-617.898
476345.077,4265084.444,-618.540
476345.077,4264984.437,-619.731
476345.077,4264884.430,-620.670
476345.077,4264784.423,-621.531
476345.077,4264684.416,-622.275
476345.077,4264584.409,-621.234
476345.077,4264484.403,-619.234
476345.077,4264384.396,-618.102
476345.077,4264284.389,-618.376
476345.077,4264184.382,-618.695
476345.077,4264084.375,-618.128
476345.077,4263984.368,-616.336
476345.077,4263884.361,-614.348
476345.077,4263784.354,-612.983
476345.077,4263684.347,-612.345
476345.077,4263584.340,-611.807
476345.077,4263484.333,-611.209
476345.077,4263384.327,-609.659
476345.077,4263284.320,-607.234
476345.077,4263184.313,-605.429
476345.077,4263084.306,-606.669
476345.077,4262984.299,-609.789
476345.077,4262884.292,-611.936
476345.077,4262784.285,-614.326
476345.077,4262684.278,-615.691
476345.077,4262584.271,-617.092
476345.077,4262484.264,-619.091
476345.077,4262384.257,-622.417
476345.077,4262284.251,-625.433
476345.077,4262184.244,-626.372
476345.077,4262084.237,-628.445
476345.077,4261984.230,-629.985
476345.077,4261884.223,-630.317
476345.077,4261784.216,-633.988
476345.077,4261684.209,-637.659
476345.077,4261584.202,-639.887
476445.085,4282985.680,-130.508
476445.085,4282885.673,-130.719
476445.085,4282785.667,-131.177
476445.085,4282685.660,-131.363
476445.085,4282585.653,-131.439
476445.085,4282485.646,-131.418
476445.085,4282385.639,-131.394
476445.085,4282285.632,-131.141
476445.085,4282185.625,-131.764
476445.085,4282085.618,-131.000
476445.085,4281985.611,-131.038
476445.085,4281885.604,-130.868
476445.085,4281785.597,-130.764
476445.085,4281685.591,-130.596
476445.085,4281585.584,-130.675
476445.085,4281485.577,-130.688
476445.085,4281385.570,-130.698
476445.085,4281285.563,-130.945
476445.085,4281185.556,-131.723
476445.085,4281085.549,-133.355
476445.085,4280985.542,-135.607
476445.085,4280885.535,-138.049
476445.085,4280785.528,-141.022
476445.085,4280685.522,-150.992
476445.085,4280585.515,-168.172
476445.085,4280485.508,-184.910
476445.085,4280385.501,-196.929
476445.085,4280285.494,-206.045
476445.085,4280185.487,-213.206
476445.085,4280085.480,-219.002
476445.085,4279985.473,-224.564
476445.085,4279885.466,-230.042
476445.085,4279785.459,-235.436
476445.085,4279685.452,-240.952
476445.085,4279585.446,-246.833
476445.085,4279485.439,-252.955
476445.085,4279385.432,-259.538
476445.085,4279285.425,-266.910
476445.085,4279185.418,-274.275
476445.085,4279085.411,-280.853
476445.085,4278985.404,-287.081
476445.085,4278885.397,-293.361
476445.085,4278785.390,-299.737
476445.085,4278685.383,-306.225
476445.085,4278585.376,-312.498
476445.085,4278485.370,-318.490
476445.085,4278385.363,-324.415
476445.085,4278285.356,-330.322
476445.085,4278185.349,-336.271
476445.085,4278085.342,-342.149
476445.085,4277985.335,-347.493
476445.085,4277885.328,-352.549
476445.085,4277785.321,-357.915
476445.085,4277685.314,-363.811
476445.085,4277585.307,-369.463
476445.085,4277485.300,-374.591
476445.085,4277385.294,-379.604
476445.085,4277285.287,-384.592
476445.085,4277185.280,-389.430
476445.085,4277085.273,-393.159
476445.085,4276985.266,-396.617
476445.085,4276885.259,-400.207
476445.085,4276785.252,-403.912
476445.085,4276685.245,-408.087
476445.085,4276585.238,-412.760
476445.085,4276485.231,-418.658
476445.085,4276385.224,-425.302
476445.085,4276285.218,-433.051
476445.085,4276185.211,-444.375
476445.085,4276085.204,-458.323
476445.085,4275985.197,-472.746
476445.085,4275885.190,-484.237
476445.085,4275785.183,-489.251
476445.085,4275685.176,-486.540
476445.085,4275585.169,-481.170
476445.085,4275485.162,-474.444
476445.085,4275385.155,-465.402
476445.085,4275285.149,-461.565
476445.085,4275185.142,-459.736
476445.085,4275085.135,-460.297
476445.085,4274985.128,-462.956
476445.085,4274885.121,-465.456
476445.085,4274785.114,-468.400
476445.085,4274685.107,-471.453
476445.085,4274585.100,-474.007
476445.085,4274485.093,-476.800
476445.085,4274385.086,-479.099
476445.085,4274285.079,-479.939
476445.085,4274185.073,-481.818
476445.085,4274085.066,-485.049
476445.085,4273985.059,-487.085
476445.085,4273885.052,-489.547
476445.085,4273785.045,-491.164
476445.085,4273685.038,-493.434
476445.085,4273585.031,-497.226
476445.085,4273485.024,-499.370
476445.085,4273385.017,-502.138
476445.085,4273285.010,-505.066
476445.085,4273185.003,-508.261
476445.085,4273084.997,-511.131
476445.085,4272984.990,-514.673
476445.085,4272884.983,-517.043
476445.085,4272784.976,-520.291
476445.085,4272684.969,-523.342
476445.085,4272584.962,-525.977
476445.085,4272484.955,-528.229
476445.085,4272384.948,-530.859
476445.085,4272284.941,-533.289
476445.085,4272184.934,-536.054
476445.085,4272084.927,-538.414
476445.085,4271984.921,-541.040
476445.085,4271884.914,-542.970
476445.085,4271784.907,-545.692
476445.085,4271684.900,-547.578
476445.085,4271584.893,-549.666
476445.085,4271484.886,-552.438
476445.085,4271384.879,-554.383
476445.085,4271284.872,-556.177
476445.085,4271184.865,-558.109
476445.085,4271084.858,-560.587
476445.085,4270984.851,-563.725
476445.085,4270884.845,-564.951
476445.085,4270784.838,-566.217
476445.085,4270684.831,-569.775
476445.085,4270584.824,-572.973
476445.085,4270484.817,-575.008
476445.085,4270384.810,-576.589
476445.085,4270284.803,-578.542
476445.085,4270184.796,-581.133
476445.085,4270084.789,-583.303
476445.085,4269984.782,-585.708
476445.085,4269884.776,-587.867
476445.085,4269784.769,-589.912
476445.085,4269684.762,-592.018
476445.085,4269584.755,-594.116
476445.085,4269484.748,-596.153
476445.085,4269384.741,-598.223
476445.085,4269284.734,-600.330
476445.085,4269184.727,-602.258
476445.085,4269084.720,-603.956
476445.085,4268984.713,-605.681
476445.085,4268884.706,-607.299
476445.085,4268784.700,-608.958
476445.085,4268684.693,-609.970
476445.085,4268584.686,-610.621
476445.085,4268484.679,-612.135
476445.085,4268384.672,-614.382
476445.085,4268284.665,-616.303
476445.085,4268184.658,-617.281
476445.085,4268084.651,-618.026
476445.085,4267984.644,-618.933
476445.085,4267884.637,-619.640
476445.085,4267784.630,-620.851
476445.085,4267684.624,-622.630
476445.085,4267584.617,-623.740
476445.085,4267484.610,-624.248
476445.085,4267384.603,-624.847
476445.085,4267284.596,-625.989
476445.085,4267184.589,-627.129
476445.085,4267084.582,-627.489
476445.085,4266984.575,-627.459
476445.085,4266884.568,-627.448
476445.085,4266784.561,-626.885
476445.085,4266684.554,-625.669
476445.085,4266584.548,-624.906
476445.085,4266484.541,-623.818
476445.085,4266384.534,-622.265
476445.085,4266284.527,-621.347
476445.085,4266184.520,-620.860
476445.085,4266084.513,-620.409
476445.085,4265984.506,-619.240
476445.085,4265884.499,-618.259
476445.085,4265784.492,-618.220
476445.085,4265684.485,-618.509
476445.085,4265584.478,-618.667
476445.085,4265484.472,-619.082
476445.085,4265384.465,-619.700
476445.085,4265284.458,-620.337
476445.085,4265184.451,-620.466
476445.085,4265084.444,-621.033
476445.085,4264984.437,-621.857
476445.085,4264884.430,-621.973
476445.085,4264784.423,-621.590
476445.085,4264684.416,-620.990
476445.085,4264584.409,-620.713
476445.085,4264484.403,-619.731
476445.085,4264384.396,-618.546
476445.085,4264284.389,-617.631
476445.085,4264184.382,-616.882
476445.085,4264084.375,-616.939
476445.085,4263984.368,-615.805
476445.085,4263884.361,-613.609
476445.085,4263784.354,-610.355
476445.085,4263684.347,-608.991
476445.085,4263584.340,-609.279
476445.085,4263484.333,-609.057
476445.085,4263384.327,-608.632
476445.085,4263284.320,-609.292
476445.085,4263184.313,-610.644
476445.085,4263084.306,-614.091
476445.085,4262984.299,-619.668
476445.085,4262884.292,-625.286
476445.085,4262784.285,-629.481
476445.085,4262684.278,-632.868
476445.085,4262584.271,-635.958
476445.085,4262484.264,-637.339
476445.085,4262384.257,-637.091
476445.085,4262284.251,-636.843
476445.085,4262184.244,-639.212
476545.094,4283085.687,-130.306
476545.094,4282985.680,-130.512
476545.094,4282885.673,-130.972
476545.094,4282785.667,-131.637
476545.094,4282685.660,-132.007
476545.094,4282585.653,-132.364
476545.094,4282485.646,-132.624
476545.094,4282385.639,-132.883
476545.094,4282285.632,-132.606
476545.094,4282185.625,-131.936
476545.094,4282085.618,-131.311
476545.094,4281985.611,-131.101
476545.094,4281885.604,-131.235
476545.094,4281785.597,-131.236
476545.094,4281685.591,-131.444
476545.094,4281585.584,-131.558
476545.094,4281485.577,-131.646
476545.094,4281385.570,-131.732
476545.094,4281285.563,-131.925
476545.094,4281185.556,-132.566
476545.094,4281085.549,-134.390
476545.094,4280985.542,-136.849
476545.094,4280885.535,-139.336
476545.094,4280785.528,-142.576
476545.094,4280685.522,-153.401
476545.094,4280585.515,-170.738
476545.094,4280485.508,-187.086
476545.094,4280385.501,-198.685
476545.094,4280285.494,-206.683
476545.094,4280185.487,-212.829
476545.094,4280085.480,-218.423
476545.094,4279985.473,-223.722
476545.094,4279885.466,-229.036
476545.094,4279785.459,-234.444
476545.094,4279685.452,-240.188
476545.094,4279585.446,-246.176
476545.094,4279485.439,-252.739
476545.094,4279385.432,-259.688
476545.094,4279285.425,-266.545
476545.094,4279185.418,-273.158
476545.094,4279085.411,-279.761
476545.094,4278985.404,-286.315
476545.094,4278885.397,-293.076
476545.094,4278785.390,-300.071
476545.094,4278685.383,-306.668
476545.094,4278585.376,-312.917
476545.094,4278485.370,-319.027
476545.094,4278385.363,-325.146
476545.094,4278285.356,-331.482
476545.094,4278185.349,-337.577
476545.094,4278085.342,-343.155
476545.094,4277985.335,-348.315
476545.094,4277885.328,-353.442
476545.094,4277785.321,-359.002
476545.094,4277685.314,-364.693
476545.094,4277585.307,-370.329
476545.094,4277485.300,-375.872
476545.094,4277385.294,-378.549
476545.094,4277285.287,-386.267
476545.094,4277185.280,-391.553
476545.094,4277085.273,-395.640
476545.094,4276985.266,-399.260
476545.094,4276885.259,-402.762
476545.094,4276785.252,-406.002
476545.094,4276685.245,-409.425
476545.094,4276585.238,-413.225
476545.094,4276485.231,-417.900
476545.094,4276385.224,-422.887
476545.094,4276285.218,-428.690
476545.094,4276185.211,-436.638
476545.094,4276085.204,-447.340
476545.094,4275985.197,-460.628
476545.094,4275885.190,-474.108
476545.094,4275785.183,-484.761
476545.094,4275685.176,-492.066
476545.094,4275585.169,-493.229
476545.094,4275485.162,-491.061
476545.094,4275385.155,-484.491
476545.094,4275285.149,-475.799
476545.094,4275185.142,-468.098
476545.094,4275085.135,-465.118
476545.094,4274985.128,-465.893
476545.094,4274885.121,-468.423
476545.094,4274785.114,-470.971
476545.094,4274685.107,-474.030
476545.094,4274585.100,-477.099
476545.094,4274485.093,-478.832
476545.094,4274385.086,-480.872
476545.094,4274285.079,-482.341
476545.094,4274185.073,-484.499
476545.094,4274085.066,-486.410
476545.094,4273985.059,-489.142
476545.094,4273885.052,-492.558
476545.094,4273785.045,-494.737
476545.094,4273685.038,-496.708
476545.094,4273585.031,-499.691
476545.094,4273485.024,-501.610
476545.094,4273385.017,-504.158
476545.094,4273285.010,-504.412
476545.094,4273185.003,-508.764
476545.094,4273084.997,-511.806
476545.094,4272984.990,-514.839
476545.094,4272884.983,-517.902
476545.094,4272784.976,-520.815
476545.094,4272684.969,-524.150
476545.094,4272584.962,-526.584
476545.094,4272484.955,-528.866
476545.094,4272384.948,-531.912
476545.094,4272284.941,-534.186
476545.094,4272184.934,-536.996
476545.094,4272084.927,-539.022
476545.094,4271984.921,-541.546
476545.094,4271884.914,-544.183
476545.094,4271784.907,-546.201
476545.094,4271684.900,-546.281
476545.094,4271584.893,-549.843
476545.094,4271484.886,-553.153
476545.094,4271384.879,-555.453
476545.094,4271284.872,-557.929
476545.094,4271184.865,-560.011
476545.094,4271084.858,-562.147
476545.094,4270984.851,-564.581
476545.094,4270884.845,-566.597
476545.094,4270784.838,-568.643
476545.094,4270684.831,-571.309
476545.094,4270584.824,-574.110
476545.094,4270484.817,-576.214
476545.094,4270384.810,-578.484
476545.094,4270284.803,-580.613
476545.094,4270184.796,-582.861
476545.094,4270084.789,-585.245
476545.094,4269984.782,-587.594
476545.094,4269884.776,-589.738
476545.094,4269784.769,-591.581
476545.094,4269684.762,-593.482
476545.094,4269584.755,-595.646
476545.094,4269484.748,-597.840
476545.094,4269384.741,-599.522
476545.094,4269284.734,-600.859
476545.094,4269184.727,-602.966
476545.094,4269084.720,-605.297
476545.094,4268984.713,-606.918
476545.094,4268884.706,-608.597
476545.094,4268784.700,-610.246
476545.094,4268684.693,-611.071
476545.094,4268584.686,-611.534
476545.094,4268484.679,-612.879
476545.094,4268384.672,-614.682
476545.094,4268284.665,-616.059
476545.094,4268184.658,-617.468
476545.094,4268084.651,-619.072
476545.094,4267984.644,-620.612
476545.094,4267884.637,-621.286
476545.094,4267784.630,-621.521
476545.094,4267684.624,-622.624
476545.094,4267584.617,-624.193
476545.094,4267484.610,-625.552
476545.094,4267384.603,-626.428
476545.094,4267284.596,-627.908
476545.094,4267184.589,-629.330
476545.094,4267084.582,-629.347
476545.094,4266984.575,-628.866
476545.094,4266884.568,-628.960
476545.094,4266784.561,-629.275
476545.094,4266684.554,-627.729
476545.094,4266584.548,-625.602
476545.094,4266484.541,-624.494
476545.094,4266384.534,-624.018
476545.094,4266284.527,-623.513
476545.094,4266184.520,-622.156
476545.094,4266084.513,-621.724
476545.094,4265984.506,-621.514
476545.094,4265884.499,-620.736
476545.094,4265784.492,-620.993
476545.094,4265684.485,-620.934
476545.094,4265584.478,-619.701
476545.094,4265484.472,-621.234
476545.094,4265384.465,-622.786
476545.094,4265284.458,-623.377
476545.094,4265184.451,-622.970
476545.094,4265084.444,-622.078
476545.094,4264984.437,-619.856
476545.094,4264884.430,-618.996
476545.094,4264784.423,-619.131
476545.094,4264684.416,-619.406
476545.094,4264584.409,-619.222
476545.094,4264484.403,-617.693
476545.094,4264384.396,-616.622
476545.094,4264284.389,-616.693
476545.094,4264184.382,-616.165
476545.094,4264084.375,-614.891
476545.094,4263984.368,-613.414
476545.094,4263884.361,-610.784
476545.094,4263784.354,-607.632
476545.094,4263684.347,-606.946
476545.094,4263584.340,-607.690
476545.094,4263484.333,-609.128
476545.094,4263384.327,-609.525
476545.094,4263284.320,-611.704
476545.094,4263184.313,-614.670
476545.094,4263084.306,-617.988
476545.094,4262984.299,-623.474
476545.094,4262884.292,-629.079
476545.094,4262784.285,-634.710
476545.094,4262684.278,-638.594
476545.094,4262584.271,-640.020
476645.102,4283085.687,-130.419
476645.102,4282985.680,-131.033
476645.102,4282885.673,-131.699
476645.102,4282785.667,-132.477
476645.102,4282685.660,-133.298
476645.102,4282585.653,-133.950
476645.102,4282485.646,-134.503
476645.102,4282385.639,-134.724
476645.102,4282285.632,-134.364
476645.102,4282185.625,-133.511
476645.102,4282085.618,-132.727
476645.102,4281985.611,-132.490
476645.102,4281885.604,-132.421
476645.102,4281785.597,-132.494
476645.102,4281685.591,-132.616
476645.102,4281585.584,-132.870
476645.102,4281485.577,-133.213
476645.102,4281385.570,-133.567
476645.102,4281285.563,-133.642
476645.102,4281185.556,-134.017
476645.102,4281085.549,-135.898
476645.102,4280985.542,-138.470
476645.102,4280885.535,-141.047
476645.102,4280785.528,-145.224
476645.102,4280685.522,-157.129
476645.102,4280585.515,-174.030
476645.102,4280485.508,-188.961
476645.102,4280385.501,-199.637
476645.102,4280285.494,-207.047
476645.102,4280185.487,-212.831
476645.102,4280085.480,-218.478
476645.102,4279985.473,-223.966
476645.102,4279885.466,-229.145
476645.102,4279785.459,-234.482
476645.102,4279685.452,-240.207
476645.102,4279585.446,-246.646
476645.102,4279485.439,-253.446
476645.102,4279385.432,-260.074
476645.102,4279285.425,-266.389
476645.102,4279185.418,-272.793
476645.102,4279085.411,-279.549
476645.102,4278985.404,-286.640
476645.102,4278885.397,-293.688
476645.102,4278785.390,-300.435
476645.102,4278685.383,-306.977
476645.102,4278585.376,-313.613
476645.102,4278485.370,-320.150
476645.102,4278385.363,-326.541
476645.102,4278285.356,-332.830
476645.102,4278185.349,-338.736
476645.102,4278085.342,-344.273
476645.102,4277985.335,-349.673
476645.102,4277885.328,-354.819
476645.102,4277785.321,-359.980
476645.102,4277685.314,-365.733
476645.102,4277585.307,-371.564
476645.102,4277485.300,-376.991
476645.102,4277385.294,-382.036
476645.102,4277285.287,-387.941
476645.102,4277185.280,-393.138
476645.102,4277085.273,-397.739
476645.102,4276985.266,-401.754
476645.102,4276885.259,-405.478
476645.102,4276785.252,-408.575
476645.102,4276685.245,-411.328
476645.102,4276585.238,-414.616
476645.102,4276485.231,-418.279
476645.102,4276385.224,-422.021
476645.102,4276285.218,-426.518
476645.102,4276185.211,-431.839
476645.102,4276085.204,-438.785
476645.102,4275985.197,-447.654
476645.102,4275885.190,-457.390
476645.102,4275785.183,-470.351
476645.102,4275685.176,-486.806
476645.102,4275585.169,-497.708
476645.102,4275485.162,-501.627
476645.102,4275385.155,-498.596
476645.102,4275285.149,-492.149
476645.102,4275185.142,-484.652
476645.102,4275085.135,-478.566
476645.102,4274985.128,-475.108
476645.102,4274885.121,-473.668
476645.102,4274785.114,-473.534
476645.102,4274685.107,-476.637
476645.102,4274585.100,-480.291
476645.102,4274485.093,-481.009
476645.102,4274385.086,-483.212
476645.102,4274285.079,-484.868
476645.102,4274185.073,-485.194
476645.102,4274085.066,-489.497
476645.102,4273985.059,-492.302
476645.102,4273885.052,-495.371
476645.102,4273785.045,-497.479
476645.102,4273685.038,-499.612
476645.102,4273585.031,-501.703
476645.102,4273485.024,-503.505
476645.102,4273385.017,-505.466
476645.102,4273285.010,-506.824
476645.102,4273185.003,-509.843
476645.102,4273084.997,-512.146
476645.102,4272984.990,-515.533
476645.102,4272884.983,-518.871
476645.102,4272784.976,-521.339
476645.102,4272684.969,-525.079
476645.102,4272584.962,-527.440
476645.102,4272484.955,-530.117
476645.102,4272384.948,-532.856
476645.102,4272284.941,-534.843
476645.102,4272184.934,-537.783
476645.102,4272084.927,-540.261
476645.102,4271984.921,-542.344
476645.102,4271884.914,-544.970
476645.102,4271784.907,-546.774
476645.102,4271684.900,-548.268
476645.102,4271584.893,-551.988
476645.102,4271484.886,-554.884
476645.102,4271384.879,-556.934
476645.102,4271284.872,-559.190
476645.102,4271184.865,-561.512
476645.102,4271084.858,-563.640
476645.102,4270984.851,-565.884
476645.102,4270884.845,-568.207
476645.102,4270784.838,-570.810
476645.102,4270684.831,-573.230
476645.102,4270584.824,-575.446
476645.102,4270484.817,-577.841
476645.102,4270384.810,-580.142
476645.102,4270284.803,-582.376
476645.102,4270184.796,-584.342
476645.102,4270084.789,-586.622
476645.102,4269984.782,-588.904
476645.102,4269884.776,-591.247
476645.102,4269784.769,-593.013
476645.102,4269684.762,-594.743
476645.102,4269584.755,-596.772
476645.102,4269484.748,-598.816
476645.102,4269384.741,-600.379
476645.102,4269284.734,-601.709
476645.102,4269184.727,-603.351
476645.102,4269084.720,-605.585
476645.102,4268984.713,-607.388
476645.102,4268884.706,-608.731
476645.102,4268784.700,-609.645
476645.102,4268684.693,-611.204
476645.102,4268584.686,-611.573
476645.102,4268484.679,-614.244
476645.102,4268384.672,-615.749
476645.102,4268284.665,-616.525
476645.102,4268184.658,-618.460
476645.102,4268084.651,-620.765
476645.102,4267984.644,-621.357
476645.102,4267884.637,-622.930
476645.102,4267784.630,-620.725
476645.102,4267684.624,-623.842
476645.102,4267584.617,-625.116
476645.102,4267484.610,-626.679
476645.102,4267384.603,-628.326
476645.102,4267284.596,-630.430
476645.102,4267184.589,-630.663
476645.102,4267084.582,-629.326
476645.102,4266984.575,-629.796
476645.102,4266884.568,-630.814
476645.102,4266784.561,-631.653
476645.102,4266684.554,-629.934
476645.102,4266584.548,-627.130
476645.102,4266484.541,-626.370
476645.102,4266384.534,-625.237
476645.102,4266284.527,-624.595
476645.102,4266184.520,-624.472
476645.102,4266084.513,-624.610
476645.102,4265984.506,-624.235
476645.102,4265884.499,-623.847
476645.102,4265784.492,-623.217
476645.102,4265684.485,-623.969
476645.102,4265584.478,-623.107
476645.102,4265484.472,-623.386
476645.102,4265384.465,-625.269
476645.102,4265284.458,-626.038
476645.102,4265184.451,-625.475
476645.102,4265084.444,-623.123
476645.102,4264984.437,-620.048
476645.102,4264884.430,-616.737
476645.102,4264784.423,-617.070
476645.102,4264684.416,-617.654
476645.102,4264584.409,-617.487
476645.102,4264484.403,-616.254
476645.102,4264384.396,-617.466
476645.102,4264284.389,-617.983
476645.102,4264184.382,-618.087
476645.102,4264084.375,-617.855
476645.102,4263984.368,-614.477
476645.102,4263884.361,-610.678
476645.102,4263784.354,-608.541
476645.102,4263684.347,-606.773
476645.102,4263584.340,-605.962
476645.102,4263484.333,-607.389
476645.102,4263384.327,-609.580
476645.102,4263284.320,-613.541
476645.102,4263184.313,-618.219
476645.102,4263084.306,-622.765
476645.102,4262984.299,-627.935
476645.102,4262884.292,-634.018
476645.102,4262784.285,-640.114
476645.102,4262684.278,-642.650
476745.110,4283285.701,-130.295
476745.110,4283185.694,-130.212
476745.110,4283085.687,-130.531
476745.110,4282985.680,-131.383
476745.110,4282885.673,-132.497
476745.110,4282785.667,-133.711
476745.110,4282685.660,-135.524
476745.110,4282585.653,-137.641
476745.110,4282485.646,-139.497
476745.110,4282385.639,-139.983
476745.110,4282285.632,-138.892
476745.110,4282185.625,-137.030
476745.110,4282085.618,-135.463
476745.110,4281985.611,-134.783
476745.110,4281885.604,-134.411
476745.110,4281785.597,-134.470
476745.110,4281685.591,-135.022
476745.110,4281585.584,-136.098
476745.110,4281485.577,-137.394
476745.110,4281385.570,-137.547
476745.110,4281285.563,-136.753
476745.110,4281185.556,-136.521
476745.110,4281085.549,-137.834
476745.110,4280985.542,-140.318
476745.110,4280885.535,-143.251
476745.110,4280785.528,-149.887
476745.110,4280685.522,-163.253
476745.110,4280585.515,-179.224
476745.110,4280485.508,-192.198
476745.110,4280385.501,-201.268
476745.110,4280285.494,-207.708
476745.110,4280185.487,-213.076
476745.110,4280085.480,-218.300
476745.110,4279985.473,-223.685
476745.110,4279885.466,-229.085
476745.110,4279785.459,-234.686
476745.110,4279685.452,-240.480
476745.110,4279585.446,-246.478
476745.110,4279485.439,-253.056
476745.110,4279385.432,-259.789
476745.110,4279285.425,-266.389
476745.110,4279185.418,-272.822
476745.110,4279085.411,-279.696
476745.110,4278985.404,-286.757
476745.110,4278885.397,-293.759
476745.110,4278785.390,-300.634
476745.110,4278685.383,-307.417
476745.110,4278585.376,-314.322
476745.110,4278485.370,-321.142
476745.110,4278385.363,-327.687
476745.110,4278285.356,-333.913
476745.110,4278185.349,-339.790
476745.110,4278085.342,-345.368
476745.110,4277985.335,-350.896
476745.110,4277885.328,-356.378
476745.110,4277785.321,-361.685
476745.110,4277685.314,-367.050
476745.110,4277585.307,-372.591
476745.110,4277485.300,-378.194
476745.110,4277385.294,-383.759
476745.110,4277285.287,-389.292
476745.110,4277185.280,-394.623
476745.110,4277085.273,-399.299
476745.110,4276985.266,-403.239
476745.110,4276885.259,-406.932
476745.110,4276785.252,-410.318
476745.110,4276685.245,-412.947
476745.110,4276585.238,-415.420
476745.110,4276485.231,-418.359
476745.110,4276385.224,-422.404
476745.110,4276285.218,-426.949
476745.110,4276185.211,-431.023
476745.110,4276085.204,-435.078
476745.110,4275985.197,-441.424
476745.110,4275885.190,-449.406
476745.110,4275785.183,-460.396
476745.110,4275685.176,-474.898
476745.110,4275585.169,-489.174
476745.110,4275485.162,-501.055
476745.110,4275385.155,-506.649
476745.110,4275285.149,-505.864
476745.110,4275185.142,-501.656
476745.110,4275085.135,-495.523
476745.110,4274985.128,-488.772
476745.110,4274885.121,-482.975
476745.110,4274785.114,-479.653
476745.110,4274685.107,-481.475
476745.110,4274585.100,-485.195
476745.110,4274485.093,-486.624
476745.110,4274385.086,-489.441
476745.110,4274285.079,-489.767
476745.110,4274185.073,-490.579
476745.110,4274085.066,-493.758
476745.110,4273985.059,-495.396
476745.110,4273885.052,-497.479
476745.110,4273785.045,-499.787
476745.110,4273685.038,-501.785
476745.110,4273585.031,-503.606
476745.110,4273485.024,-505.615
476745.110,4273385.017,-507.022
476745.110,4273285.010,-509.516
476745.110,4273185.003,-511.285
476745.110,4273084.997,-513.881
476745.110,4272984.990,-515.922
476745.110,4272884.983,-519.844
476745.110,4272784.976,-523.321
476745.110,4272684.969,-525.793
476745.110,4272584.962,-528.556
476745.110,4272484.955,-531.327
476745.110,4272384.948,-533.928
476745.110,4272284.941,-535.169
476745.110,4272184.934,-538.979
476745.110,4272084.927,-541.500
476745.110,4271984.921,-544.481
476745.110,4271884.914,-547.234
476745.110,4271784.907,-549.938
476745.110,4271684.900,-552.208
476745.110,4271584.893,-554.632
476745.110,4271484.886,-557.047
476745.110,4271384.879,-559.157
476745.110,4271284.872,-561.049
476745.110,4271184.865,-563.053
476745.110,4271084.858,-565.123
476745.110,4270984.851,-567.619
476745.110,4270884.845,-570.307
476745.110,4270784.838,-572.552
476745.110,4270684.831,-575.226
476745.110,4270584.824,-577.258
476745.110,4270484.817,-579.240
476745.110,4270384.810,-581.629
476745.110,4270284.803,-584.033
476745.110,4270184.796,-585.870
476745.110,4270084.789,-588.540
476745.110,4269984.782,-590.458
476745.110,4269884.776,-592.611
476745.110,4269784.769,-594.563
476745.110,4269684.762,-595.924
476745.110,4269584.755,-597.900
476745.110,4269484.748,-599.621
476745.110,4269384.741,-600.709
476745.110,4269284.734,-602.431
476745.110,4269184.727,-604.283
476745.110,4269084.720,-606.549
476745.110,4268984.713,-608.783
476745.110,4268884.706,-610.661
476745.110,4268784.700,-611.457
476745.110,4268684.693,-611.337
476745.110,4268584.686,-613.482
476745.110,4268484.679,-615.608
476745.110,4268384.672,-617.774
476745.110,4268284.665,-618.245
476745.110,4268184.658,-619.451
476745.110,4268084.651,-620.783
476745.110,4267984.644,-623.029
476745.110,4267884.637,-624.573
476745.110,4267784.630,-604.216
476745.110,4267684.624,-625.872
476745.110,4267584.617,-625.155
476745.110,4267484.610,-628.099
476745.110,4267384.603,-627.448
476745.110,4267284.596,-631.623
476745.110,4267184.589,-631.738
476745.110,4267084.582,-631.989
476745.110,4266984.575,-631.748
476745.110,4266884.568,-631.142
476745.110,4266784.561,-633.747
476745.110,4266684.554,-632.733
476745.110,4266584.548,-630.574
476745.110,4266484.541,-630.065
476745.110,4266384.534,-630.124
476745.110,4266284.527,-629.098
476745.110,4266184.520,-628.214
476745.110,4266084.513,-627.411
476745.110,4265984.506,-626.834
476745.110,4265884.499,-626.958
476745.110,4265784.492,-626.787
476745.110,4265684.485,-627.005
476745.110,4265584.478,-626.514
476745.110,4265484.472,-625.629
476745.110,4265384.465,-627.752
476745.110,4265284.458,-627.961
476745.110,4265184.451,-627.573
476745.110,4265084.444,-625.964
476745.110,4264984.437,-623.957
476745.110,4264884.430,-615.485
476745.110,4264784.423,-616.386
476745.110,4264684.416,-618.329
476745.110,4264584.409,-618.984
476745.110,4264484.403,-620.081
476745.110,4264384.396,-626.187
476745.110,4264284.389,-629.843
476745.110,4264184.382,-628.112
476745.110,4264084.375,-625.765
476745.110,4263984.368,-619.349
476745.110,4263884.361,-614.964
476745.110,4263784.354,-613.012
476745.110,4263684.347,-612.046
476745.110,4263584.340,-611.552
476745.110,4263484.333,-612.350
476745.110,4263384.327,-614.148
476745.110,4263284.320,-618.777
476745.110,4263184.313,-624.208
476745.110,4263084.306,-629.468
476745.110,4262984.299,-634.859
476745.110,4262884.292,-640.334
476745.110,4262784.285,-643.768
476845.118,4283285.701,-130.378
476845.118,4283185.694,-130.536
476845.118,4283085.687,-131.378
476845.118,4282985.680,-132.529
476845.118,4282885.673,-134.146
476845.118,4282785.667,-136.769
476845.118,4282685.660,-141.727
476845.118,4282585.653,-148.560
476845.118,4282485.646,-154.134
476845.118,4282385.639,-155.809
476845.118,4282285.632,-152.476
476845.118,4282185.625,-146.704
476845.118,4282085.618,-142.050
476845.118,4281985.611,-139.319
476845.118,4281885.604,-138.216
476845.118,4281785.597,-137.992
476845.118,4281685.591,-138.899
476845.118,4281585.584,-143.689
476845.118,4281485.577,-150.066
476845.118,4281385.570,-150.122
476845.118,4281285.563,-145.436
476845.118,4281185.556,-142.144
476845.118,4281085.549,-141.870
476845.118,4280985.542,-143.709
476845.118,4280885.535,-147.423
476845.118,4280785.528,-157.133
476845.118,4280685.522,-171.493
476845.118,4280585.515,-184.816
476845.118,4280485.508,-195.147
476845.118,4280385.501,-202.707
476845.118,4280285.494,-208.428
476845.118,4280185.487,-213.743
476845.118,4280085.480,-219.357
476845.118,4279985.473,-224.640
476845.118,4279885.466,-229.752
476845.118,4279785.459,-235.245
476845.118,4279685.452,-241.255
476845.118,4279585.446,-247.604
476845.118,4279485.439,-254.136
476845.118,4279385.432,-260.542
476845.118,4279285.425,-266.740
476845.118,4279185.418,-273.317
476845.118,4279085.411,-280.134
476845.118,4278985.404,-286.864
476845.118,4278885.397,-293.753
476845.118,4278785.390,-300.809
476845.118,4278685.383,-308.030
476845.118,4278585.376,-315.326
476845.118,4278485.370,-322.246
476845.118,4278385.363,-328.591
476845.118,4278285.356,-334.433
476845.118,4278185.349,-340.250
476845.118,4278085.342,-346.299
476845.118,4277985.335,-352.167
476845.118,4277885.328,-357.832
476845.118,4277785.321,-363.467
476845.118,4277685.314,-369.011
476845.118,4277585.307,-374.543
476845.118,4277485.300,-380.139
476845.118,4277385.294,-385.735
476845.118,4277285.287,-391.024
476845.118,4277185.280,-395.811
476845.118,4277085.273,-400.163
476845.118,4276985.266,-404.264
476845.118,4276885.259,-408.261
476845.118,4276785.252,-411.683
476845.118,4276685.245,-414.513
476845.118,4276585.238,-417.235
476845.118,4276485.231,-420.197
476845.118,4276385.224,-424.050
476845.118,4276285.218,-428.003
476845.118,4276185.211,-431.339
476845.118,4276085.204,-435.232
476845.118,4275985.197,-439.884
476845.118,4275885.190,-445.361
476845.118,4275785.183,-453.098
476845.118,4275685.176,-463.613
476845.118,4275585.169,-476.322
476845.118,4275485.162,-489.609
476845.118,4275385.155,-500.614
476845.118,4275285.149,-508.168
476845.118,4275185.142,-510.584
476845.118,4275085.135,-507.954
476845.118,4274985.128,-502.335
476845.118,4274885.121,-495.005
476845.118,4274785.114,-491.943
476845.118,4274685.107,-492.536
476845.118,4274585.100,-496.063
476845.118,4274485.093,-497.491
476845.118,4274385.086,-501.290
476845.118,4274285.079,-501.565
476845.118,4274185.073,-499.238
476845.118,4274085.066,-498.745
476845.118,4273985.059,-499.702
476845.118,4273885.052,-500.598
476845.118,4273785.045,-502.515
476845.118,4273685.038,-503.821
476845.118,4273585.031,-505.001
476845.118,4273485.024,-507.363
476845.118,4273385.017,-508.549
476845.118,4273285.010,-512.090
476845.118,4273185.003,-513.102
476845.118,4273084.997,-515.608
476845.118,4272984.990,-518.216
476845.118,4272884.983,-520.622
476845.118,4272784.976,-524.250
476845.118,4272684.969,-526.323
476845.118,4272584.962,-528.521
476845.118,4272484.955,-531.493
476845.118,4272384.948,-534.559
476845.118,4272284.941,-538.076
476845.118,4272184.934,-540.987
476845.118,4272084.927,-543.692
476845.118,4271984.921,-546.586
476845.118,4271884.914,-549.753
476845.118,4271784.907,-551.517
476845.118,4271684.900,-554.257
476845.118,4271584.893,-556.900
476845.118,4271484.886,-558.895
476845.118,4271384.879,-561.007
476845.118,4271284.872,-562.656
476845.118,4271184.865,-564.281
476845.118,4271084.858,-566.732
476845.118,4270984.851,-568.752
476845.118,4270884.845,-571.441
476845.118,4270784.838,-573.962
476845.118,4270684.831,-576.477
476845.118,4270584.824,-578.876
476845.118,4270484.817,-581.135
476845.118,4270384.810,-583.372
476845.118,4270284.803,-585.827
476845.118,4270184.796,-588.218
476845.118,4270084.789,-590.451
476845.118,4269984.782,-592.578
476845.118,4269884.776,-594.385
476845.118,4269784.769,-595.462
476845.118,4269684.762,-596.546
476845.118,4269584.755,-599.280
476845.118,4269484.748,-601.195
476845.118,4269384.741,-603.039
476845.118,4269284.734,-604.628
476845.118,4269184.727,-605.869
476845.118,4269084.720,-608.037
476845.118,4268984.713,-610.179
476845.118,4268884.706,-612.037
476845.118,4268784.700,-613.269
476845.118,4268684.693,-616.857
476845.118,4268584.686,-615.391
476845.118,4268484.679,-616.973
476845.118,4268384.672,-619.800
476845.118,4268284.665,-619.966
476845.118,4268184.658,-620.443
476845.118,4268084.651,-620.800
476845.118,4267984.644,-624.701
476845.118,4267884.637,-626.217
476845.118,4267784.630,-616.568
476845.118,4267684.624,-627.902
476845.118,4267584.617,-628.056
476845.118,4267484.610,-629.519
476845.118,4267384.603,-630.831
476845.118,4267284.596,-632.817
476845.118,4267184.589,-633.504
476845.118,4267084.582,-634.651
476845.118,4266984.575,-634.795
476845.118,4266884.568,-634.769
476845.118,4266784.561,-635.842
476845.118,4266684.554,-635.816
476845.118,4266584.548,-635.434
476845.118,4266484.541,-635.102
476845.118,4266384.534,-635.291
476845.118,4266284.527,-634.961
476845.118,4266184.520,-632.705
476845.118,4266084.513,-630.928
476845.118,4265984.506,-630.126
476845.118,4265884.499,-629.898
476845.118,4265784.492,-630.016
476845.118,4265684.485,-630.546
476845.118,4265584.478,-630.175
476845.118,4265484.472,-630.510
476845.118,4265384.465,-630.236
476845.118,4265284.458,-629.885
476845.118,4265184.451,-629.671
476845.118,4265084.444,-628.805
476845.118,4264984.437,-627.866
476845.118,4264884.430,-625.852
476845.118,4264784.423,-624.853
476845.118,4264684.416,-623.633
476845.118,4264584.409,-623.735
476845.118,4264484.403,-627.292
476845.118,4264384.396,-633.918
476845.118,4264284.389,-639.241
476845.118,4264184.382,-638.137
476845.118,4264084.375,-631.439
476845.118,4263984.368,-625.831
476845.118,4263884.361,-620.555
476845.118,4263784.354,-618.081
476845.118,4263684.347,-618.690
476845.118,4263584.340,-618.958
476845.118,4263484.333,-619.568
476845.118,4263384.327,-623.220
476845.118,4263284.320,-628.523
476845.118,4263184.313,-633.656
476845.118,4263084.306,-637.797
476845.118,4262984.299,-641.284
476845.118,4262884.292,-643.556
476945.126,4283285.701,-130.341
476945.126,4283185.694,-130.860
476945.126,4283085.687,-132.145
476945.126,4282985.680,-134.001
476945.126,4282885.673,-136.474
476945.126,4282785.667,-142.470
476945.126,4282685.660,-153.072
476945.126,4282585.653,-164.135
476945.126,4282485.646,-171.490
476945.126,4282385.639,-173.814
476945.126,4282285.632,-170.083
476945.126,4282185.625,-162.568
476945.126,4282085.618,-155.429
476945.126,4281985.611,-150.352
476945.126,4281885.604,-148.209
476945.126,4281785.597,-147.710
476945.126,4281685.591,-148.874
476945.126,4281585.584,-156.060
476945.126,4281485.577,-165.422
476945.126,4281385.570,-166.160
476945.126,4281285.563,-158.781
476945.126,4281185.556,-151.643
476945.126,4281085.549,-148.743
476945.126,4280985.542,-149.956
476945.126,4280885.535,-155.179
476945.126,4280785.528,-166.927
476945.126,4280685.522,-180.570
476945.126,4280585.515,-191.038
476945.126,4280485.508,-198.427
476945.126,4280385.501,-204.228
476945.126,4280285.494,-209.230
476945.126,4280185.487,-214.625
476945.126,4280085.480,-220.157
476945.126,4279985.473,-225.334
476945.126,4279885.466,-230.497
476945.126,4279785.459,-235.894
476945.126,4279685.452,-242.118
476945.126,4279585.446,-248.604
476945.126,4279485.439,-255.108
476945.126,4279385.432,-261.498
476945.126,4279285.425,-267.738
476945.126,4279185.418,-274.037
476945.126,4279085.411,-280.627
476945.126,4278985.404,-287.547
476945.126,4278885.397,-294.676
476945.126,4278785.390,-302.021
476945.126,4278685.383,-309.503
476945.126,4278585.376,-316.669
476945.126,4278485.370,-323.378
476945.126,4278385.363,-329.869
476945.126,4278285.356,-335.433
476945.126,4278185.349,-341.220
476945.126,4278085.342,-347.840
476945.126,4277985.335,-353.535
476945.126,4277885.328,-359.348
476945.126,4277785.321,-365.121
476945.126,4277685.314,-370.991
476945.126,4277585.307,-376.755
476945.126,4277485.300,-382.410
476945.126,4277385.294,-387.959
476945.126,4277285.287,-392.861
476945.126,4277185.280,-397.227
476945.126,4277085.273,-401.379
476945.126,4276985.266,-405.596
476945.126,4276885.259,-409.460
476945.126,4276785.252,-412.884
476945.126,4276685.245,-415.888
476945.126,4276585.238,-418.626
476945.126,4276485.231,-421.761
476945.126,4276385.224,-425.346
476945.126,4276285.218,-428.985
476945.126,4276185.211,-431.820
476945.126,4276085.204,-435.638
476945.126,4275985.197,-439.613
476945.126,4275885.190,-443.948
476945.126,4275785.183,-449.419
476945.126,4275685.176,-456.452
476945.126,4275585.169,-465.447
476945.126,4275485.162,-476.371
476945.126,4275385.155,-486.841
476945.126,4275285.149,-496.697
476945.126,4275185.142,-504.900
476945.126,4275085.135,-509.912
476945.126,4274985.128,-509.918
476945.126,4274885.121,-510.733
476945.126,4274785.114,-510.084
476945.126,4274685.107,-512.687
476945.126,4274585.100,-515.212
476945.126,4274485.093,-518.384
476945.126,4274385.086,-520.920
476945.126,4274285.079,-519.234
476945.126,4274185.073,-515.985
476945.126,4274085.066,-511.595
476945.126,4273985.059,-508.873
476945.126,4273885.052,-506.849
476945.126,4273785.045,-505.807
476945.126,4273685.038,-506.170
476945.126,4273585.031,-507.701
476945.126,4273485.024,-508.681
476945.126,4273385.017,-511.172
476945.126,4273285.010,-514.177
476945.126,4273185.003,-515.889
476945.126,4273084.997,-518.608
476945.126,4272984.990,-519.673
476945.126,4272884.983,-521.494
476945.126,4272784.976,-525.107
476945.126,4272684.969,-528.485
476945.126,4272584.962,-528.914
476945.126,4272484.955,-532.205
476945.126,4272384.948,-536.533
476945.126,4272284.941,-539.188
476945.126,4272184.934,-542.498
476945.126,4272084.927,-545.315
476945.126,4271984.921,-548.043
476945.126,4271884.914,-550.884
476945.126,4271784.907,-553.440
476945.126,4271684.900,-556.219
476945.126,4271584.893,-558.637
476945.126,4271484.886,-560.715
476945.126,4271384.879,-562.934
476945.126,4271284.872,-564.694
476945.126,4271184.865,-566.421
476945.126,4271084.858,-568.593
476945.126,4270984.851,-570.404
476945.126,4270884.845,-572.829
476945.126,4270784.838,-574.097
476945.126,4270684.831,-576.474
476945.126,4270584.824,-580.326
476945.126,4270484.817,-582.398
476945.126,4270384.810,-583.977
476945.126,4270284.803,-586.873
476945.126,4270184.796,-588.936
476945.126,4270084.789,-591.215
476945.126,4269984.782,-593.106
476945.126,4269884.776,-594.119
476945.126,4269784.769,-596.801
476945.126,4269684.762,-597.108
476945.126,4269584.755,-600.661
476945.126,4269484.748,-604.337
476945.126,4269384.741,-604.819
476945.126,4269284.734,-606.824
476945.126,4269184.727,-608.489
476945.126,4269084.720,-609.526
476945.126,4268984.713,-611.575
476945.126,4268884.706,-613.415
476945.126,4268784.700,-615.081
476945.126,4268684.693,-616.650
476945.126,4268584.686,-617.300
476945.126,4268484.679,-618.338
476945.126,4268384.672,-620.087
476945.126,4268284.665,-621.398
476945.126,4268184.658,-622.740
476945.126,4268084.651,-624.273
476945.126,4267984.644,-626.374
476945.126,4267884.637,-627.861
476945.126,4267784.630,-628.921
476945.126,4267684.624,-629.515
476945.126,4267584.617,-630.678
476945.126,4267484.610,-631.951
476945.126,4267384.603,-633.281
476945.126,4267284.596,-634.594
476945.126,4267184.589,-635.676
476945.126,4267084.582,-636.742
476945.126,4266984.575,-636.830
476945.126,4266884.568,-636.589
476945.126,4266784.561,-637.070
476945.126,4266684.554,-637.704
476945.126,4266584.548,-638.035
476945.126,4266484.541,-637.872
476945.126,4266384.534,-638.220
476945.126,4266284.527,-637.346
476945.126,4266184.520,-635.627
476945.126,4266084.513,-634.174
476945.126,4265984.506,-633.216
476945.126,4265884.499,-632.493
476945.126,4265784.492,-632.402
476945.126,4265684.485,-632.682
476945.126,4265584.478,-632.139
476945.126,4265484.472,-631.723
476945.126,4265384.465,-632.032
476945.126,4265284.458,-632.401
476945.126,4265184.451,-632.382
476945.126,4265084.444,-631.538
476945.126,4264984.437,-630.560
476945.126,4264884.430,-629.836
476945.126,4264784.423,-629.298
476945.126,4264684.416,-628.817
476945.126,4264584.409,-628.158
476945.126,4264484.403,-628.337
476945.126,4264384.396,-630.251
476945.126,4264284.389,-632.095
476945.126,4264184.382,-630.817
476945.126,4264084.375,-628.058
476945.126,4263984.368,-626.565
476945.126,4263884.361,-625.374
476945.126,4263784.354,-624.843
476945.126,4263684.347,-625.008
476945.126,4263584.340,-625.738
476945.126,4263484.333,-627.965
476945.126,4263384.327,-632.337
476945.126,4263284.320,-637.040
476945.126,4263184.313,-640.727
476945.126,4263084.306,-642.771
477045.134,4283385.708,-130.311
477045.134,4283285.701,-130.515
477045.134,4283185.694,-131.454
477045.134,4283085.687,-133.264
477045.134,4282985.680,-135.678
477045.134,4282885.673,-139.374
477045.134,4282785.667,-147.878
477045.134,4282685.660,-160.521
477045.134,4282585.653,-172.382
477045.134,4282485.646,-180.843
477045.134,4282385.639,-185.319
477045.134,4282285.632,-182.520
477045.134,4282185.625,-177.441
477045.134,4282085.618,-172.558
477045.134,4281985.611,-166.197
477045.134,4281885.604,-163.402
477045.134,4281785.597,-164.652
477045.134,4281685.591,-165.191
477045.134,4281585.584,-169.337
477045.134,4281485.577,-178.538
477045.134,4281385.570,-179.892
477045.134,4281285.563,-171.486
477045.134,4281185.556,-163.054
477045.134,4281085.549,-160.239
477045.134,4280985.542,-163.216
477045.134,4280885.535,-170.296
477045.134,4280785.528,-179.084
477045.134,4280685.522,-187.410
477045.134,4280585.515,-194.399
477045.134,4280485.508,-200.109
477045.134,4280385.501,-205.213
477045.134,4280285.494,-210.086
477045.134,4280185.487,-215.160
477045.134,4280085.480,-220.467
477045.134,4279985.473,-225.776
477045.134,4279885.466,-231.262
477045.134,4279785.459,-236.967
477045.134,4279685.452,-243.162
477045.134,4279585.446,-249.362
477045.134,4279485.439,-255.700
477045.134,4279385.432,-262.179
477045.134,4279285.425,-268.714
477045.134,4279185.418,-275.168
477045.134,4279085.411,-281.772
477045.134,4278985.404,-288.695
477045.134,4278885.397,-295.849
477045.134,4278785.390,-303.201
477045.134,4278685.383,-310.689
477045.134,4278585.376,-317.951
477045.134,4278485.370,-324.717
477045.134,4278385.363,-331.159
477045.134,4278285.356,-336.433
477045.134,4278185.349,-342.517
477045.134,4278085.342,-348.437
477045.134,4277985.335,-354.718
477045.134,4277885.328,-360.798
477045.134,4277785.321,-366.947
477045.134,4277685.314,-373.013
477045.134,4277585.307,-378.620
477045.134,4277485.300,-383.981
477045.134,4277385.294,-389.145
477045.134,4277285.287,-394.015
477045.134,4277185.280,-398.682
477045.134,4277085.273,-402.793
477045.134,4276985.266,-406.739
