488799.351,4260031.390,-1194.013
488799.351,4259831.335,-1209.573
488799.351,4259631.279,-1232.026
488799.351,4259431.224,-1237.639
488799.351,4259231.169,-1247.403
488799.351,4259031.114,-1260.297
488799.351,4258831.059,-1277.118
488799.351,4258631.004,-1296.347
488799.351,4258430.949,-1313.203
488799.351,4258230.894,-1350.714
488799.351,4258030.838,-1369.538
488799.351,4257830.783,-1379.591
488799.351,4257630.728,-1384.728
488799.351,4257430.673,-1388.472
488799.351,4257230.618,-1391.525
488799.351,4257030.563,-1394.454
488799.351,4256830.508,-1397.831
488799.351,4256630.453,-1401.198
488799.351,4256430.397,-1404.050
488799.351,4256230.342,-1407.185
488799.351,4256030.287,-1411.792
488799.351,4255830.232,-1417.653
488799.351,4255630.177,-1423.603
488799.351,4255430.122,-1429.630
488799.351,4255230.067,-1436.551
488799.351,4255030.012,-1444.475
488799.351,4254829.957,-1452.976
488799.351,4254629.901,-1461.163
488799.351,4254429.846,-1467.292
488799.351,4254229.791,-1469.616
488799.351,4254029.736,-1468.606
488999.416,4281837.398,-560.572
488999.416,4281637.343,-567.566
488999.416,4281437.287,-588.084
488999.416,4281237.232,-603.426
488999.416,4281037.177,-604.307
488999.416,4280837.122,-591.959
488999.416,4280637.067,-594.296
488999.416,4280437.012,-599.196
488999.416,4280236.957,-607.974
488999.416,4280036.902,-619.286
488999.416,4279836.847,-634.575
488999.416,4279636.791,-647.287
488999.416,4279436.736,-655.986
488999.416,4279236.681,-666.328
488999.416,4279036.626,-673.156
488999.416,4278836.571,-683.781
488999.416,4278636.516,-678.004
488999.416,4278436.461,-642.376
488999.416,4278236.406,-635.390
488999.416,4278036.350,-618.496
488999.416,4277836.295,-618.409
488999.416,4277636.240,-623.969
488999.416,4277436.185,-605.744
488999.416,4277236.130,-557.029
488999.416,4277036.075,-559.411
488999.416,4276836.020,-561.680
488999.416,4276635.965,-558.811
488999.416,4276435.909,-563.600
488999.416,4276235.854,-574.339
488999.416,4276035.799,-591.402
488999.416,4275835.744,-619.560
488999.416,4275635.689,-654.902
488999.416,4275435.634,-682.587
488999.416,4275235.579,-710.145
488999.416,4275035.524,-746.300
488999.416,4274835.469,-778.824
488999.416,4274635.413,-815.467
488999.416,4274435.358,-856.348
488999.416,4274235.303,-895.719
488999.416,4274035.248,-941.646
488999.416,4273835.193,-981.009
488999.416,4273635.138,-992.672
488999.416,4273435.083,-983.184
488999.416,4273235.028,-932.651
488999.416,4273034.972,-886.061
488999.416,4272834.917,-864.158
488999.416,4272634.862,-856.391
488999.416,4272434.807,-856.632
488999.416,4272234.752,-868.407
488999.416,4272034.697,-878.145
488999.416,4271834.642,-887.821
488999.416,4271634.587,-902.304
488999.416,4271434.531,-916.126
488999.416,4271234.476,-934.638
488999.416,4271034.421,-951.904
488999.416,4270834.366,-970.037
488999.416,4270634.311,-981.422
488999.416,4270434.256,-990.282
488999.416,4270234.201,-1004.215
488999.416,4270034.146,-1018.651
488999.416,4269834.091,-1027.366
488999.416,4269634.035,-1035.095
488999.416,4269433.980,-1044.982
488999.416,4269233.925,-1058.830
488999.416,4269033.870,-1075.201
488999.416,4268833.815,-1090.718
488999.416,4268633.760,-1103.826
488999.416,4268433.705,-1119.343
488999.416,4268233.650,-1146.009
488999.416,4268033.594,-1181.614
488999.416,4267833.539,-1222.623
488999.416,4267633.484,-1272.071
488999.416,4267433.429,-1325.797
488999.416,4267233.374,-1369.035
488999.416,4267033.319,-1390.680
488999.416,4266833.264,-1396.381
488999.416,4266633.209,-1384.721
488999.416,4266433.153,-1352.594
488999.416,4266233.098,-1313.146
488999.416,4266033.043,-1280.031
488999.416,4265832.988,-1252.579
488999.416,4265632.933,-1219.842
488999.416,4265432.878,-1185.007
488999.416,4265232.823,-1153.411
488999.416,4265032.768,-1127.073
488999.416,4264832.713,-1111.191
488999.416,4264632.657,-1105.253
488999.416,4264432.602,-1099.969
488999.416,4264232.547,-1092.341
488999.416,4264032.492,-1084.060
488999.416,4263832.437,-1078.000
488999.416,4263632.382,-1073.542
488999.416,4263432.327,-1070.465
488999.416,4263232.272,-1071.521
488999.416,4263032.216,-1076.105
488999.416,4262832.161,-1082.294
488999.416,4262632.106,-1088.861
488999.416,4262432.051,-1095.859
488999.416,4262231.996,-1103.325
488999.416,4262031.941,-1109.514
488999.416,4261831.886,-1115.554
488999.416,4261631.831,-1124.333
488999.416,4261431.775,-1135.616
488999.416,4261231.720,-1146.657
488999.416,4261031.665,-1157.265
488999.416,4260831.610,-1167.367
488999.416,4260631.555,-1176.193
488999.416,4260431.500,-1182.168
488999.416,4260231.445,-1180.297
488999.416,4260031.390,-1192.777
488999.416,4259831.335,-1209.642
488999.416,4259631.279,-1225.349
488999.416,4259431.224,-1236.827
488999.416,4259231.169,-1247.430
488999.416,4259031.114,-1259.553
488999.416,4258831.059,-1275.498
488999.416,4258631.004,-1296.627
488999.416,4258430.949,-1322.304
488999.416,4258230.894,-1348.220
488999.416,4258030.838,-1367.814
488999.416,4257830.783,-1378.945
488999.416,4257630.728,-1385.405
488999.416,4257430.673,-1390.619
488999.416,4257230.618,-1395.119
488999.416,4257030.563,-1399.039
488999.416,4256830.508,-1402.668
488999.416,4256630.453,-1406.247
488999.416,4256430.397,-1409.960
488999.416,4256230.342,-1414.337
488999.416,4256030.287,-1419.856
488999.416,4255830.232,-1425.912
488999.416,4255630.177,-1431.045
488999.416,4255430.122,-1435.417
488999.416,4255230.067,-1440.202
488999.416,4255030.012,-1446.174
488999.416,4254829.957,-1453.158
488999.416,4254629.901,-1460.715
488999.416,4254429.846,-1467.522
488999.416,4254229.791,-1471.743
488999.416,4254029.736,-1473.099
489199.481,4281837.398,-560.783
489199.481,4281637.343,-567.957
489199.481,4281437.287,-588.980
489199.481,4281237.232,-604.500
489199.481,4281037.177,-606.171
489199.481,4280837.122,-594.827
489199.481,4280637.067,-597.076
489199.481,4280437.012,-602.109
489199.481,4280236.957,-611.164
489199.481,4280036.902,-622.455
489199.481,4279836.847,-638.307
489199.481,4279636.791,-650.882
489199.481,4279436.736,-659.747
489199.481,4279236.681,-670.130
489199.481,4279036.626,-677.306
489199.481,4278836.571,-688.106
489199.481,4278636.516,-682.057
489199.481,4278436.461,-648.579
489199.481,4278236.406,-642.817
489199.481,4278036.350,-626.472
489199.481,4277836.295,-626.042
489199.481,4277636.240,-633.034
489199.481,4277436.185,-618.629
489199.481,4277236.130,-576.225
489199.481,4277036.075,-576.656
489199.481,4276836.020,-576.909
489199.481,4276635.965,-555.281
489199.481,4276435.909,-559.223
489199.481,4276235.854,-572.106
489199.481,4276035.799,-597.260
489199.481,4275835.744,-632.343
489199.481,4275635.689,-667.650
489199.481,4275435.634,-697.473
489199.481,4275235.579,-726.905
489199.481,4275035.524,-765.960
489199.481,4274835.469,-805.583
489199.481,4274635.413,-844.916
489199.481,4274435.358,-885.123
489199.481,4274235.303,-924.515
489199.481,4274035.248,-965.472
489199.481,4273835.193,-990.504
489199.481,4273635.138,-967.010
489199.481,4273435.083,-933.362
489199.481,4273235.028,-886.869
489199.481,4273034.972,-855.359
489199.481,4272834.917,-846.712
489199.481,4272634.862,-851.595
489199.481,4272434.807,-860.812
489199.481,4272234.752,-875.108
489199.481,4272034.697,-887.264
489199.481,4271834.642,-898.318
489199.481,4271634.587,-911.239
489199.481,4271434.531,-922.707
489199.481,4271234.476,-936.196
489199.481,4271034.421,-951.624
489199.481,4270834.366,-969.996
489199.481,4270634.311,-984.311
489199.481,4270434.256,-994.648
489199.481,4270234.201,-1006.378
489199.481,4270034.146,-1018.257
489199.481,4269834.091,-1027.210
489199.481,4269634.035,-1035.583
489199.481,4269433.980,-1043.947
489199.481,4269233.925,-1054.299
489199.481,4269033.870,-1066.052
489199.481,4268833.815,-1077.119
489199.481,4268633.760,-1086.890
489199.481,4268433.705,-1101.842
489199.481,4268233.650,-1128.502
489199.481,4268033.594,-1162.634
489199.481,4267833.539,-1201.293
489199.481,4267633.484,-1249.976
489199.481,4267433.429,-1304.758
489199.481,4267233.374,-1347.951
489199.481,4267033.319,-1375.764
489199.481,4266833.264,-1398.794
489199.481,4266633.209,-1406.807
489199.481,4266433.153,-1388.171
489199.481,4266233.098,-1357.947
489199.481,4266033.043,-1329.328
489199.481,4265832.988,-1304.273
489199.481,4265632.933,-1273.802
489199.481,4265432.878,-1241.775
489199.481,4265232.823,-1209.812
489199.481,4265032.768,-1180.198
489199.481,4264832.713,-1158.963
489199.481,4264632.657,-1145.958
489199.481,4264432.602,-1134.243
489199.481,4264232.547,-1121.763
489199.481,4264032.492,-1108.971
489199.481,4263832.437,-1097.881
489199.481,4263632.382,-1089.653
489199.481,4263432.327,-1084.198
489199.481,4263232.272,-1081.648
489199.481,4263032.216,-1082.729
489199.481,4262832.161,-1086.039
489199.481,4262632.106,-1090.119
489199.481,4262432.051,-1094.967
489199.481,4262231.996,-1101.016
489199.481,4262031.941,-1106.503
489199.481,4261831.886,-1111.851
489199.481,4261631.831,-1119.134
489199.481,4261431.775,-1128.229
489199.481,4261231.720,-1137.286
489199.481,4261031.665,-1146.613
489199.481,4260831.610,-1156.787
489199.481,4260631.555,-1167.370
489199.481,4260431.500,-1176.814
489199.481,4260231.445,-1179.315
489199.481,4260031.390,-1191.542
489199.481,4259831.335,-1209.712
489199.481,4259631.279,-1223.827
489199.481,4259431.224,-1236.484
489199.481,4259231.169,-1247.567
489199.481,4259031.114,-1258.401
489199.481,4258831.059,-1272.254
489199.481,4258631.004,-1291.425
489199.481,4258430.949,-1315.514
489199.481,4258230.894,-1340.651
489199.481,4258030.838,-1361.053
489199.481,4257830.783,-1374.095
489199.481,4257630.728,-1382.235
489199.481,4257430.673,-1388.919
489199.481,4257230.618,-1395.582
489199.481,4257030.563,-1401.815
489199.481,4256830.508,-1406.703
489199.481,4256630.453,-1410.458
489199.481,4256430.397,-1414.149
489199.481,4256230.342,-1418.749
489199.481,4256030.287,-1424.683
489199.481,4255830.232,-1431.253
489199.481,4255630.177,-1436.731
489199.481,4255430.122,-1440.650
489199.481,4255230.067,-1444.044
489199.481,4255030.012,-1448.001
489199.481,4254829.957,-1452.836
489199.481,4254629.901,-1458.780
489199.481,4254429.846,-1464.816
489199.481,4254229.791,-1469.280
489199.481,4254029.736,-1471.946
489399.546,4281837.398,-560.993
489399.546,4281637.343,-568.348
489399.546,4281437.287,-589.875
489399.546,4281237.232,-605.573
489399.546,4281037.177,-608.036
489399.546,4280837.122,-597.696
489399.546,4280637.067,-599.855
489399.546,4280437.012,-605.022
489399.546,4280236.957,-614.354
489399.546,4280036.902,-625.624
489399.546,4279836.847,-642.039
489399.546,4279636.791,-654.478
489399.546,4279436.736,-663.507
489399.546,4279236.681,-673.931
489399.546,4279036.626,-681.456
489399.546,4278836.571,-692.431
489399.546,4278636.516,-686.111
489399.546,4278436.461,-654.782
489399.546,4278236.406,-650.243
489399.546,4278036.350,-634.449
489399.546,4277836.295,-633.676
489399.546,4277636.240,-642.100
489399.546,4277436.185,-631.515
489399.546,4277236.130,-595.421
489399.546,4277036.075,-593.902
489399.546,4276836.020,-592.138
489399.546,4276635.965,-572.722
489399.546,4276435.909,-559.875
489399.546,4276235.854,-578.816
489399.546,4276035.799,-614.856
489399.546,4275835.744,-656.770
489399.546,4275635.689,-692.088
489399.546,4275435.634,-724.126
489399.546,4275235.579,-754.530
489399.546,4275035.524,-791.035
489399.546,4274835.469,-835.574
489399.546,4274635.413,-877.875
489399.546,4274435.358,-917.042
489399.546,4274235.303,-952.519
489399.546,4274035.248,-976.155
489399.546,4273835.193,-974.931
489399.546,4273635.138,-925.615
489399.546,4273435.083,-885.900
489399.546,4273235.028,-854.601
489399.546,4273034.972,-838.297
489399.546,4272834.917,-842.891
489399.546,4272634.862,-856.020
489399.546,4272434.807,-869.244
489399.546,4272234.752,-883.363
489399.546,4272034.697,-896.299
489399.546,4271834.642,-907.175
489399.546,4271634.587,-917.123
489399.546,4271434.531,-926.040
489399.546,4271234.476,-937.366
489399.546,4271034.421,-950.261
489399.546,4270834.366,-965.712
489399.546,4270634.311,-981.805
489399.546,4270434.256,-994.053
489399.546,4270234.201,-1004.702
489399.546,4270034.146,-1015.702
489399.546,4269834.091,-1026.818
489399.546,4269634.035,-1035.810
489399.546,4269433.980,-1043.075
489399.546,4269233.925,-1050.988
489399.546,4269033.870,-1059.652
489399.546,4268833.815,-1068.060
489399.546,4268633.760,-1076.418
489399.546,4268433.705,-1090.164
489399.546,4268233.650,-1113.694
489399.546,4268033.594,-1144.434
489399.546,4267833.539,-1180.147
489399.546,4267633.484,-1225.888
489399.546,4267433.429,-1278.971
489399.546,4267233.374,-1322.155
489399.546,4267033.319,-1353.225
489399.546,4266833.264,-1388.004
489399.546,4266633.209,-1416.096
489399.546,4266433.153,-1412.563
489399.546,4266233.098,-1398.456
489399.546,4266033.043,-1375.353
489399.546,4265832.988,-1351.107
489399.546,4265632.933,-1324.173
489399.546,4265432.878,-1299.089
489399.546,4265232.823,-1274.264
489399.546,4265032.768,-1249.779
489399.546,4264832.713,-1226.676
489399.546,4264632.657,-1202.523
489399.546,4264432.602,-1179.029
489399.546,4264232.547,-1159.297
489399.546,4264032.492,-1141.741
489399.546,4263832.437,-1125.221
489399.546,4263632.382,-1112.943
489399.546,4263432.327,-1105.540
489399.546,4263232.272,-1100.578
489399.546,4263032.216,-1098.446
489399.546,4262832.161,-1097.726
489399.546,4262632.106,-1097.212
489399.546,4262432.051,-1098.158
489399.546,4262231.996,-1101.373
489399.546,4262031.941,-1105.771
489399.546,4261831.886,-1110.839
489399.546,4261631.831,-1116.987
489399.546,4261431.775,-1124.126
489399.546,4261231.720,-1131.405
489399.546,4261031.665,-1138.927
489399.546,4260831.610,-1147.442
489399.546,4260631.555,-1157.089
489399.546,4260431.500,-1167.408
489399.546,4260231.445,-1178.333
489399.546,4260031.390,-1190.307
489399.546,4259831.335,-1203.936
489399.546,4259631.279,-1219.306
489399.546,4259431.224,-1234.226
489399.546,4259231.169,-1246.232
489399.546,4259031.114,-1256.407
489399.546,4258831.059,-1268.398
489399.546,4258631.004,-1284.850
489399.546,4258430.949,-1305.598
489399.546,4258230.894,-1327.979
489399.546,4258030.838,-1348.260
489399.546,4257830.783,-1363.816
489399.546,4257630.728,-1374.804
489399.546,4257430.673,-1383.600
489399.546,4257230.618,-1392.438
489399.546,4257030.563,-1401.179
489399.546,4256830.508,-1408.194
489399.546,4256630.453,-1413.248
489399.546,4256430.397,-1417.554
489399.546,4256230.342,-1422.489
489399.546,4256030.287,-1428.727
489399.546,4255830.232,-1435.836
489399.546,4255630.177,-1442.086
489399.546,4255430.122,-1446.408
489399.546,4255230.067,-1449.413
489399.546,4255030.012,-1452.135
489399.546,4254829.957,-1455.208
489399.546,4254629.901,-1459.063
489399.546,4254429.846,-1462.910
489399.546,4254229.791,-1465.527
489399.546,4254029.736,-1467.262
489599.611,4281837.398,-561.204
489599.611,4281637.343,-568.738
489599.611,4281437.287,-590.770
489599.611,4281237.232,-606.647
489599.611,4281037.177,-609.900
489599.611,4280837.122,-600.564
489599.611,4280637.067,-602.635
489599.611,4280437.012,-607.934
489599.611,4280236.957,-617.544
489599.611,4280036.902,-628.793
489599.611,4279836.847,-645.771
489599.611,4279636.791,-658.073
489599.611,4279436.736,-667.268
489599.611,4279236.681,-677.732
489599.611,4279036.626,-685.606
489599.611,4278836.571,-696.756
489599.611,4278636.516,-690.165
489599.611,4278436.461,-660.985
489599.611,4278236.406,-657.669
489599.611,4278036.350,-642.425
489599.611,4277836.295,-641.309
489599.611,4277636.240,-651.166
489599.611,4277436.185,-644.400
489599.611,4277236.130,-614.616
489599.611,4277036.075,-611.147
489599.611,4276836.020,-607.367
489599.611,4276635.965,-590.162
489599.611,4276435.909,-564.334
489599.611,4276235.854,-595.740
489599.611,4276035.799,-641.066
489599.611,4275835.744,-687.658
489599.611,4275635.689,-723.906
489599.611,4275435.634,-756.671
489599.611,4275235.579,-787.990
489599.611,4275035.524,-823.800
489599.611,4274835.469,-868.421
489599.611,4274635.413,-911.550
489599.611,4274435.358,-945.176
489599.611,4274235.303,-970.313
489599.611,4274035.248,-966.320
489599.611,4273835.193,-935.102
489599.611,4273635.138,-883.146
489599.611,4273435.083,-851.291
489599.611,4273235.028,-837.050
489599.611,4273034.972,-835.338
489599.611,4272834.917,-848.157
489599.611,4272634.862,-861.755
489599.611,4272434.807,-875.500
489599.611,4272234.752,-888.754
489599.611,4272034.697,-901.321
489599.611,4271834.642,-910.461
489599.611,4271634.587,-918.424
489599.611,4271434.531,-926.198
489599.611,4271234.476,-936.942
489599.611,4271034.421,-948.286
489599.611,4270834.366,-961.227
489599.611,4270634.311,-976.846
489599.611,4270434.256,-988.815
489599.611,4270234.201,-999.599
489599.611,4270034.146,-1012.454
489599.611,4269834.091,-1026.176
489599.611,4269634.035,-1035.627
489599.611,4269433.980,-1042.531
489599.611,4269233.925,-1049.058
489599.611,4269033.870,-1055.499
489599.611,4268833.815,-1061.865
489599.611,4268633.760,-1069.676
489599.611,4268433.705,-1081.867
489599.611,4268233.650,-1100.267
489599.611,4268033.594,-1125.063
489599.611,4267833.539,-1156.102
489599.611,4267633.484,-1197.606
489599.611,4267433.429,-1248.897
489599.611,4267233.374,-1295.829
489599.611,4267033.319,-1331.203
489599.611,4266833.264,-1365.370
489599.611,4266633.209,-1415.149
489599.611,4266433.153,-1416.906
489599.611,4266233.098,-1422.799
489599.611,4266033.043,-1413.054
489599.611,4265832.988,-1393.326
489599.611,4265632.933,-1371.603
489599.611,4265432.878,-1355.500
489599.611,4265232.823,-1343.378
489599.611,4265032.768,-1329.350
489599.611,4264832.713,-1306.931
489599.611,4264632.657,-1271.311
489599.611,4264432.602,-1232.956
489599.611,4264232.547,-1202.465
489599.611,4264032.492,-1178.865
489599.611,4263832.437,-1157.850
489599.611,4263632.382,-1141.708
489599.611,4263432.327,-1130.741
489599.611,4263232.272,-1124.534
489599.611,4263032.216,-1121.874
489599.611,4262832.161,-1118.391
489599.611,4262632.106,-1112.959
489599.611,4262432.051,-1108.620
489599.611,4262231.996,-1106.297
489599.611,4262031.941,-1106.621
489599.611,4261831.886,-1109.909
489599.611,4261631.831,-1115.521
489599.611,4261431.775,-1122.284
489599.611,4261231.720,-1129.099
489599.611,4261031.665,-1135.632
489599.611,4260831.610,-1142.372
489599.611,4260631.555,-1149.843
489599.611,4260431.500,-1158.240
489599.611,4260231.445,-1167.767
489599.611,4260031.390,-1178.906
489599.611,4259831.335,-1192.713
489599.611,4259631.279,-1209.387
489599.611,4259431.224,-1226.112
489599.611,4259231.169,-1239.646
489599.611,4259031.114,-1250.172
489599.611,4258831.059,-1260.612
489599.611,4258631.004,-1273.842
489599.611,4258430.949,-1290.650
489599.611,4258230.894,-1309.582
489599.611,4258030.838,-1328.521
489599.611,4257830.783,-1345.758
489599.611,4257630.728,-1360.580
489599.611,4257430.673,-1373.786
489599.611,4257230.618,-1386.376
489599.611,4257030.563,-1397.713
489599.611,4256830.508,-1406.755
489599.611,4256630.453,-1413.862
489599.611,4256430.397,-1420.072
489599.611,4256230.342,-1426.304
489599.611,4256030.287,-1433.040
489599.611,4255830.232,-1440.285
489599.611,4255630.177,-1446.823
489599.611,4255430.122,-1451.674
489599.611,4255230.067,-1455.084
489599.611,4255030.012,-1457.671
489599.611,4254829.957,-1459.988
489599.611,4254629.901,-1462.421
489599.611,4254429.846,-1464.116
489599.611,4254229.791,-1464.444
489599.611,4254029.736,-1464.120
489799.676,4281837.398,-561.414
489799.676,4281637.343,-569.129
489799.676,4281437.287,-591.666
489799.676,4281237.232,-607.720
489799.676,4281037.177,-611.764
489799.676,4280837.122,-603.433
489799.676,4280637.067,-605.415
489799.676,4280437.012,-610.847
489799.676,4280236.957,-620.734
489799.676,4280036.902,-631.962
489799.676,4279836.847,-649.504
489799.676,4279636.791,-661.669
489799.676,4279436.736,-671.029
489799.676,4279236.681,-681.533
489799.676,4279036.626,-689.756
489799.676,4278836.571,-701.081
489799.676,4278636.516,-694.219
489799.676,4278436.461,-667.188
489799.676,4278236.406,-665.096
489799.676,4278036.350,-650.402
489799.676,4277836.295,-648.943
489799.676,4277636.240,-660.232
489799.676,4277436.185,-657.286
489799.676,4277236.130,-633.812
489799.676,4277036.075,-628.392
489799.676,4276836.020,-622.596
489799.676,4276635.965,-607.602
489799.676,4276435.909,-588.570
489799.676,4276235.854,-623.023
489799.676,4276035.799,-672.567
489799.676,4275835.744,-719.304
489799.676,4275635.689,-755.460
489799.676,4275435.634,-787.574
489799.676,4275235.579,-822.787
489799.676,4275035.524,-863.492
489799.676,4274835.469,-903.496
489799.676,4274635.413,-939.961
489799.676,4274435.358,-960.159
489799.676,4274235.303,-964.333
489799.676,4274035.248,-933.775
489799.676,4273835.193,-888.252
489799.676,4273635.138,-848.105
489799.676,4273435.083,-830.752
489799.676,4273235.028,-832.826
489799.676,4273034.972,-840.286
489799.676,4272834.917,-854.357
489799.676,4272634.862,-864.561
489799.676,4272434.807,-878.174
489799.676,4272234.752,-891.025
489799.676,4272034.697,-902.111
489799.676,4271834.642,-909.459
489799.676,4271634.587,-917.321
489799.676,4271434.531,-925.493
489799.676,4271234.476,-935.908
489799.676,4271034.421,-946.784
489799.676,4270834.366,-958.594
489799.676,4270634.311,-971.833
489799.676,4270434.256,-981.859
489799.676,4270234.201,-993.485
489799.676,4270034.146,-1008.578
489799.676,4269834.091,-1023.486
489799.676,4269634.035,-1033.956
489799.676,4269433.980,-1042.202
489799.676,4269233.925,-1048.946
489799.676,4269033.870,-1054.342
489799.676,4268833.815,-1059.398
489799.676,4268633.760,-1066.604
489799.676,4268433.705,-1077.045
489799.676,4268233.650,-1090.390
489799.676,4268033.594,-1108.563
489799.676,4267833.539,-1134.198
489799.676,4267633.484,-1170.946
489799.676,4267433.429,-1218.905
489799.676,4267233.374,-1268.173
489799.676,4267033.319,-1309.460
489799.676,4266833.264,-1337.140
489799.676,4266633.209,-1387.520
489799.676,4266433.153,-1402.816
489799.676,4266233.098,-1422.764
489799.676,4266033.043,-1433.849
489799.676,4265832.988,-1429.196
489799.676,4265632.933,-1417.706
489799.676,4265432.878,-1410.750
489799.676,4265232.823,-1409.522
489799.676,4265032.768,-1403.987
489799.676,4264832.713,-1383.685
489799.676,4264632.657,-1343.309
489799.676,4264432.602,-1294.321
489799.676,4264232.547,-1253.755
489799.676,4264032.492,-1224.953
489799.676,4263832.437,-1200.427
489799.676,4263632.382,-1178.382
489799.676,4263432.327,-1158.644
489799.676,4263232.272,-1149.736
489799.676,4263032.216,-1148.594
489799.676,4262832.161,-1144.629
489799.676,4262632.106,-1136.236
489799.676,4262432.051,-1127.496
489799.676,4262231.996,-1118.769
489799.676,4262031.941,-1112.132
489799.676,4261831.886,-1110.517
489799.676,4261631.831,-1114.250
489799.676,4261431.775,-1121.116
489799.676,4261231.720,-1128.342
489799.676,4261031.665,-1134.776
489799.676,4260831.610,-1140.780
489799.676,4260631.555,-1147.004
489799.676,4260431.500,-1153.739
489799.676,4260231.445,-1161.209
489799.676,4260031.390,-1169.988
489799.676,4259831.335,-1181.479
489799.676,4259631.279,-1196.233
489799.676,4259431.224,-1212.016
489799.676,4259231.169,-1225.771
489799.676,4259031.114,-1236.452
489799.676,4258831.059,-1245.523
489799.676,4258631.004,-1256.061
489799.676,4258430.949,-1270.070
489799.676,4258230.894,-1286.828
489799.676,4258030.838,-1304.534
489799.676,4257830.783,-1322.352
489799.676,4257630.728,-1340.761
489799.676,4257430.673,-1359.991
489799.676,4257230.618,-1378.092
489799.676,4257030.563,-1392.378
489799.676,4256830.508,-1402.889
489799.676,4256630.453,-1411.639
489799.676,4256430.397,-1419.911
489799.676,4256230.342,-1428.096
489799.676,4256030.287,-1436.249
489799.676,4255830.232,-1443.882
489799.676,4255630.177,-1450.156
489799.676,4255430.122,-1454.884
489799.676,4255230.067,-1458.823
489799.676,4255030.012,-1462.285
489799.676,4254829.957,-1465.237
489799.676,4254629.901,-1467.663
489799.676,4254429.846,-1468.511
489799.676,4254229.791,-1467.449
489799.676,4254029.736,-1465.516
489999.741,4281037.177,-613.629
489999.741,4280837.122,-606.301
489999.741,4280637.067,-608.195
489999.741,4280437.012,-613.760
489999.741,4280236.957,-623.923
489999.741,4280036.902,-635.131
489999.741,4279836.847,-653.236
489999.741,4279636.791,-665.264
489999.741,4279436.736,-674.790
489999.741,4279236.681,-685.334
489999.741,4279036.626,-693.906
489999.741,4278836.571,-705.406
489999.741,4278636.516,-698.273
489999.741,4278436.461,-673.391
489999.741,4278236.406,-672.522
489999.741,4278036.350,-658.379
489999.741,4277836.295,-656.577
489999.741,4277636.240,-669.298
489999.741,4277436.185,-670.171
489999.741,4277236.130,-653.008
489999.741,4277036.075,-645.638
489999.741,4276836.020,-637.825
489999.741,4276635.965,-625.043
489999.741,4276435.909,-612.806
489999.741,4276235.854,-654.885
489999.741,4276035.799,-704.214
489999.741,4275835.744,-748.152
489999.741,4275635.689,-784.339
489999.741,4275435.634,-818.087
489999.741,4275235.579,-859.369
489999.741,4275035.524,-902.391
489999.741,4274835.469,-933.083
489999.741,4274635.413,-953.367
489999.741,4274435.358,-953.089
489999.741,4274235.303,-930.592
489999.741,4274035.248,-889.116
489999.741,4273835.193,-848.469
489999.741,4273635.138,-824.089
489999.741,4273435.083,-822.817
489999.741,4273235.028,-834.045
489999.741,4273034.972,-844.751
489999.741,4272834.917,-856.880
489999.741,4272634.862,-865.195
489999.741,4272434.807,-877.956
489999.741,4272234.752,-890.460
489999.741,4272034.697,-900.722
489999.741,4271834.642,-908.014
489999.741,4271634.587,-917.186
489999.741,4271434.531,-925.735
489999.741,4271234.476,-935.480
489999.741,4271034.421,-946.273
489999.741,4270834.366,-956.593
489999.741,4270634.311,-966.632
489999.741,4270434.256,-975.742
489999.741,4270234.201,-989.207
489999.741,4270034.146,-1004.899
489999.741,4269834.091,-1018.930
489999.741,4269634.035,-1030.741
489999.741,4269433.980,-1041.730
489999.741,4269233.925,-1050.208
489999.741,4269033.870,-1055.804
489999.741,4268833.815,-1060.858
489999.741,4268633.760,-1067.643
489999.741,4268433.705,-1076.286
489999.741,4268233.650,-1086.119
489999.741,4268033.594,-1099.403
489999.741,4267833.539,-1120.204
489999.741,4267633.484,-1152.058
489999.741,4267433.429,-1194.098
489999.741,4267233.374,-1239.837
489999.741,4267033.319,-1284.744
489999.741,4266833.264,-1326.623
489999.741,4266633.209,-1359.891
489999.741,4266433.153,-1381.764
489999.741,4266233.098,-1404.250
489999.741,4266033.043,-1431.340
489999.741,4265832.988,-1447.766
489999.741,4265632.933,-1452.766
489999.741,4265432.878,-1455.428
489999.741,4265232.823,-1459.863
489999.741,4265032.768,-1458.540
489999.741,4264832.713,-1442.603
489999.741,4264632.657,-1408.176
489999.741,4264432.602,-1360.825
489999.741,4264232.547,-1318.917
489999.741,4264032.492,-1289.671
489999.741,4263832.437,-1261.647
489999.741,4263632.382,-1228.613
489999.741,4263432.327,-1192.859
489999.741,4263232.272,-1177.009
489999.741,4263032.216,-1176.206
489999.741,4262832.161,-1172.225
489999.741,4262632.106,-1162.237
489999.741,4262432.051,-1150.571
489999.741,4262231.996,-1137.795
489999.741,4262031.941,-1124.991
489999.741,4261831.886,-1116.085
489999.741,4261631.831,-1114.936
489999.741,4261431.775,-1120.467
489999.741,4261231.720,-1127.844
489999.741,4261031.665,-1134.462
489999.741,4260831.610,-1140.482
489999.741,4260631.555,-1146.466
489999.741,4260431.500,-1152.778
489999.741,4260231.445,-1159.318
489999.741,4260031.390,-1166.292
489999.741,4259831.335,-1174.736
489999.741,4259631.279,-1185.310
489999.741,4259431.224,-1197.169
489999.741,4259231.169,-1208.450
489999.741,4259031.114,-1217.811
489999.741,4258831.059,-1225.742
489999.741,4258631.004,-1234.890
489999.741,4258430.949,-1247.850
489999.741,4258230.894,-1264.496
489999.741,4258030.838,-1282.717
489999.741,4257830.783,-1301.580
489999.741,4257630.728,-1322.703
489999.741,4257430.673,-1346.535
489999.741,4257230.618,-1368.901
489999.741,4257030.563,-1385.587
489999.741,4256830.508,-1397.293
489999.741,4256630.453,-1406.983
489999.741,4256430.397,-1416.284
489999.741,4256230.342,-1425.896
489999.741,4256030.287,-1435.817
489999.741,4255830.232,-1444.776
489999.741,4255630.177,-1451.463
489999.741,4255430.122,-1456.086
489999.741,4255230.067,-1460.285
489999.741,4255030.012,-1464.892
489999.741,4254829.957,-1469.488
489999.741,4254629.901,-1473.349
489999.741,4254429.846,-1475.058
489999.741,4254229.791,-1473.843
489999.741,4254029.736,-1470.895
490199.806,4280837.122,-609.170
490199.806,4280637.067,-610.974
490199.806,4280437.012,-616.673
490199.806,4280236.957,-627.113
490199.806,4280036.902,-638.300
490199.806,4279836.847,-656.968
490199.806,4279636.791,-668.859
490199.806,4279436.736,-678.551
490199.806,4279236.681,-689.136
490199.806,4279036.626,-698.056
490199.806,4278836.571,-709.730
490199.806,4278636.516,-702.327
490199.806,4278436.461,-679.593
490199.806,4278236.406,-679.948
490199.806,4278036.350,-666.355
490199.806,4277836.295,-664.210
490199.806,4277636.240,-678.363
490199.806,4277436.185,-683.057
490199.806,4277236.130,-672.203
490199.806,4277036.075,-662.883
490199.806,4276836.020,-653.055
490199.806,4276635.965,-642.483
490199.806,4276435.909,-642.726
490199.806,4276235.854,-686.918
490199.806,4276035.799,-733.651
490199.806,4275835.744,-776.948
490199.806,4275635.689,-816.367
490199.806,4275435.634,-854.590
490199.806,4275235.579,-896.545
490199.806,4275035.524,-930.520
490199.806,4274835.469,-944.903
490199.806,4274635.413,-943.033
490199.806,4274435.358,-921.100
490199.806,4274235.303,-882.074
490199.806,4274035.248,-846.078
490199.806,4273835.193,-817.731
490199.806,4273635.138,-812.109
490199.806,4273435.083,-821.487
490199.806,4273235.028,-833.853
490199.806,4273034.972,-844.811
490199.806,4272834.917,-855.813
490199.806,4272634.862,-864.164
490199.806,4272434.807,-874.676
490199.806,4272234.752,-887.174
490199.806,4272034.697,-899.599
490199.806,4271834.642,-908.176
490199.806,4271634.587,-918.353
490199.806,4271434.531,-926.064
490199.806,4271234.476,-934.905
490199.806,4271034.421,-945.433
490199.806,4270834.366,-953.217
490199.806,4270634.311,-961.209
490199.806,4270434.256,-971.886
490199.806,4270234.201,-987.958
490199.806,4270034.146,-1002.755
490199.806,4269834.091,-1014.828
490199.806,4269634.035,-1027.475
490199.806,4269433.980,-1041.032
490199.806,4269233.925,-1051.480
490199.806,4269033.870,-1057.925
490199.806,4268833.815,-1063.980
490199.806,4268633.760,-1070.740
490199.806,4268433.705,-1078.107
490199.806,4268233.650,-1086.263
490199.806,4268033.594,-1097.059
490199.806,4267833.539,-1114.701
490199.806,4267633.484,-1142.794
490199.806,4267433.429,-1178.869
490199.806,4267233.374,-1217.949
490199.806,4267033.319,-1260.774
490199.806,4266833.264,-1305.140
490199.806,4266633.209,-1342.344
490199.806,4266433.153,-1364.954
490199.806,4266233.098,-1384.684
490199.806,4266033.043,-1414.054
490199.806,4265832.988,-1441.464
490199.806,4265632.933,-1459.956
490199.806,4265432.878,-1472.170
490199.806,4265232.823,-1482.114
490199.806,4265032.768,-1486.870
490199.806,4264832.713,-1480.821
490199.806,4264632.657,-1461.017
490199.806,4264432.602,-1427.609
490199.806,4264232.547,-1394.793
490199.806,4264032.492,-1369.059
490199.806,4263832.437,-1337.320
490199.806,4263632.382,-1290.644
490199.806,4263432.327,-1236.643
490199.806,4263232.272,-1209.875
490199.806,4263032.216,-1205.882
490199.806,4262832.161,-1200.346
490199.806,4262632.106,-1187.892
490199.806,4262432.051,-1173.183
490199.806,4262231.996,-1158.632
490199.806,4262031.941,-1142.600
490199.806,4261831.886,-1126.920
490199.806,4261631.831,-1119.317
490199.806,4261431.775,-1121.828
490199.806,4261231.720,-1128.487
490199.806,4261031.665,-1134.973
490199.806,4260831.610,-1140.944
490199.806,4260631.555,-1147.159
490199.806,4260431.500,-1153.943
490199.806,4260231.445,-1160.660
490199.806,4260031.390,-1166.992
490199.806,4259831.335,-1173.323
490199.806,4259631.279,-1180.081
490199.806,4259431.224,-1187.459
490199.806,4259231.169,-1195.099
490199.806,4259031.114,-1202.326
490199.806,4258831.059,-1209.234
490199.806,4258631.004,-1217.660
490199.806,4258430.949,-1230.174
490199.806,4258230.894,-1247.479
490199.806,4258030.838,-1267.458
490199.806,4257830.783,-1288.166
490199.806,4257630.728,-1310.783
490199.806,4257430.673,-1336.014
490199.806,4257230.618,-1359.940
490199.806,4257030.563,-1378.318
490199.806,4256830.508,-1391.256
490199.806,4256630.453,-1401.249
490199.806,4256430.397,-1410.402
490199.806,4256230.342,-1420.170
490199.806,4256030.287,-1430.848
490199.806,4255830.232,-1441.270
490199.806,4255630.177,-1449.751
490199.806,4255430.122,-1455.760
490199.806,4255230.067,-1460.821
490199.806,4255030.012,-1466.602
490199.806,4254829.957,-1473.322
490199.806,4254629.901,-1480.040
490199.806,4254429.846,-1484.558
490199.806,4254229.791,-1484.133
490199.806,4254029.736,-1479.860
490399.871,4280837.122,-612.038
490399.871,4280637.067,-613.754
490399.871,4280437.012,-619.585
490399.871,4280236.957,-630.303
490399.871,4280036.902,-641.469
490399.871,4279836.847,-660.701
490399.871,4279636.791,-672.455
490399.871,4279436.736,-682.312
490399.871,4279236.681,-692.937
490399.871,4279036.626,-702.206
490399.871,4278836.571,-714.055
490399.871,4278636.516,-706.380
490399.871,4278436.461,-685.796
490399.871,4278236.406,-687.375
490399.871,4278036.350,-674.332
490399.871,4277836.295,-671.844
490399.871,4277636.240,-687.429
490399.871,4277436.185,-695.942
490399.871,4277236.130,-691.399
490399.871,4277036.075,-680.128
490399.871,4276836.020,-668.284
490399.871,4276635.965,-659.924
490399.871,4276435.909,-676.415
490399.871,4276235.854,-720.101
490399.871,4276035.799,-764.973
490399.871,4275835.744,-811.109
490399.871,4275635.689,-854.984
490399.871,4275435.634,-893.065
490399.871,4275235.579,-923.341
490399.871,4275035.524,-937.932
490399.871,4274835.469,-930.697
490399.871,4274635.413,-907.849
490399.871,4274435.358,-873.114
490399.871,4274235.303,-835.398
490399.871,4274035.248,-810.689
490399.871,4273835.193,-796.241
490399.871,4273635.138,-807.246
490399.871,4273435.083,-820.103
490399.871,4273235.028,-830.783
490399.871,4273034.972,-840.689
490399.871,4272834.917,-851.963
490399.871,4272634.862,-860.633
490399.871,4272434.807,-869.583
490399.871,4272234.752,-882.874
490399.871,4272034.697,-898.864
490399.871,4271834.642,-908.282
490399.871,4271634.587,-917.889
490399.871,4271434.531,-924.299
490399.871,4271234.476,-932.992
490399.871,4271034.421,-942.525
490399.871,4270834.366,-948.704
490399.871,4270634.311,-957.586
490399.871,4270434.256,-971.562
490399.871,4270234.201,-989.171
490399.871,4270034.146,-1002.468
490399.871,4269834.091,-1013.252
490399.871,4269634.035,-1026.186
490399.871,4269433.980,-1040.779
490399.871,4269233.925,-1052.144
490399.871,4269033.870,-1059.524
490399.871,4268833.815,-1066.813
490399.871,4268633.760,-1073.880
490399.871,4268433.705,-1080.721
490399.871,4268233.650,-1088.510
490399.871,4268033.594,-1098.847
490399.871,4267833.539,-1115.432
490399.871,4267633.484,-1141.670
490399.871,4267433.429,-1174.179
490399.871,4267233.374,-1208.159
490399.871,4267033.319,-1246.382
490399.871,4266833.264,-1287.650
490399.871,4266633.209,-1325.745
490399.871,4266433.153,-1352.070
490399.871,4266233.098,-1371.929
490399.871,4266033.043,-1396.778
490399.871,4265832.988,-1420.535
490399.871,4265632.933,-1440.256
490399.871,4265432.878,-1457.209
490399.871,4265232.823,-1473.573
490399.871,4265032.768,-1489.012
490399.871,4264832.713,-1499.788
490399.871,4264632.657,-1499.822
490399.871,4264432.602,-1485.578
490399.871,4264232.547,-1465.826
490399.871,4264032.492,-1443.841
490399.871,4263832.437,-1409.624
490399.871,4263632.382,-1354.311
490399.871,4263432.327,-1290.071
490399.871,4263232.272,-1253.239
490399.871,4263032.216,-1242.167
490399.871,4262832.161,-1231.728
490399.871,4262632.106,-1214.132
490399.871,4262432.051,-1194.610
490399.871,4262231.996,-1177.133
490399.871,4262031.941,-1158.837
490399.871,4261831.886,-1139.316
490399.871,4261631.831,-1127.402
490399.871,4261431.775,-1126.966
490399.871,4261231.720,-1132.293
490399.871,4261031.665,-1137.987
490399.871,4260831.610,-1143.629
490399.871,4260631.555,-1150.647
490399.871,4260431.500,-1158.948
490399.871,4260231.445,-1166.602
490399.871,4260031.390,-1172.799
490399.871,4259831.335,-1177.800
490399.871,4259631.279,-1181.640
490399.871,4259431.224,-1185.048
490399.871,4259231.169,-1189.289
490399.871,4259031.114,-1194.633
490399.871,4258831.059,-1200.683
490399.871,4258631.004,-1208.338
490399.871,4258430.949,-1219.974
490399.871,4258230.894,-1237.101
490399.871,4258030.838,-1258.045
490399.871,4257830.783,-1279.948
490399.871,4257630.728,-1302.755
490399.871,4257430.673,-1327.351
490399.871,4257230.618,-1351.435
490399.871,4257030.563,-1371.094
490399.871,4256830.508,-1384.937
490399.871,4256630.453,-1394.754
490399.871,4256430.397,-1403.351
490399.871,4256230.342,-1412.607
490399.871,4256030.287,-1423.051
490399.871,4255830.232,-1434.409
490399.871,4255630.177,-1444.928
490399.871,4255430.122,-1453.102
490399.871,4255230.067,-1459.856
490399.871,4255030.012,-1467.545
490399.871,4254829.957,-1477.789
490399.871,4254629.901,-1489.947
490399.871,4254429.846,-1500.463
490399.871,4254229.791,-1502.580
490399.871,4254029.736,-1495.058
490599.936,4280837.122,-614.907
490599.936,4280637.067,-616.534
490599.936,4280437.012,-622.498
490599.936,4280236.957,-633.493
490599.936,4280036.902,-644.638
490599.936,4279836.847,-664.433
490599.936,4279636.791,-676.050
490599.936,4279436.736,-686.073
490599.936,4279236.681,-696.738
490599.936,4279036.626,-706.356
490599.936,4278836.571,-718.380
490599.936,4278636.516,-710.434
490599.936,4278436.461,-691.999
490599.936,4278236.406,-694.801
490599.936,4278036.350,-682.308
490599.936,4277836.295,-679.478
490599.936,4277636.240,-696.495
490599.936,4277436.185,-708.827
490599.936,4277236.130,-710.594
490599.936,4277036.075,-697.373
490599.936,4276836.020,-683.513
490599.936,4276635.965,-677.364
490599.936,4276435.909,-717.762
490599.936,4276235.854,-759.374
490599.936,4276035.799,-803.933
490599.936,4275835.744,-850.741
490599.936,4275635.689,-891.204
490599.936,4275435.634,-916.577
490599.936,4275235.579,-926.018
490599.936,4275035.524,-919.219
490599.936,4274835.469,-892.520
490599.936,4274635.413,-857.608
490599.936,4274435.358,-825.028
490599.936,4274235.303,-799.044
490599.936,4274035.248,-786.224
490599.936,4273835.193,-785.532
490599.936,4273635.138,-803.148
490599.936,4273435.083,-815.745
490599.936,4273235.028,-825.464
490599.936,4273034.972,-834.524
490599.936,4272834.917,-846.160
490599.936,4272634.862,-855.142
490599.936,4272434.807,-865.954
490599.936,4272234.752,-880.158
490599.936,4272034.697,-896.674
490599.936,4271834.642,-905.146
490599.936,4271634.587,-913.002
490599.936,4271434.531,-920.190
490599.936,4271234.476,-930.333
490599.936,4271034.421,-939.023
490599.936,4270834.366,-946.984
490599.936,4270634.311,-958.862
490599.936,4270434.256,-975.413
490599.936,4270234.201,-991.890
490599.936,4270034.146,-1003.752
490599.936,4269834.091,-1014.537
490599.936,4269634.035,-1027.160
490599.936,4269433.980,-1041.076
490599.936,4269233.925,-1052.440
490599.936,4269033.870,-1060.819
490599.936,4268833.815,-1069.423
490599.936,4268633.760,-1077.182
490599.936,4268433.705,-1084.031
490599.936,4268233.650,-1091.952
490599.936,4268033.594,-1102.742
490599.936,4267833.539,-1119.360
490599.936,4267633.484,-1144.389
490599.936,4267433.429,-1174.894
490599.936,4267233.374,-1206.091
490599.936,4267033.319,-1238.506
490599.936,4266833.264,-1271.901
490599.936,4266633.209,-1305.415
490599.936,4266433.153,-1333.586
490599.936,4266233.098,-1357.417
490599.936,4266033.043,-1381.997
490599.936,4265832.988,-1400.327
490599.936,4265632.933,-1414.081
490599.936,4265432.878,-1428.913
490599.936,4265232.823,-1446.327
490599.936,4265032.768,-1469.030
490599.936,4264832.713,-1496.301
490599.936,4264632.657,-1517.687
490599.936,4264432.602,-1524.047
490599.936,4264232.547,-1517.904
490599.936,4264032.492,-1500.495
490599.936,4263832.437,-1467.250
490599.936,4263632.382,-1413.362
490599.936,4263432.327,-1353.631
490599.936,4263232.272,-1312.704
490599.936,4263032.216,-1291.506
490599.936,4262832.161,-1271.197
490599.936,4262632.106,-1243.851
490599.936,4262432.051,-1215.638
490599.936,4262231.996,-1191.302
490599.936,4262031.941,-1169.791
490599.936,4261831.886,-1149.715
490599.936,4261631.831,-1137.664
490599.936,4261431.775,-1136.358
490599.936,4261231.720,-1140.739
490599.936,4261031.665,-1145.729
490599.936,4260831.610,-1151.452
490599.936,4260631.555,-1160.042
490599.936,4260431.500,-1170.793
490599.936,4260231.445,-1180.096
490599.936,4260031.390,-1186.336
490599.936,4259831.335,-1189.979
490599.936,4259631.279,-1190.849
490599.936,4259431.224,-1190.091
490599.936,4259231.169,-1190.470
490599.936,4259031.114,-1193.445
490599.936,4258831.059,-1198.457
490599.936,4258631.004,-1205.531
490599.936,4258430.949,-1216.429
490599.936,4258230.894,-1232.703
490599.936,4258030.838,-1253.141
490599.936,4257830.783,-1274.971
490599.936,4257630.728,-1297.461
490599.936,4257430.673,-1321.018
490599.936,4257230.618,-1343.894
490599.936,4257030.563,-1362.858
490599.936,4256830.508,-1376.604
490599.936,4256630.453,-1386.713
490599.936,4256430.397,-1395.786
490599.936,4256230.342,-1405.396
490599.936,4256030.287,-1416.273
490599.936,4255830.232,-1428.507
490599.936,4255630.177,-1440.042
490599.936,4255430.122,-1448.894
490599.936,4255230.067,-1456.540
490599.936,4255030.012,-1466.392
490599.936,4254829.957,-1481.654
490599.936,4254629.901,-1502.113
490599.936,4254429.846,-1521.785
490599.936,4254229.791,-1530.240
490599.936,4254029.736,-1522.879
490800.001,4280837.122,-617.775
490800.001,4280637.067,-619.313
490800.001,4280437.012,-625.411
490800.001,4280236.957,-636.682
490800.001,4280036.902,-647.807
490800.001,4279836.847,-668.165
490800.001,4279636.791,-679.646
490800.001,4279436.736,-689.834
490800.001,4279236.681,-700.539
490800.001,4279036.626,-710.506
490800.001,4278836.571,-722.705
490800.001,4278636.516,-714.488
490800.001,4278436.461,-698.202
490800.001,4278236.406,-702.227
490800.001,4278036.350,-690.285
490800.001,4277836.295,-687.111
490800.001,4277636.240,-705.561
490800.001,4277436.185,-721.713
490800.001,4277236.130,-729.790
490800.001,4277036.075,-714.619
490800.001,4276836.020,-698.742
490800.001,4276635.965,-729.108
490800.001,4276435.909,-766.032
490800.001,4276235.854,-805.067
490800.001,4276035.799,-846.508
490800.001,4275835.744,-883.574
490800.001,4275635.689,-906.497
490800.001,4275435.634,-909.932
490800.001,4275235.579,-899.895
490800.001,4275035.524,-877.416
490800.001,4274835.469,-841.430
490800.001,4274635.413,-806.902
490800.001,4274435.358,-787.343
490800.001,4274235.303,-775.083
490800.001,4274035.248,-773.475
490800.001,4273835.193,-782.548
490800.001,4273635.138,-797.333
490800.001,4273435.083,-809.601
490800.001,4273235.028,-819.804
490800.001,4273034.972,-829.808
490800.001,4272834.917,-840.953
490800.001,4272634.862,-850.369
490800.001,4272434.807,-865.119
490800.001,4272234.752,-878.930
490800.001,4272034.697,-891.450
490800.001,4271834.642,-897.254
490800.001,4271634.587,-903.500
490800.001,4271434.531,-914.452
490800.001,4271234.476,-927.893
490800.001,4271034.421,-938.176
490800.001,4270834.366,-951.399
490800.001,4270634.311,-965.884
490800.001,4270434.256,-981.793
490800.001,4270234.201,-995.131
490800.001,4270034.146,-1005.619
490800.001,4269834.091,-1016.596
490800.001,4269634.035,-1028.045
490800.001,4269433.980,-1040.395
490800.001,4269233.925,-1051.495
490800.001,4269033.870,-1060.827
490800.001,4268833.815,-1070.593
490800.001,4268633.760,-1079.280
490800.001,4268433.705,-1086.617
490800.001,4268233.650,-1094.688
490800.001,4268033.594,-1105.575
490800.001,4267833.539,-1121.906
490800.001,4267633.484,-1144.938
490800.001,4267433.429,-1172.620
490800.001,4267233.374,-1201.264
490800.001,4267033.319,-1228.734
490800.001,4266833.264,-1254.391
490800.001,4266633.209,-1280.002
490800.001,4266433.153,-1305.846
490800.001,4266233.098,-1332.997
490800.001,4266033.043,-1361.962
490800.001,4265832.988,-1382.471
490800.001,4265632.933,-1394.213
490800.001,4265432.878,-1405.756
490800.001,4265232.823,-1418.783
490800.001,4265032.768,-1439.470
490800.001,4264832.713,-1472.412
490800.001,4264632.657,-1509.448
490800.001,4264432.602,-1537.323
490800.001,4264232.547,-1548.606
490800.001,4264032.492,-1540.569
490800.001,4263832.437,-1512.268
490800.001,4263632.382,-1468.648
490800.001,4263432.327,-1429.052
490800.001,4263232.272,-1389.726
490800.001,4263032.216,-1357.514
490800.001,4262832.161,-1323.194
490800.001,4262632.106,-1280.603
490800.001,4262432.051,-1238.171
490800.001,4262231.996,-1203.268
490800.001,4262031.941,-1178.480
490800.001,4261831.886,-1160.016
490800.001,4261631.831,-1150.317
490800.001,4261431.775,-1150.224
490800.001,4261231.720,-1155.302
490800.001,4261031.665,-1161.078
490800.001,4260831.610,-1167.656
490800.001,4260631.555,-1177.515
490800.001,4260431.500,-1189.978
490800.001,4260231.445,-1200.889
490800.001,4260031.390,-1207.464
490800.001,4259831.335,-1209.880
490800.001,4259631.279,-1208.239
490800.001,4259431.224,-1203.790
490800.001,4259231.169,-1199.593
490800.001,4259031.114,-1198.263
490800.001,4258831.059,-1200.703
490800.001,4258631.004,-1207.145
490800.001,4258430.949,-1218.092
490800.001,4258230.894,-1233.865
490800.001,4258030.838,-1253.323
490800.001,4257830.783,-1274.508
490800.001,4257630.728,-1296.524
490800.001,4257430.673,-1318.568
490800.001,4257230.618,-1338.643
490800.001,4257030.563,-1355.093
490800.001,4256830.508,-1368.334
490800.001,4256630.453,-1379.905
490800.001,4256430.397,-1390.944
490800.001,4256230.342,-1402.230
490800.001,4256030.287,-1414.745
490800.001,4255830.232,-1428.293
490800.001,4255630.177,-1439.765
490800.001,4255430.122,-1446.841
490800.001,4255230.067,-1453.088
490800.001,4255030.012,-1464.871
490800.001,4254829.957,-1484.643
490800.001,4254629.901,-1512.079
490800.001,4254429.846,-1538.558
490800.001,4254229.791,-1553.338
490800.001,4254029.736,-1553.614
491000.066,4280837.122,-620.644
491000.066,4280637.067,-622.093
491000.066,4280437.012,-628.323
491000.066,4280236.957,-639.872
491000.066,4280036.902,-650.976
491000.066,4279836.847,-671.898
491000.066,4279636.791,-683.241
491000.066,4279436.736,-693.595
491000.066,4279236.681,-704.341
491000.066,4279036.626,-714.656
491000.066,4278836.571,-727.030
491000.066,4278636.516,-718.542
491000.066,4278436.461,-704.405
491000.066,4278236.406,-709.654
491000.066,4278036.350,-698.262
491000.066,4277836.295,-694.745
491000.066,4277636.240,-714.627
491000.066,4277436.185,-734.598
491000.066,4277236.130,-748.986
491000.066,4277036.075,-731.864
491000.066,4276836.020,-760.043
