474519.982,4282310.159,-130.330
474519.982,4282260.158,-131.077
474519.982,4282210.157,-131.386
474519.982,4282160.156,-131.126
474519.982,4282110.155,-131.213
474519.982,4282060.154,-131.781
474519.982,4282010.153,-132.275
474519.982,4281960.153,-132.190
474519.982,4281910.152,-131.712
474519.982,4281860.151,-131.515
474519.982,4281810.150,-131.927
474519.982,4281760.149,-132.584
474519.982,4281710.148,-132.767
474519.982,4281660.147,-132.887
474519.982,4281610.147,-133.246
474519.982,4281560.146,-133.643
474519.982,4281510.145,-133.953
474519.982,4281460.144,-133.912
474519.982,4281410.143,-133.961
474519.982,4281360.142,-133.910
474519.982,4281310.141,-134.011
474519.982,4281260.140,-134.175
474519.982,4281210.140,-134.183
474519.982,4281160.139,-134.012
474519.982,4281110.138,-134.147
474519.982,4281060.137,-134.338
474519.982,4281010.136,-134.527
474519.982,4280960.135,-134.773
474519.982,4280910.134,-135.057
474519.982,4280860.134,-135.393
474519.982,4280810.133,-136.642
474519.982,4280760.132,-138.631
474519.982,4280710.131,-145.351
474519.982,4280660.130,-155.974
474519.982,4280610.129,-156.142
474519.982,4280560.128,-157.379
474569.983,4284610.198,-129.366
474569.983,4284560.198,-129.429
474569.983,4284510.197,-129.528
474569.983,4284460.196,-129.594
474569.983,4284410.195,-129.563
474569.983,4284360.194,-129.752
474569.983,4284310.193,-129.942
474569.983,4284260.192,-130.084
474569.983,4284210.191,-129.983
474569.983,4284160.191,-129.872
474569.983,4284110.190,-129.776
474569.983,4284060.189,-129.646
474569.983,4284010.188,-129.516
474569.983,4283960.187,-129.386
474569.983,4283910.186,-129.256
474569.983,4283860.185,-129.126
474569.983,4283810.185,-128.996
474569.983,4283760.184,-128.866
474569.983,4283710.183,-128.736
474569.983,4283660.182,-128.606
474569.983,4283610.181,-128.476
474569.983,4283560.180,-128.346
474569.983,4283510.179,-128.216
474569.983,4283460.179,-128.413
474569.983,4283410.178,-128.671
474569.983,4283360.177,-128.664
474569.983,4283310.176,-128.671
474569.983,4283260.175,-128.513
474569.983,4283210.174,-128.408
474569.983,4283160.173,-128.209
474569.983,4283110.172,-128.023
474569.983,4283060.172,-128.105
474569.983,4283010.171,-127.977
474569.983,4282960.170,-127.567
474569.983,4282910.169,-127.093
474569.983,4282860.168,-126.811
474569.983,4282810.167,-126.897
474569.983,4282760.166,-127.364
474569.983,4282710.166,-127.572
474569.983,4282660.165,-127.491
474569.983,4282610.164,-127.500
474569.983,4282560.163,-127.697
474569.983,4282510.162,-127.994
474569.983,4282460.161,-128.293
474569.983,4282410.160,-128.512
474569.983,4282360.160,-128.896
474569.983,4282310.159,-130.026
474569.983,4282260.158,-131.123
474569.983,4282210.157,-131.380
474569.983,4282160.156,-131.228
474569.983,4282110.155,-131.398
474569.983,4282060.154,-131.953
474569.983,4282010.153,-132.336
474569.983,4281960.153,-132.010
474569.983,4281910.152,-131.456
474569.983,4281860.151,-131.475
474569.983,4281810.150,-131.706
474569.983,4281760.149,-132.205
474569.983,4281710.148,-132.599
474569.983,4281660.147,-132.889
474569.983,4281610.147,-133.177
474569.983,4281560.146,-133.546
474569.983,4281510.145,-133.829
474569.983,4281460.144,-133.863
474569.983,4281410.143,-133.705
474569.983,4281360.142,-133.854
474569.983,4281310.141,-134.216
474569.983,4281260.140,-134.187
474569.983,4281210.140,-133.995
474569.983,4281160.139,-133.802
474569.983,4281110.138,-133.923
474569.983,4281060.137,-134.028
474569.983,4281010.136,-134.126
474569.983,4280960.135,-134.070
474569.983,4280910.134,-134.239
474569.983,4280860.134,-134.921
474569.983,4280810.133,-136.066
474569.983,4280760.132,-138.181
474569.983,4280710.131,-143.633
474569.983,4280660.130,-153.153
474569.983,4280610.129,-156.217
474619.984,4284610.198,-129.411
474619.984,4284560.198,-129.511
474619.984,4284510.197,-129.610
474619.984,4284460.196,-129.711
474619.984,4284410.195,-129.820
474619.984,4284360.194,-129.928
474619.984,4284310.193,-130.032
474619.984,4284260.192,-130.084
474619.984,4284210.191,-129.969
474619.984,4284160.191,-129.765
474619.984,4284110.190,-129.500
474619.984,4284060.189,-129.410
474619.984,4284010.188,-129.320
474619.984,4283960.187,-129.231
474619.984,4283910.186,-129.141
474619.984,4283860.185,-129.051
474619.984,4283810.185,-128.961
474619.984,4283760.184,-128.871
474619.984,4283710.183,-128.781
474619.984,4283660.182,-128.692
474619.984,4283610.181,-128.602
474619.984,4283560.180,-128.512
474619.984,4283510.179,-128.614
474619.984,4283460.179,-128.332
474619.984,4283410.178,-128.392
474619.984,4283360.177,-128.304
474619.984,4283310.176,-128.487
474619.984,4283260.175,-128.668
474619.984,4283210.174,-128.563
474619.984,4283160.173,-128.374
474619.984,4283110.172,-128.210
474619.984,4283060.172,-128.215
474619.984,4283010.171,-127.918
474619.984,4282960.170,-127.408
474619.984,4282910.169,-127.087
474619.984,4282860.168,-126.907
474619.984,4282810.167,-126.838
474619.984,4282760.166,-127.020
474619.984,4282710.166,-127.274
474619.984,4282660.165,-127.356
474619.984,4282610.164,-127.464
474619.984,4282560.163,-127.662
474619.984,4282510.162,-127.959
474619.984,4282460.161,-128.284
474619.984,4282410.160,-128.663
474619.984,4282360.160,-128.929
474619.984,4282310.159,-129.698
474619.984,4282260.158,-130.797
474619.984,4282210.157,-131.261
474619.984,4282160.156,-131.385
474619.984,4282110.155,-131.493
474619.984,4282060.154,-131.890
474619.984,4282010.153,-132.019
474619.984,4281960.153,-131.833
474619.984,4281910.152,-131.518
474619.984,4281860.151,-131.325
474619.984,4281810.150,-131.905
474619.984,4281760.149,-132.679
474619.984,4281710.148,-132.959
474619.984,4281660.147,-133.111
474619.984,4281610.147,-133.288
474619.984,4281560.146,-133.462
474619.984,4281510.145,-133.498
474619.984,4281460.144,-133.500
474619.984,4281410.143,-133.515
474619.984,4281360.142,-133.690
474619.984,4281310.141,-133.952
474619.984,4281260.140,-133.891
474619.984,4281210.140,-133.627
474619.984,4281160.139,-133.513
474619.984,4281110.138,-133.463
474619.984,4281060.137,-133.441
474619.984,4281010.136,-133.550
474619.984,4280960.135,-133.588
474619.984,4280910.134,-133.977
474619.984,4280860.134,-134.631
474619.984,4280810.133,-136.001
474619.984,4280760.132,-137.712
474619.984,4280710.131,-142.036
474619.984,4280660.130,-150.751
474669.985,4284610.198,-129.320
474669.985,4284560.198,-129.420
474669.985,4284510.197,-129.519
474669.985,4284460.196,-129.636
474669.985,4284410.195,-129.826
474669.985,4284360.194,-130.017
474669.985,4284310.193,-130.161
474669.985,4284260.192,-130.078
474669.985,4284210.191,-129.992
474669.985,4284160.191,-129.906
474669.985,4284110.190,-129.660
474669.985,4284060.189,-129.791
474669.985,4284010.188,-129.734
474669.985,4283960.187,-129.676
474669.985,4283910.186,-129.619
474669.985,4283860.185,-129.561
474669.985,4283810.185,-129.504
474669.985,4283760.184,-129.447
474669.985,4283710.183,-129.389
474669.985,4283660.182,-129.332
474669.985,4283610.181,-129.275
474669.985,4283560.180,-129.217
474669.985,4283510.179,-129.011
474669.985,4283460.179,-128.576
474669.985,4283410.178,-128.387
474669.985,4283360.177,-128.234
474669.985,4283310.176,-128.261
474669.985,4283260.175,-128.417
474669.985,4283210.174,-128.295
474669.985,4283160.173,-128.205
474669.985,4283110.172,-128.309
474669.985,4283060.172,-128.492
474669.985,4283010.171,-128.268
474669.985,4282960.170,-127.574
474669.985,4282910.169,-126.991
474669.985,4282860.168,-126.979
474669.985,4282810.167,-127.175
474669.985,4282760.166,-127.174
474669.985,4282710.166,-126.992
474669.985,4282660.165,-126.908
474669.985,4282610.164,-127.098
474669.985,4282560.163,-127.306
474669.985,4282510.162,-127.595
474669.985,4282460.161,-128.162
474669.985,4282410.160,-128.378
474669.985,4282360.160,-128.327
474669.985,4282310.159,-128.981
474669.985,4282260.158,-130.211
474669.985,4282210.157,-131.035
474669.985,4282160.156,-131.280
474669.985,4282110.155,-131.472
474669.985,4282060.154,-131.990
474669.985,4282010.153,-132.212
474669.985,4281960.153,-132.002
474669.985,4281910.152,-131.478
474669.985,4281860.151,-131.433
474669.985,4281810.150,-131.585
474669.985,4281760.149,-132.210
474669.985,4281710.148,-132.739
474669.985,4281660.147,-133.320
474669.985,4281610.147,-133.405
474669.985,4281560.146,-133.327
474669.985,4281510.145,-133.463
474669.985,4281460.144,-133.498
474669.985,4281410.143,-133.673
474669.985,4281360.142,-133.879
474669.985,4281310.141,-133.908
474669.985,4281260.140,-133.653
474669.985,4281210.140,-133.432
474669.985,4281160.139,-133.456
474669.985,4281110.138,-133.070
474669.985,4281060.137,-132.826
474669.985,4281010.136,-133.177
474669.985,4280960.135,-133.429
474669.985,4280910.134,-133.650
474669.985,4280860.134,-134.225
474669.985,4280810.133,-135.041
474669.985,4280760.132,-136.314
474669.985,4280710.131,-139.733
474669.985,4280660.130,-147.768
474719.986,4284610.198,-129.319
474719.986,4284560.198,-129.412
474719.986,4284510.197,-129.511
474719.986,4284460.196,-129.609
474719.986,4284410.195,-129.703
474719.986,4284360.194,-129.804
474719.986,4284310.193,-129.911
474719.986,4284260.192,-130.018
474719.986,4284210.191,-130.093
474719.986,4284160.191,-129.986
474719.986,4284110.190,-129.820
474719.986,4284060.189,-129.706
474719.986,4284010.188,-129.593
474719.986,4283960.187,-129.480
474719.986,4283910.186,-129.367
474719.986,4283860.185,-129.254
474719.986,4283810.185,-129.141
474719.986,4283760.184,-129.028
474719.986,4283710.183,-128.915
474719.986,4283660.182,-128.802
474719.986,4283610.181,-128.688
474719.986,4283560.180,-128.575
474719.986,4283510.179,-128.559
474719.986,4283460.179,-128.521
474719.986,4283410.178,-128.429
474719.986,4283360.177,-128.607
474719.986,4283310.176,-128.794
474719.986,4283260.175,-128.685
474719.986,4283210.174,-128.317
474719.986,4283160.173,-128.220
474719.986,4283110.172,-128.316
474719.986,4283060.172,-128.473
474719.986,4283010.171,-128.153
474719.986,4282960.170,-127.468
474719.986,4282910.169,-126.903
474719.986,4282860.168,-126.703
474719.986,4282810.167,-126.869
474719.986,4282760.166,-126.862
474719.986,4282710.166,-126.877
474719.986,4282660.165,-126.992
474719.986,4282610.164,-127.092
474719.986,4282560.163,-127.381
474719.986,4282510.162,-127.581
474719.986,4282460.161,-127.878
474719.986,4282410.160,-128.176
474719.986,4282360.160,-128.556
474719.986,4282310.159,-129.028
474719.986,4282260.158,-129.811
474719.986,4282210.157,-130.723
474719.986,4282160.156,-131.155
474719.986,4282110.155,-131.257
474719.986,4282060.154,-131.183
474719.986,4282010.153,-131.363
474719.986,4281960.153,-131.732
474719.986,4281910.152,-131.769
474719.986,4281860.151,-131.769
474719.986,4281810.150,-131.595
474719.986,4281760.149,-131.938
474719.986,4281710.148,-132.619
474719.986,4281660.147,-133.152
474719.986,4281610.147,-133.460
474719.986,4281560.146,-133.479
474719.986,4281510.145,-133.302
474719.986,4281460.144,-133.451
474719.986,4281410.143,-133.644
474719.986,4281360.142,-133.901
474719.986,4281310.141,-133.932
474719.986,4281260.140,-133.702
474719.986,4281210.140,-133.427
474719.986,4281160.139,-133.120
474719.986,4281110.138,-132.877
474719.986,4281060.137,-132.685
474719.986,4281010.136,-132.743
474719.986,4280960.135,-133.039
474719.986,4280910.134,-133.501
474719.986,4280860.134,-133.760
474719.986,4280810.133,-134.128
474719.986,4280760.132,-135.141
474719.986,4280710.131,-138.117
474719.986,4280660.130,-145.662
474719.986,4280610.129,-156.441
474769.987,4284610.198,-129.401
474769.987,4284560.198,-129.318
474769.987,4284510.197,-129.416
474769.987,4284460.196,-129.486
474769.987,4284410.195,-129.504
474769.987,4284360.194,-129.623
474769.987,4284310.193,-129.834
474769.987,4284260.192,-130.031
474769.987,4284210.191,-130.185
474769.987,4284160.191,-130.163
474769.987,4284110.190,-130.082
474769.987,4284060.189,-130.024
474769.987,4284010.188,-129.966
474769.987,4283960.187,-129.909
474769.987,4283910.186,-129.851
474769.987,4283860.185,-129.793
474769.987,4283810.185,-129.735
474769.987,4283760.184,-129.678
474769.987,4283710.183,-129.620
474769.987,4283660.182,-129.562
474769.987,4283610.181,-129.505
474769.987,4283560.180,-129.447
474769.987,4283510.179,-129.239
474769.987,4283460.179,-128.869
474769.987,4283410.178,-128.593
474769.987,4283360.177,-128.534
474769.987,4283310.176,-128.800
474769.987,4283260.175,-128.795
474769.987,4283210.174,-128.597
474769.987,4283160.173,-128.414
474769.987,4283110.172,-128.402
474769.987,4283060.172,-128.284
474769.987,4283010.171,-127.873
474769.987,4282960.170,-127.306
474769.987,4282910.169,-127.022
474769.987,4282860.168,-126.732
474769.987,4282810.167,-126.527
474769.987,4282760.166,-126.444
474769.987,4282710.166,-126.636
474769.987,4282660.165,-126.899
474769.987,4282610.164,-126.999
474769.987,4282560.163,-127.197
474769.987,4282510.162,-127.396
474769.987,4282460.161,-127.707
474769.987,4282410.160,-127.999
474769.987,4282360.160,-128.200
474769.987,4282310.159,-128.399
474769.987,4282260.158,-129.158
474769.987,4282210.157,-130.320
474769.987,4282160.156,-130.865
474769.987,4282110.155,-130.806
474769.987,4282060.154,-130.880
474769.987,4282010.153,-131.045
474769.987,4281960.153,-131.249
474769.987,4281910.152,-131.369
474769.987,4281860.151,-131.366
474769.987,4281810.150,-131.280
474769.987,4281760.149,-131.665
474769.987,4281710.148,-132.528
474769.987,4281660.147,-133.233
474769.987,4281610.147,-133.383
474769.987,4281560.146,-133.223
474769.987,4281510.145,-133.050
474769.987,4281460.144,-133.203
474769.987,4281410.143,-133.315
474769.987,4281360.142,-133.248
474769.987,4281310.141,-133.144
474769.987,4281260.140,-133.195
474769.987,4281210.140,-133.189
474769.987,4281160.139,-132.784
474769.987,4281110.138,-132.206
474769.987,4281060.137,-132.101
474769.987,4281010.136,-132.265
474769.987,4280960.135,-132.909
474769.987,4280910.134,-133.351
474769.987,4280860.134,-133.688
474769.987,4280810.133,-134.192
474769.987,4280760.132,-134.956
474769.987,4280710.131,-137.382
474769.987,4280660.130,-144.416
474769.987,4280610.129,-155.286
474819.988,4284610.198,-129.483
474819.988,4284560.198,-129.454
474819.988,4284510.197,-129.544
474819.988,4284460.196,-129.325
474819.988,4284410.195,-129.338
474819.988,4284360.194,-129.486
474819.988,4284310.193,-129.833
474819.988,4284260.192,-129.993
474819.988,4284210.191,-129.979
474819.988,4284160.191,-129.885
474819.988,4284110.190,-129.800
474819.988,4284060.189,-129.728
474819.988,4284010.188,-129.656
474819.988,4283960.187,-129.585
474819.988,4283910.186,-129.513
474819.988,4283860.185,-129.441
474819.988,4283810.185,-129.369
474819.988,4283760.184,-129.298
474819.988,4283710.183,-129.226
474819.988,4283660.182,-129.154
474819.988,4283610.181,-129.082
474819.988,4283560.180,-129.010
474819.988,4283510.179,-128.909
474819.988,4283460.179,-128.784
474819.988,4283410.178,-128.614
474819.988,4283360.177,-128.706
474819.988,4283310.176,-128.793
474819.988,4283260.175,-128.862
474819.988,4283210.174,-128.676
474819.988,4283160.173,-128.589
474819.988,4283110.172,-128.491
474819.988,4283060.172,-128.287
474819.988,4283010.171,-127.809
474819.988,4282960.170,-127.509
474819.988,4282910.169,-127.376
474819.988,4282860.168,-127.188
474819.988,4282810.167,-126.908
474819.988,4282760.166,-126.994
474819.988,4282710.166,-127.080
474819.988,4282660.165,-126.907
474819.988,4282610.164,-127.006
474819.988,4282560.163,-127.197
474819.988,4282510.162,-127.396
474819.988,4282460.161,-127.888
474819.988,4282410.160,-128.101
474819.988,4282360.160,-128.306
474819.988,4282310.159,-128.505
474819.988,4282260.158,-129.080
474819.988,4282210.157,-130.063
474819.988,4282160.156,-130.787
474819.988,4282110.155,-130.820
474819.988,4282060.154,-130.696
474819.988,4282010.153,-130.507
474819.988,4281960.153,-130.789
474819.988,4281910.152,-131.107
474819.988,4281860.151,-130.938
474819.988,4281810.150,-130.896
474819.988,4281760.149,-131.677
474819.988,4281710.148,-132.772
474819.988,4281660.147,-133.357
474819.988,4281610.147,-133.313
474819.988,4281560.146,-133.200
474819.988,4281510.145,-133.345
474819.988,4281460.144,-133.530
474819.988,4281410.143,-133.647
474819.988,4281360.142,-133.672
474819.988,4281310.141,-133.514
474819.988,4281260.140,-133.317
474819.988,4281210.140,-133.022
474819.988,4281160.139,-132.811
474819.988,4281110.138,-132.323
474819.988,4281060.137,-132.144
474819.988,4281010.136,-132.275
474819.988,4280960.135,-132.296
474819.988,4280910.134,-132.375
474819.988,4280860.134,-132.954
474819.988,4280810.133,-134.030
474819.988,4280760.132,-135.144
474819.988,4280710.131,-137.102
474819.988,4280660.130,-142.744
474819.988,4280610.129,-152.940
474869.989,4284610.198,-129.565
474869.989,4284560.198,-129.590
474869.989,4284510.197,-129.672
474869.989,4284460.196,-129.667
474869.989,4284410.195,-129.618
474869.989,4284360.194,-129.718
474869.989,4284310.193,-129.817
474869.989,4284260.192,-129.900
474869.989,4284210.191,-129.899
474869.989,4284160.191,-129.878
474869.989,4284110.190,-129.790
474869.989,4284060.189,-129.744
474869.989,4284010.188,-129.698
474869.989,4283960.187,-129.652
474869.989,4283910.186,-129.606
474869.989,4283860.185,-129.560
474869.989,4283810.185,-129.514
474869.989,4283760.184,-129.469
474869.989,4283710.183,-129.423
474869.989,4283660.182,-129.377
474869.989,4283610.181,-129.331
474869.989,4283560.180,-129.285
474869.989,4283510.179,-129.161
474869.989,4283460.179,-128.804
474869.989,4283410.178,-128.712
474869.989,4283360.177,-128.711
474869.989,4283310.176,-128.616
474869.989,4283260.175,-128.500
474869.989,4283210.174,-128.406
474869.989,4283160.173,-128.500
474869.989,4283110.172,-128.502
474869.989,4283060.172,-128.394
474869.989,4283010.171,-128.086
474869.989,4282960.170,-127.677
474869.989,4282910.169,-127.093
474869.989,4282860.168,-127.062
474869.989,4282810.167,-126.957
474869.989,4282760.166,-126.876
474869.989,4282710.166,-126.801
474869.989,4282660.165,-127.011
474869.989,4282610.164,-127.111
474869.989,4282560.163,-127.199
474869.989,4282510.162,-127.379
474869.989,4282460.161,-127.841
474869.989,4282410.160,-128.149
474869.989,4282360.160,-128.454
474869.989,4282310.159,-128.668
474869.989,4282260.158,-129.165
474869.989,4282210.157,-130.228
474869.989,4282160.156,-131.116
474869.989,4282110.155,-131.070
474869.989,4282060.154,-130.520
474869.989,4282010.153,-130.417
474869.989,4281960.153,-130.994
474869.989,4281910.152,-131.577
474869.989,4281860.151,-131.248
474869.989,4281810.150,-130.838
474869.989,4281760.149,-131.150
474869.989,4281710.148,-132.508
474869.989,4281660.147,-133.462
474869.989,4281610.147,-133.308
474869.989,4281560.146,-133.017
474869.989,4281510.145,-132.910
474869.989,4281460.144,-132.910
474869.989,4281410.143,-133.065
474869.989,4281360.142,-133.255
474869.989,4281310.141,-133.272
474869.989,4281260.140,-133.100
474869.989,4281210.140,-132.663
474869.989,4281160.139,-132.514
474869.989,4281110.138,-132.657
474869.989,4281060.137,-132.542
474869.989,4281010.136,-132.434
474869.989,4280960.135,-132.254
474869.989,4280910.134,-132.299
474869.989,4280860.134,-132.798
474869.989,4280810.133,-133.560
474869.989,4280760.132,-134.662
474869.989,4280710.131,-136.453
474869.989,4280660.130,-141.817
474869.989,4280610.129,-151.300
474919.990,4284610.198,-129.020
474919.990,4284560.198,-129.119
474919.990,4284510.197,-129.233
474919.990,4284460.196,-129.432
474919.990,4284410.195,-129.613
474919.990,4284360.194,-129.712
474919.990,4284310.193,-129.812
474919.990,4284260.192,-129.895
474919.990,4284210.191,-129.880
474919.990,4284160.191,-129.769
474919.990,4284110.190,-129.600
474919.990,4284060.189,-129.562
474919.990,4284010.188,-129.525
474919.990,4283960.187,-129.487
474919.990,4283910.186,-129.449
474919.990,4283860.185,-129.411
474919.990,4283810.185,-129.374
474919.990,4283760.184,-129.336
474919.990,4283710.183,-129.298
474919.990,4283660.182,-129.260
474919.990,4283610.181,-129.223
474919.990,4283560.180,-129.185
474919.990,4283510.179,-129.081
474919.990,4283460.179,-128.982
474919.990,4283410.178,-128.908
474919.990,4283360.177,-129.000
474919.990,4283310.176,-128.969
474919.990,4283260.175,-128.594
474919.990,4283210.174,-128.421
474919.990,4283160.173,-128.515
474919.990,4283110.172,-128.595
474919.990,4283060.172,-128.468
474919.990,4283010.171,-128.073
474919.990,4282960.170,-127.589
474919.990,4282910.169,-127.010
474919.990,4282860.168,-126.518
474919.990,4282810.167,-126.324
474919.990,4282760.166,-126.508
474919.990,4282710.166,-126.801
474919.990,4282660.165,-127.194
474919.990,4282610.164,-127.288
474919.990,4282560.163,-127.206
474919.990,4282510.162,-127.128
474919.990,4282460.161,-127.143
474919.990,4282410.160,-127.511
474919.990,4282360.160,-127.892
474919.990,4282310.159,-128.285
474919.990,4282260.158,-128.953
474919.990,4282210.157,-129.944
474919.990,4282160.156,-130.577
474919.990,4282110.155,-130.512
474919.990,4282060.154,-130.220
474919.990,4282010.153,-130.572
474919.990,4281960.153,-131.597
474919.990,4281910.152,-131.934
474919.990,4281860.151,-131.419
474919.990,4281810.150,-130.852
474919.990,4281760.149,-130.981
474919.990,4281710.148,-131.893
474919.990,4281660.147,-132.788
474919.990,4281610.147,-132.898
474919.990,4281560.146,-132.743
474919.990,4281510.145,-132.878
474919.990,4281460.144,-133.065
474919.990,4281410.143,-132.930
474919.990,4281360.142,-132.996
474919.990,4281310.141,-132.849
474919.990,4281260.140,-132.633
474919.990,4281210.140,-132.413
474919.990,4281160.139,-132.453
474919.990,4281110.138,-132.477
474919.990,4281060.137,-132.649
474919.990,4281010.136,-132.675
474919.990,4280960.135,-132.522
474919.990,4280910.134,-132.575
474919.990,4280860.134,-132.986
474919.990,4280810.133,-133.797
474919.990,4280760.132,-134.687
474919.990,4280710.131,-135.899
474919.990,4280660.130,-139.775
474919.990,4280610.129,-149.022
474969.991,4284610.198,-129.070
474969.991,4284560.198,-129.106
474969.991,4284510.197,-129.148
474969.991,4284460.196,-129.346
474969.991,4284410.195,-129.522
474969.991,4284360.194,-129.618
474969.991,4284310.193,-129.717
474969.991,4284260.192,-129.801
474969.991,4284210.191,-129.804
474969.991,4284160.191,-129.770
474969.991,4284110.190,-129.604
474969.991,4284060.189,-129.563
474969.991,4284010.188,-129.522
474969.991,4283960.187,-129.480
474969.991,4283910.186,-129.439
474969.991,4283860.185,-129.398
474969.991,4283810.185,-129.356
474969.991,4283760.184,-129.315
474969.991,4283710.183,-129.274
474969.991,4283660.182,-129.233
474969.991,4283610.181,-129.191
474969.991,4283560.180,-129.092
474969.991,4283510.179,-128.905
474969.991,4283460.179,-128.811
474969.991,4283410.178,-128.893
474969.991,4283360.177,-128.974
474969.991,4283310.176,-128.878
474969.991,4283260.175,-128.705
474969.991,4283210.174,-128.709
474969.991,4283160.173,-128.695
474969.991,4283110.172,-128.572
474969.991,4283060.172,-128.174
474969.991,4283010.171,-127.884
474969.991,4282960.170,-127.682
474969.991,4282910.169,-127.384
474969.991,4282860.168,-126.906
474969.991,4282810.167,-126.703
474969.991,4282760.166,-126.602
474969.991,4282710.166,-126.801
474969.991,4282660.165,-127.080
474969.991,4282610.164,-127.090
474969.991,4282560.163,-127.288
474969.991,4282510.162,-127.594
474969.991,4282460.161,-127.893
474969.991,4282410.160,-127.905
474969.991,4282360.160,-127.992
474969.991,4282310.159,-128.279
474969.991,4282260.158,-128.682
474969.991,4282210.157,-129.845
474969.991,4282160.156,-130.746
474969.991,4282110.155,-130.598
474969.991,4282060.154,-130.212
474969.991,4282010.153,-130.557
474969.991,4281960.153,-131.232
474969.991,4281910.152,-131.194
474969.991,4281860.151,-130.824
474969.991,4281810.150,-130.795
474969.991,4281760.149,-130.985
474969.991,4281710.148,-131.787
474969.991,4281660.147,-132.505
474969.991,4281610.147,-132.860
474969.991,4281560.146,-133.076
474969.991,4281510.145,-132.933
474969.991,4281460.144,-132.901
474969.991,4281410.143,-132.974
474969.991,4281360.142,-133.158
474969.991,4281310.141,-133.177
474969.991,4281260.140,-132.674
474969.991,4281210.140,-132.107
474969.991,4281160.139,-131.935
474969.991,4281110.138,-132.070
474969.991,4281060.137,-132.333
474969.991,4281010.136,-132.232
474969.991,4280960.135,-132.286
474969.991,4280910.134,-132.483
474969.991,4280860.134,-132.694
474969.991,4280810.133,-133.357
474969.991,4280760.132,-134.141
474969.991,4280710.131,-135.308
474969.991,4280660.130,-138.854
474969.991,4280610.129,-147.635
475019.992,4284610.198,-129.120
475019.992,4284560.198,-129.219
475019.992,4284510.197,-129.333
475019.992,4284460.196,-129.510
475019.992,4284410.195,-129.593
475019.992,4284360.194,-129.618
475019.992,4284310.193,-129.717
475019.992,4284260.192,-129.816
475019.992,4284210.191,-129.879
475019.992,4284160.191,-129.774
475019.992,4284110.190,-129.682
475019.992,4284060.189,-129.618
475019.992,4284010.188,-129.555
475019.992,4283960.187,-129.491
475019.992,4283910.186,-129.427
475019.992,4283860.185,-129.364
475019.992,4283810.185,-129.300
475019.992,4283760.184,-129.237
475019.992,4283710.183,-129.173
475019.992,4283660.182,-129.109
475019.992,4283610.181,-129.201
475019.992,4283560.180,-129.278
475019.992,4283510.179,-129.163
475019.992,4283460.179,-128.882
475019.992,4283410.178,-128.625
475019.992,4283360.177,-128.627
475019.992,4283310.176,-128.710
475019.992,4283260.175,-128.798
475019.992,4283210.174,-128.881
475019.992,4283160.173,-128.685
475019.992,4283110.172,-128.382
475019.992,4283060.172,-127.896
475019.992,4283010.171,-127.685
475019.992,4282960.170,-127.486
475019.992,4282910.169,-127.287
475019.992,4282860.168,-127.090
475019.992,4282810.167,-126.802
475019.992,4282760.166,-126.606
475019.992,4282710.166,-126.800
475019.992,4282660.165,-126.709
475019.992,4282610.164,-126.903
475019.992,4282560.163,-127.102
475019.992,4282510.162,-127.574
475019.992,4282460.161,-127.872
475019.992,4282410.160,-127.980
475019.992,4282360.160,-127.903
475019.992,4282310.159,-128.104
475019.992,4282260.158,-128.682
475019.992,4282210.157,-129.916
475019.992,4282160.156,-130.640
475019.992,4282110.155,-130.323
475019.992,4282060.154,-129.934
475019.992,4282010.153,-130.260
475019.992,4281960.153,-130.922
475019.992,4281910.152,-130.898
475019.992,4281860.151,-130.641
475019.992,4281810.150,-130.704
475019.992,4281760.149,-131.066
475019.992,4281710.148,-131.358
475019.992,4281660.147,-132.105
475019.992,4281610.147,-132.732
475019.992,4281560.146,-133.083
475019.992,4281510.145,-133.129
475019.992,4281460.144,-132.948
475019.992,4281410.143,-132.744
475019.992,4281360.142,-132.875
475019.992,4281310.141,-132.725
475019.992,4281260.140,-132.363
475019.992,4281210.140,-132.378
475019.992,4281160.139,-132.307
475019.992,4281110.138,-132.128
475019.992,4281060.137,-132.009
475019.992,4281010.136,-132.149
475019.992,4280960.135,-132.354
475019.992,4280910.134,-132.887
475019.992,4280860.134,-133.330
475019.992,4280810.133,-133.650
475019.992,4280760.132,-134.181
475019.992,4280710.131,-134.848
475019.992,4280660.130,-137.726
475019.992,4280610.129,-146.197
475019.992,4280560.128,-157.623
475069.993,4284610.198,-129.128
475069.993,4284560.198,-129.204
475069.993,4284510.197,-129.226
475069.993,4284460.196,-129.322
475069.993,4284410.195,-129.435
475069.993,4284360.194,-129.614
475069.993,4284310.193,-129.713
475069.993,4284260.192,-129.796
475069.993,4284210.191,-129.765
475069.993,4284160.191,-129.541
475069.993,4284110.190,-129.200
475069.993,4284060.189,-129.180
475069.993,4284010.188,-129.160
475069.993,4283960.187,-129.140
475069.993,4283910.186,-129.120
475069.993,4283860.185,-129.100
475069.993,4283810.185,-129.080
475069.993,4283760.184,-129.060
475069.993,4283710.183,-129.040
475069.993,4283660.182,-129.460
475069.993,4283610.181,-129.000
475069.993,4283560.180,-128.991
475069.993,4283510.179,-128.909
475069.993,4283460.179,-129.016
475069.993,4283410.178,-129.188
475069.993,4283360.177,-129.068
475069.993,4283310.176,-128.776
475069.993,4283260.175,-128.599
475069.993,4283210.174,-128.693
475069.993,4283160.173,-128.690
475069.993,4283110.172,-128.482
475069.993,4283060.172,-127.995
475069.993,4283010.171,-127.515
475069.993,4282960.170,-127.313
475069.993,4282910.169,-127.116
475069.993,4282860.168,-127.002
475069.993,4282810.167,-126.894
475069.993,4282760.166,-126.701
475069.993,4282710.166,-126.797
475069.993,4282660.165,-126.900
475069.993,4282610.164,-126.996
475069.993,4282560.163,-127.194
475069.993,4282510.162,-127.204
475069.993,4282460.161,-127.399
475069.993,4282410.160,-127.598
475069.993,4282360.160,-127.890
475069.993,4282310.159,-128.370
475069.993,4282260.158,-128.863
475069.993,4282210.157,-129.473
475069.993,4282160.156,-130.169
475069.993,4282110.155,-130.291
475069.993,4282060.154,-130.109
475069.993,4282010.153,-130.003
475069.993,4281960.153,-130.359
475069.993,4281910.152,-130.675
475069.993,4281860.151,-130.971
475069.993,4281810.150,-130.993
475069.993,4281760.149,-131.163
475069.993,4281710.148,-131.102
475069.993,4281660.147,-131.883
475069.993,4281610.147,-132.704
475069.993,4281560.146,-133.489
475069.993,4281510.145,-133.747
475069.993,4281460.144,-133.438
475069.993,4281410.143,-133.135
475069.993,4281360.142,-132.924
475069.993,4281310.141,-132.633
475069.993,4281260.140,-132.416
475069.993,4281210.140,-132.222
475069.993,4281160.139,-132.105
475069.993,4281110.138,-132.002
475069.993,4281060.137,-131.832
475069.993,4281010.136,-131.806
475069.993,4280960.135,-132.132
475069.993,4280910.134,-132.837
475069.993,4280860.134,-133.473
475069.993,4280810.133,-133.839
475069.993,4280760.132,-134.213
475069.993,4280710.131,-134.692
475069.993,4280660.130,-137.000
475069.993,4280610.129,-145.000
475069.993,4280560.128,-156.935
475119.994,4284610.198,-129.136
475119.994,4284560.198,-129.253
475119.994,4284510.197,-129.361
475119.994,4284460.196,-129.384
475119.994,4284410.195,-129.412
475119.994,4284360.194,-129.515
475119.994,4284310.193,-129.617
475119.994,4284260.192,-129.699
475119.994,4284210.191,-129.680
475119.994,4284160.191,-129.594
475119.994,4284110.190,-129.300
475119.994,4284060.189,-129.488
475119.994,4284010.188,-129.436
475119.994,4283960.187,-129.383
475119.994,4283910.186,-129.330
475119.994,4283860.185,-129.277
475119.994,4283810.185,-129.225
475119.994,4283760.184,-129.172
475119.994,4283710.183,-129.119
475119.994,4283660.182,-129.811
475119.994,4283610.181,-129.385
475119.994,4283560.180,-129.245
475119.994,4283510.179,-128.908
475119.994,4283460.179,-129.008
475119.994,4283410.178,-129.078
475119.994,4283360.177,-128.789
475119.994,4283310.176,-128.509
475119.994,4283260.175,-128.425
475119.994,4283210.174,-128.529
475119.994,4283160.173,-128.704
475119.994,4283110.172,-128.588
475119.994,4283060.172,-128.376
475119.994,4283010.171,-128.081
475119.994,4282960.170,-127.794
475119.994,4282910.169,-127.588
475119.994,4282860.168,-127.095
475119.994,4282810.167,-126.799
475119.994,4282760.166,-126.703
475119.994,4282710.166,-126.707
475119.994,4282660.165,-126.903
475119.994,4282610.164,-126.903
475119.994,4282560.163,-127.101
475119.994,4282510.162,-127.309
475119.994,4282460.161,-127.508
475119.994,4282410.160,-127.698
475119.994,4282360.160,-127.896
475119.994,4282310.159,-128.104
475119.994,4282260.158,-128.495
475119.994,4282210.157,-129.549
475119.994,4282160.156,-130.356
475119.994,4282110.155,-130.221
475119.994,4282060.154,-130.017
475119.994,4282010.153,-129.907
475119.994,4281960.153,-130.079
475119.994,4281910.152,-130.631
475119.994,4281860.151,-130.861
475119.994,4281810.150,-130.796
475119.994,4281760.149,-130.706
475119.994,4281710.148,-130.871
475119.994,4281660.147,-131.331
475119.994,4281610.147,-132.538
475119.994,4281560.146,-133.057
475119.994,4281510.145,-133.032
475119.994,4281460.144,-133.101
475119.994,4281410.143,-133.012
475119.994,4281360.142,-132.822
475119.994,4281310.141,-132.371
475119.994,4281260.140,-132.047
475119.994,4281210.140,-132.008
475119.994,4281160.139,-131.847
475119.994,4281110.138,-131.649
475119.994,4281060.137,-131.774
475119.994,4281010.136,-131.969
475119.994,4280960.135,-132.249
475119.994,4280910.134,-132.479
475119.994,4280860.134,-133.148
475119.994,4280810.133,-133.769
475119.994,4280760.132,-134.052
475119.994,4280710.131,-134.585
475119.994,4280660.130,-136.833
475119.994,4280610.129,-144.046
475119.994,4280560.128,-155.913
475169.995,4284610.198,-126.578
475169.995,4284560.198,-127.241
475169.995,4284510.197,-128.177
475169.995,4284460.196,-128.878
475169.995,4284410.195,-129.231
475169.995,4284360.194,-129.427
475169.995,4284310.193,-129.607
475169.995,4284260.192,-129.677
475169.995,4284210.191,-129.566
475169.995,4284160.191,-129.402
475169.995,4284110.190,-129.400
475169.995,4284060.189,-129.511
475169.995,4284010.188,-129.623
475169.995,4283960.187,-129.734
475169.995,4283910.186,-129.846
475169.995,4283860.185,-129.957
475169.995,4283810.185,-130.069
475169.995,4283760.184,-130.180
475169.995,4283710.183,-130.292
475169.995,4283660.182,-130.161
475169.995,4283610.181,-129.771
475169.995,4283560.180,-129.500
475169.995,4283510.179,-129.109
475169.995,4283460.179,-129.056
475169.995,4283410.178,-129.143
475169.995,4283360.177,-129.093
475169.995,4283310.176,-129.000
475169.995,4283260.175,-129.006
475169.995,4283210.174,-129.094
475169.995,4283160.173,-128.973
475169.995,4283110.172,-128.475
475169.995,4283060.172,-127.995
475169.995,4283010.171,-127.805
475169.995,4282960.170,-127.786
475169.995,4282910.169,-127.578
475169.995,4282860.168,-127.089
475169.995,4282810.167,-126.797
475169.995,4282760.166,-126.801
475169.995,4282710.166,-126.898
475169.995,4282660.165,-126.992
475169.995,4282610.164,-127.000
475169.995,4282560.163,-127.200
475169.995,4282510.162,-127.681
475169.995,4282460.161,-127.883
475169.995,4282410.160,-127.798
475169.995,4282360.160,-127.991
475169.995,4282310.159,-128.473
475169.995,4282260.158,-128.872
475169.995,4282210.157,-129.657
475169.995,4282160.156,-130.364
475169.995,4282110.155,-130.492
475169.995,4282060.154,-130.119
475169.995,4282010.153,-129.904
475169.995,4281960.153,-129.890
475169.995,4281910.152,-129.984
475169.995,4281860.151,-130.180
475169.995,4281810.150,-130.381
475169.995,4281760.149,-130.576
475169.995,4281710.148,-130.597
475169.995,4281660.147,-130.863
475169.995,4281610.147,-132.044
475169.995,4281560.146,-133.160
475169.995,4281510.145,-133.636
475169.995,4281460.144,-133.515
475169.995,4281410.143,-132.974
475169.995,4281360.142,-132.634
475169.995,4281310.141,-132.336
475169.995,4281260.140,-132.122
475169.995,4281210.140,-132.259
475169.995,4281160.139,-132.285
475169.995,4281110.138,-132.120
475169.995,4281060.137,-132.006
475169.995,4281010.136,-132.081
475169.995,4280960.135,-132.344
475169.995,4280910.134,-132.957
475169.995,4280860.134,-133.170
475169.995,4280810.133,-133.353
475169.995,4280760.132,-133.794
475169.995,4280710.131,-134.839
475169.995,4280660.130,-136.972
475169.995,4280610.129,-143.820
475169.995,4280560.128,-155.372
475219.996,4284610.198,-128.746
475219.996,4284560.198,-128.942
475219.996,4284510.197,-129.082
475219.996,4284460.196,-129.004
475219.996,4284410.195,-129.022
475219.996,4284360.194,-129.122
475219.996,4284310.193,-129.237
475219.996,4284260.192,-129.416
475219.996,4284210.191,-129.498
475219.996,4284160.191,-129.497
475219.996,4284110.190,-129.333
475219.996,4284060.189,-129.691
475219.996,4284010.188,-129.789
475219.996,4283960.187,-129.886
475219.996,4283910.186,-129.984
475219.996,4283860.185,-130.081
475219.996,4283810.185,-130.179
475219.996,4283760.184,-130.276
475219.996,4283710.183,-130.373
475219.996,4283660.182,-130.234
475219.996,4283610.181,-129.764
475219.996,4283560.180,-129.484
475219.996,4283510.179,-129.309
475219.996,4283460.179,-129.104
475219.996,4283410.178,-129.208
475219.996,4283360.177,-129.287
475219.996,4283310.176,-129.142
475219.996,4283260.175,-129.008
475219.996,4283210.174,-129.085
475219.996,4283160.173,-128.873
475219.996,4283110.172,-128.391
475219.996,4283060.172,-128.104
475219.996,4283010.171,-127.993
475219.996,4282960.170,-127.501
475219.996,4282910.169,-127.197
475219.996,4282860.168,-126.904
475219.996,4282810.167,-126.711
475219.996,4282760.166,-126.802
475219.996,4282710.166,-126.798
475219.996,4282660.165,-126.702
475219.996,4282610.164,-127.000
475219.996,4282560.163,-127.300
475219.996,4282510.162,-127.306
475219.996,4282460.161,-127.402
475219.996,4282410.160,-127.598
475219.996,4282360.160,-127.896
475219.996,4282310.159,-128.194
475219.996,4282260.158,-128.491
475219.996,4282210.157,-129.544
475219.996,4282160.156,-130.447
475219.996,4282110.155,-130.408
475219.996,4282060.154,-129.851
475219.996,4282010.153,-129.535
475219.996,4281960.153,-129.510
475219.996,4281910.152,-129.690
475219.996,4281860.151,-130.061
475219.996,4281810.150,-130.365
475219.996,4281760.149,-130.394
475219.996,4281710.148,-130.484
475219.996,4281660.147,-130.673
475219.996,4281610.147,-131.667
475219.996,4281560.146,-132.755
475219.996,4281510.145,-133.063
475219.996,4281460.144,-133.093
475219.996,4281410.143,-132.753
475219.996,4281360.142,-132.355
475219.996,4281310.141,-132.043
475219.996,4281260.140,-131.828
475219.996,4281210.140,-131.884
475219.996,4281160.139,-131.735
475219.996,4281110.138,-131.625
475219.996,4281060.137,-131.610
475219.996,4281010.136,-132.017
475219.996,4280960.135,-132.271
475219.996,4280910.134,-132.471
475219.996,4280860.134,-132.749
475219.996,4280810.133,-133.042
475219.996,4280760.132,-133.576
475219.996,4280710.131,-134.331
475219.996,4280660.130,-136.230
475219.996,4280610.129,-143.041
475219.996,4280560.128,-154.455
475269.997,4284610.198,-129.022
475269.997,4284560.198,-129.100
475269.997,4284510.197,-129.117
475269.997,4284460.196,-129.197
475269.997,4284410.195,-129.217
475269.997,4284360.194,-129.316
475269.997,4284310.193,-129.400
475269.997,4284260.192,-129.398
475269.997,4284210.191,-129.382
475269.997,4284160.191,-129.300
475269.997,4284110.190,-129.267
475269.997,4284060.189,-129.366
475269.997,4284010.188,-129.399
475269.997,4283960.187,-129.432
475269.997,4283910.186,-129.465
475269.997,4283860.185,-129.498
475269.997,4283810.185,-129.531
475269.997,4283760.184,-129.564
475269.997,4283710.183,-129.597
475269.997,4283660.182,-129.495
475269.997,4283610.181,-129.423
475269.997,4283560.180,-129.618
475269.997,4283510.179,-129.794
475269.997,4283460.179,-129.152
475269.997,4283410.178,-129.587
475269.997,4283360.177,-129.482
475269.997,4283310.176,-129.284
475269.997,4283260.175,-129.087
475269.997,4283210.174,-128.895
475269.997,4283160.173,-128.790
475269.997,4283110.172,-128.593
475269.997,4283060.172,-128.496
475269.997,4283010.171,-128.480
475269.997,4282960.170,-127.986
475269.997,4282910.169,-127.402
475269.997,4282860.168,-127.301
475269.997,4282810.167,-127.196
475269.997,4282760.166,-126.896
475269.997,4282710.166,-126.697
475269.997,4282660.165,-126.795
475269.997,4282610.164,-127.091
475269.997,4282560.163,-127.485
475269.997,4282510.162,-127.592
475269.997,4282460.161,-127.598
475269.997,4282410.160,-127.794
475269.997,4282360.160,-128.184
475269.997,4282310.159,-128.485
475269.997,4282260.158,-128.686
475269.997,4282210.157,-129.455
475269.997,4282160.156,-130.254
475269.997,4282110.155,-130.493
475269.997,4282060.154,-130.412
475269.997,4282010.153,-130.217
475269.997,4281960.153,-130.017
475269.997,4281910.152,-130.000
475269.997,4281860.151,-129.821
475269.997,4281810.150,-129.982
475269.997,4281760.149,-130.089
475269.997,4281710.148,-130.185
475269.997,4281660.147,-130.375
475269.997,4281610.147,-131.192
475269.997,4281560.146,-132.005
475269.997,4281510.145,-132.453
475269.997,4281460.144,-132.759
475269.997,4281410.143,-132.709
475269.997,4281360.142,-132.352
475269.997,4281310.141,-132.042
475269.997,4281260.140,-131.743
475269.997,4281210.140,-131.865
475269.997,4281160.139,-131.898
475269.997,4281110.138,-132.066
475269.997,4281060.137,-132.102
475269.997,4281010.136,-132.271
475269.997,4280960.135,-132.634
475269.997,4280910.134,-132.866
475269.997,4280860.134,-133.065
475269.997,4280810.133,-133.104
475269.997,4280760.132,-133.429
475269.997,4280710.131,-134.158
475269.997,4280660.130,-136.056
475269.997,4280610.129,-143.082
475269.997,4280560.128,-155.018
475319.998,4284610.198,-129.180
475319.998,4284560.198,-129.080
475319.998,4284510.197,-128.999
475319.998,4284460.196,-129.017
475319.998,4284410.195,-129.117
475319.998,4284360.194,-129.235
475319.998,4284310.193,-129.383
475319.998,4284260.192,-129.285
475319.998,4284210.191,-129.218
475319.998,4284160.191,-129.285
475319.998,4284110.190,-129.200
475319.998,4284060.189,-129.356
475319.998,4284010.188,-129.511
475319.998,4283960.187,-129.667
475319.998,4283910.186,-129.822
475319.998,4283860.185,-129.978
475319.998,4283810.185,-130.133
475319.998,4283760.184,-130.289
475319.998,4283710.183,-130.168
475319.998,4283660.182,-129.880
475319.998,4283610.181,-129.690
475319.998,4283560.180,-129.581
475319.998,4283510.179,-129.382
475319.998,4283460.179,-129.200
475319.998,4283410.178,-129.199
475319.998,4283360.177,-129.191
475319.998,4283310.176,-129.094
475319.998,4283260.175,-128.996
475319.998,4283210.174,-128.896
475319.998,4283160.173,-128.782
475319.998,4283110.172,-128.395
475319.998,4283060.172,-128.208
475319.998,4283010.171,-128.296
475319.998,4282960.170,-128.184
475319.998,4282910.169,-127.696
475319.998,4282860.168,-127.493
475319.998,4282810.167,-127.193
475319.998,4282760.166,-126.700
475319.998,4282710.166,-126.503
475319.998,4282660.165,-126.503
475319.998,4282610.164,-126.603
475319.998,4282560.163,-126.799
475319.998,4282510.162,-127.191
475319.998,4282460.161,-127.490
475319.998,4282410.160,-127.789
475319.998,4282360.160,-127.991
475319.998,4282310.159,-128.286
475319.998,4282260.158,-128.298
475319.998,4282210.157,-129.060
475319.998,4282160.156,-130.141
475319.998,4282110.155,-130.858
475319.998,4282060.154,-130.807
475319.998,4282010.153,-130.429
475319.998,4281960.153,-130.124
475319.998,4281910.152,-130.009
475319.998,4281860.151,-130.093
475319.998,4281810.150,-130.011
475319.998,4281760.149,-129.999
475319.998,4281710.148,-129.820
475319.998,4281660.147,-130.152
475319.998,4281610.147,-130.729
475319.998,4281560.146,-131.940
475319.998,4281510.145,-132.620
475319.998,4281460.144,-132.610
475319.998,4281410.143,-132.425
475319.998,4281360.142,-132.140
475319.998,4281310.141,-131.926
475319.998,4281260.140,-131.642
475319.998,4281210.140,-131.599
475319.998,4281160.139,-131.767
475319.998,4281110.138,-131.967
475319.998,4281060.137,-132.249
475319.998,4281010.136,-132.711
475319.998,4280960.135,-133.044
475319.998,4280910.134,-133.100
475319.998,4280860.134,-133.262
475319.998,4280810.133,-133.383
475319.998,4280760.132,-134.125
475319.998,4280710.131,-135.811
475319.998,4280660.130,-137.618
475319.998,4280610.129,-143.556
475369.999,4284610.198,-128.800
475369.999,4284560.198,-129.059
475369.999,4284510.197,-128.880
475369.999,4284460.196,-128.818
475369.999,4284410.195,-128.954
475369.999,4284360.194,-129.235
475369.999,4284310.193,-129.417
475369.999,4284260.192,-129.483
475369.999,4284210.191,-129.399
475369.999,4284160.191,-129.368
475369.999,4284110.190,-129.199
475369.999,4284060.189,-129.320
475369.999,4284010.188,-129.440
475369.999,4283960.187,-129.561
475369.999,4283910.186,-129.682
475369.999,4283860.185,-129.803
475369.999,4283810.185,-129.924
475369.999,4283760.184,-129.989
475369.999,4283710.183,-130.166
475369.999,4283660.182,-129.878
475369.999,4283610.181,-129.680
475369.999,4283560.180,-129.481
475369.999,4283510.179,-129.292
475369.999,4283460.179,-129.192
475369.999,4283410.178,-129.092
475369.999,4283360.177,-129.007
475369.999,4283310.176,-129.107
475369.999,4283260.175,-129.194
475369.999,4283210.174,-129.094
475369.999,4283160.173,-128.994
475369.999,4283110.172,-128.891
475369.999,4283060.172,-128.681
475369.999,4283010.171,-128.194
475369.999,4282960.170,-127.995
475369.999,4282910.169,-127.789
475369.999,4282860.168,-127.298
475369.999,4282810.167,-127.099
475369.999,4282760.166,-126.901
475369.999,4282710.166,-126.802
475369.999,4282660.165,-126.901
475369.999,4282610.164,-127.001
475369.999,4282560.163,-127.001
475369.999,4282510.162,-127.001
475369.999,4282460.161,-127.196
475369.999,4282410.160,-127.492
475369.999,4282360.160,-127.791
475369.999,4282310.159,-127.993
475369.999,4282260.158,-128.096
475369.999,4282210.157,-129.050
475369.999,4282160.156,-130.327
475369.999,4282110.155,-130.870
475369.999,4282060.154,-130.807
475369.999,4282010.153,-130.521
475369.999,4281960.153,-130.222
475369.999,4281910.152,-130.108
475369.999,4281860.151,-130.282
475369.999,4281810.150,-130.208
475369.999,4281760.149,-129.928
475369.999,4281710.148,-129.810
475369.999,4281660.147,-129.624
475369.999,4281610.147,-130.312
475369.999,4281560.146,-131.194
475369.999,4281510.145,-131.914
475369.999,4281460.144,-132.261
475369.999,4281410.143,-132.214
475369.999,4281360.142,-131.942
475369.999,4281310.141,-131.644
475369.999,4281260.140,-131.345
475369.999,4281210.140,-131.469
475369.999,4281160.139,-131.668
475369.999,4281110.138,-131.950
475369.999,4281060.137,-132.250
475369.999,4281010.136,-132.548
475369.999,4280960.135,-132.846
475369.999,4280910.134,-133.145
475369.999,4280860.134,-133.282
475369.999,4280810.133,-133.702
475369.999,4280760.132,-134.836
475369.999,4280710.131,-136.207
475369.999,4280660.130,-137.600
475369.999,4280610.129,-143.378
475420.001,4284610.198,-128.421
475420.001,4284560.198,-128.521
475420.001,4284510.197,-128.620
475420.001,4284460.196,-128.737
475420.001,4284410.195,-128.936
475420.001,4284360.194,-129.135
475420.001,4284310.193,-129.283
475420.001,4284260.192,-129.184
475420.001,4284210.191,-129.069
475420.001,4284160.191,-128.855
475420.001,4284110.190,-128.691
475420.001,4284060.189,-128.834
475420.001,4284010.188,-128.976
475420.001,4283960.187,-129.119
475420.001,4283910.186,-129.261
475420.001,4283860.185,-129.404
475420.001,4283810.185,-129.546
475420.001,4283760.184,-129.689
475420.001,4283710.183,-129.591
475420.001,4283660.182,-129.481
475420.001,4283610.181,-129.311
475420.001,4283560.180,-129.400
475420.001,4283510.179,-129.391
475420.001,4283460.179,-129.284
475420.001,4283410.178,-129.100
475420.001,4283360.177,-129.114
475420.001,4283310.176,-129.293
475420.001,4283260.175,-129.182
475420.001,4283210.174,-128.890
475420.001,4283160.173,-128.711
475420.001,4283110.172,-128.900
475420.001,4283060.172,-128.888
475420.001,4283010.171,-128.585
475420.001,4282960.170,-128.194
475420.001,4282910.169,-127.997
475420.001,4282860.168,-127.896
475420.001,4282810.167,-127.795
