256173.168,4194506.113,-155.058 
256173.168,4194406.113,-154.613 
256173.168,4194306.113,-154.212 
256173.168,4194206.113,-153.729 
256173.168,4194106.113,-152.236 
256173.168,4194006.113,-152.293 
256173.168,4193906.113,-152.062 
256173.168,4193806.113,-150.778 
256173.168,4189906.113,-150.288 
256173.168,4189806.113,-150.714 
256173.168,4189706.113,-150.854 
256173.168,4189606.113,-153.219 
256173.168,4189506.113,-153.173 
256173.168,4189406.113,-154.267 
256173.168,4189306.113,-154.624 
256173.168,4189206.113,-154.089 
256173.168,4189106.113,-154.479 
256173.168,4189006.113,-155.247 
256173.168,4188906.113,-156.291 
256173.168,4188806.113,-157.529 
256173.168,4188706.113,-158.337 
256173.168,4188606.113,-161.078 
256173.168,4188506.113,-159.397 
256173.168,4188406.113,-160.937 
256173.168,4188306.113,-161.696 
256173.168,4188206.113,-161.807 
256173.168,4188106.113,-161.227 
256173.168,4188006.113,-162.738 
256173.168,4187906.113,-162.488 
256173.168,4187806.113,-161.677 
256173.168,4187706.113,-161.998 
256173.168,4187606.113,-162.058 
256173.168,4187506.113,-162.35 
256173.168,4187406.113,-163.678 
256173.168,4187306.113,-164.134 
256173.168,4187206.113,-164.205 
256173.168,4187106.113,-164.352 
256173.168,4187006.113,-166.516 
256173.168,4186906.113,-166.563 
256173.168,4186806.113,-168.56 
256173.168,4186706.113,-168.577 
256173.168,4186606.113,-169.485 
256173.168,4186506.113,-168.846 
256173.168,4186406.113,-169.185 
256173.168,4186306.113,-170.591 
256173.168,4186206.113,-171.329 
256173.168,4186106.113,-171.331 
256173.168,4186006.113,-171.848 
256173.168,4185906.113,-172.444 
256173.168,4185806.113,-174.548 
256173.168,4185706.113,-176.688 
256173.168,4185606.113,-177.537 
256173.168,4185506.113,-179.771 
256173.168,4185406.113,-180.462 
256173.168,4185306.113,-182.092 
256173.168,4185206.113,-181.035 
256273.168,4197506.113,-153.05 
256273.168,4197406.113,-157.723 
256273.168,4197306.113,-160.124 
256273.168,4197206.113,-160.759 
256273.168,4197106.113,-160.391 
256273.168,4197006.113,-159.708 
256273.168,4196906.113,-159.284 
256273.168,4196806.113,-158.948 
256273.168,4196706.113,-158.891 
256273.168,4196606.113,-159.055 
256273.168,4196506.113,-159.343 
256273.168,4196406.113,-159.491 
256273.168,4196306.113,-159.498 
256273.168,4196206.113,-159.359 
256273.168,4196106.113,-159.148 
256273.168,4196006.113,-159.029 
256273.168,4195906.113,-159.069 
256273.168,4195806.113,-159.041 
256273.168,4195706.113,-158.955 
256273.168,4195606.113,-158.787 
256273.168,4195506.113,-158.494 
256273.168,4195406.113,-158.466 
256273.168,4195306.113,-158.449 
256273.168,4195206.113,-158.016 
256273.168,4195106.113,-157.715 
256273.168,4195006.113,-157.344 
256273.168,4194906.113,-156.825 
256273.168,4194806.113,-156.119 
256273.168,4194706.113,-155.585 
256273.168,4194606.113,-155.24 
256273.168,4194506.113,-154.824 
256273.168,4194406.113,-154.474 
256273.168,4194306.113,-154.055 
256273.168,4194206.113,-153.355 
256273.168,4194106.113,-156.726 
256273.168,4194006.113,-154.365 
256273.168,4193906.113,-153.786 
256273.168,4193806.113,-151.714 
256273.168,4193706.113,-150.636 
256273.168,4192606.113,-152.37 
256273.168,4190206.113,-150.497 
256273.168,4190106.113,-150.328 
256273.168,4190006.113,-150.157 
256273.168,4189806.113,-150.382 
256273.168,4189606.113,-152.971 
256273.168,4189506.113,-150.856 
256273.168,4189406.113,-153.453 
256273.168,4189306.113,-151.951 
256273.168,4189206.113,-153.443 
256273.168,4189106.113,-154.107 
256273.168,4189006.113,-154.707 
256273.168,4188906.113,-155.106 
256273.168,4188806.113,-156.232 
256273.168,4188706.113,-157.325 
256273.168,4188606.113,-157.602 
256273.168,4188506.113,-159.95 
256273.168,4188406.113,-159.686 
256273.168,4188306.113,-160.637 
256273.168,4188206.113,-161.23 
256273.168,4188106.113,-161.826 
256273.168,4188006.113,-162.655 
256273.168,4187906.113,-161.042 
256273.168,4187806.113,-161.915 
256273.168,4187706.113,-163.118 
256273.168,4187606.113,-162.325 
256273.168,4187506.113,-162.56 
256273.168,4187406.113,-161.814 
256273.168,4187306.113,-162.487 
256273.168,4187206.113,-162.904 
256273.168,4187106.113,-165.1 
256273.168,4187006.113,-166.68 
256273.168,4186906.113,-167.605 
256273.168,4186806.113,-166.986 
256273.168,4186706.113,-168.07 
256273.168,4186606.113,-168.838 
256273.168,4186506.113,-168.774 
256273.168,4186406.113,-170.014 
256273.168,4186306.113,-169.747 
256273.168,4186206.113,-170.363 
256273.168,4186106.113,-171.419 
256273.168,4186006.113,-172.847 
256273.168,4185906.113,-172.105 
256273.168,4185806.113,-174.887 
256273.168,4185706.113,-176.023 
256273.168,4185606.113,-176.89 
256273.168,4185506.113,-178.523 
256273.168,4185406.113,-180.713 
256273.168,4185306.113,-177.818 
256273.168,4185206.113,-181.582 
256373.168,4197206.113,-151.853 
256373.168,4197106.113,-154.275 
256373.168,4197006.113,-155.998 
256373.168,4196906.113,-156.392 
256373.168,4196806.113,-155.941 
256373.168,4196706.113,-155.561 
256373.168,4196606.113,-155.125 
256373.168,4196506.113,-155.231 
256373.168,4196406.113,-155.617 
256373.168,4196306.113,-156.222 
256373.168,4196206.113,-156.675 
256373.168,4196106.113,-156.82 
256373.168,4196006.113,-156.726 
256373.168,4195906.113,-156.405 
256373.168,4195806.113,-156.163 
256373.168,4195706.113,-156.194 
256373.168,4195606.113,-156.267 
256373.168,4195506.113,-156.168 
256373.168,4195406.113,-156.339 
256373.168,4195306.113,-156.15 
256373.168,4195206.113,-156.145 
256373.168,4195106.113,-156.158 
256373.168,4195006.113,-156.257 
256373.168,4194906.113,-156.084 
256373.168,4194806.113,-155.471 
256373.168,4194706.113,-155.133 
256373.168,4194606.113,-154.657 
256373.168,4194506.113,-154.383 
256373.168,4194406.113,-154.066 
256373.168,4194306.113,-153.884 
256373.168,4194206.113,-153.664 
256373.168,4194106.113,-152.58 
256373.168,4194006.113,-156.82 
256373.168,4193906.113,-154.714 
256373.168,4193806.113,-153.446 
256373.168,4193706.113,-151.359 
256373.168,4192606.113,-151.816 
256373.168,4190206.113,-150.211 
256373.168,4190006.113,-150.774 
256373.168,4189906.113,-150.005 
256373.168,4189806.113,-150.128 
256373.168,4189706.113,-150.303 
256373.168,4189606.113,-150.262 
256373.168,4189506.113,-150.97 
256373.168,4189406.113,-151.308 
256373.168,4189306.113,-151.256 
256373.168,4189206.113,-154.176 
256373.168,4189106.113,-153.574 
256373.168,4189006.113,-153.959 
256373.168,4188906.113,-155.065 
256373.168,4188806.113,-156.263 
256373.168,4188706.113,-155.764 
256373.168,4188606.113,-156.87 
256373.168,4188506.113,-157.8 
256373.168,4188406.113,-157.607 
256373.168,4188306.113,-159.717 
256373.168,4188206.113,-159.808 
256373.168,4188106.113,-161.134 
256373.168,4188006.113,-161.676 
256373.168,4187906.113,-162.455 
256373.168,4187806.113,-164.219 
256373.168,4187706.113,-162.377 
256373.168,4187606.113,-161.4 
256373.168,4187506.113,-162.7 
256373.168,4187406.113,-162.547 
256373.168,4187306.113,-162.731 
256373.168,4187206.113,-163.477 
256373.168,4187106.113,-163.765 
256373.168,4187006.113,-169.759 
256373.168,4186906.113,-168.591 
256373.168,4186806.113,-167.724 
256373.168,4186706.113,-167.615 
256373.168,4186606.113,-168.035 
256373.168,4186506.113,-167.831 
256373.168,4186406.113,-168.162 
256373.168,4186306.113,-170.613 
256373.168,4186206.113,-171.689 
256373.168,4186106.113,-172.485 
256373.168,4186006.113,-173.976 
256373.168,4185906.113,-174.586 
256373.168,4185806.113,-174.116 
256373.168,4185706.113,-175.089 
256373.168,4185606.113,-176.324 
256373.168,4185506.113,-177.802 
256373.168,4185406.113,-178.23 
256373.168,4185306.113,-179.085 
256373.168,4185206.113,-181.81 
256473.168,4196806.113,-150.467 
256473.168,4196706.113,-151.934 
256473.168,4196606.113,-152.223 
256473.168,4196506.113,-152.162 
256473.168,4196406.113,-152.057 
256473.168,4196306.113,-152.391 
256473.168,4196206.113,-152.835 
256473.168,4196106.113,-153.486 
256473.168,4196006.113,-154.173 
256473.168,4195906.113,-154.468 
256473.168,4195806.113,-154.407 
256473.168,4195706.113,-154.189 
256473.168,4195606.113,-153.924 
256473.168,4195506.113,-153.538 
256473.168,4195406.113,-153.463 
256473.168,4195306.113,-153.33 
256473.168,4195206.113,-153.513 
256473.168,4195106.113,-153.742 
256473.168,4195006.113,-153.786 
256473.168,4194906.113,-153.919 
256473.168,4194806.113,-153.907 
256473.168,4194706.113,-153.885 
256473.168,4194606.113,-153.686 
256473.168,4194506.113,-153.616 
256473.168,4194406.113,-153.503 
256473.168,4194306.113,-153.23 
256473.168,4194206.113,-152.994 
256473.168,4194106.113,-155.065 
256473.168,4194006.113,-153.099 
256473.168,4193906.113,-152.877 
256473.168,4193806.113,-152.586 
256473.168,4193706.113,-153.063 
256473.168,4189706.113,-150.651 
256473.168,4189606.113,-151.113 
256473.168,4189506.113,-151.39 
256473.168,4189406.113,-151.782 
256473.168,4189306.113,-154.421 
256473.168,4189206.113,-155.95 
256473.168,4189106.113,-154.343 
256473.168,4189006.113,-154.958 
256473.168,4188906.113,-157.233 
256473.168,4188806.113,-155.202 
256473.168,4188706.113,-155.022 
256473.168,4188606.113,-156.266 
256473.168,4188506.113,-156.706 
256473.168,4188406.113,-157.202 
256473.168,4188306.113,-158.099 
256473.168,4188206.113,-158.437 
256473.168,4188106.113,-159.34 
256473.168,4188006.113,-160.395 
256473.168,4187906.113,-160.359 
256473.168,4187806.113,-161.662 
256473.168,4187706.113,-160.409 
256473.168,4187606.113,-163.345 
256473.168,4187506.113,-163.057 
256473.168,4187406.113,-162.561 
256473.168,4187306.113,-162.541 
256473.168,4187206.113,-162.902 
256473.168,4187106.113,-163.131 
256473.168,4187006.113,-166.504 
256473.168,4186906.113,-164.245 
256473.168,4186806.113,-167.557 
256473.168,4186706.113,-167.347 
256473.168,4186606.113,-166.969 
256473.168,4186506.113,-167.426 
256473.168,4186406.113,-167.38 
256473.168,4186306.113,-168.906 
256473.168,4186206.113,-170.695 
256473.168,4186106.113,-167.4 
256473.168,4186006.113,-169.202 
256473.168,4185906.113,-168.829 
256473.168,4185806.113,-173.357 
256473.168,4185706.113,-173.626 
256473.168,4185606.113,-175.672 
256473.168,4185506.113,-174.788 
256473.168,4185406.113,-177.138 
256473.168,4185306.113,-176.277 
256473.168,4185206.113,-179.902 
256573.168,4195906.113,-150.7 
256573.168,4195806.113,-151.421 
256573.168,4195706.113,-152.117 
256573.168,4195606.113,-152.428 
256573.168,4195506.113,-152.308 
256573.168,4195406.113,-152.348 
256573.168,4195306.113,-151.96 
256573.168,4195206.113,-151.657 
256573.168,4195106.113,-151.612 
256573.168,4195006.113,-151.432 
256573.168,4194906.113,-151.443 
256573.168,4194806.113,-151.446 
256573.168,4194706.113,-151.817 
256573.168,4194606.113,-151.964 
256573.168,4194506.113,-152.232 
256573.168,4194406.113,-152.358 
256573.168,4194306.113,-151.879 
256573.168,4194206.113,-151.389 
256573.168,4194106.113,-151.68 
256573.168,4193906.113,-150.362 
256573.168,4193806.113,-150.163 
256573.168,4192306.113,-150.742 
256573.168,4190106.113,-150.623 
256573.168,4189806.113,-151.214 
256573.168,4189706.113,-150.499 
256573.168,4189606.113,-151.401 
256573.168,4189506.113,-151.609 
256573.168,4189406.113,-152.106 
256573.168,4189306.113,-153.331 
256573.168,4189206.113,-153.864 
256573.168,4189106.113,-153.248 
256573.168,4189006.113,-154.998 
256573.168,4188906.113,-157.479 
256573.168,4188806.113,-154.348 
256573.168,4188706.113,-155.487 
256573.168,4188606.113,-154.169 
256573.168,4188506.113,-155.109 
256573.168,4188406.113,-155.887 
256573.168,4188306.113,-156.753 
256573.168,4188206.113,-157.806 
256573.168,4188106.113,-158.36 
256573.168,4188006.113,-160.338 
256573.168,4187906.113,-162.18 
256573.168,4187806.113,-160.68 
256573.168,4187706.113,-161.46 
256573.168,4187606.113,-163.678 
256573.168,4187506.113,-163.321 
256573.168,4187406.113,-163.301 
256573.168,4187306.113,-162.372 
256573.168,4187206.113,-162.308 
256573.168,4187106.113,-162.732 
256573.168,4187006.113,-163.502 
256573.168,4186906.113,-163.466 
256573.168,4186806.113,-164.316 
256573.168,4186706.113,-165.467 
256573.168,4186606.113,-166.324 
256573.168,4186506.113,-166.811 
256573.168,4186406.113,-167.602 
256573.168,4186306.113,-168.439 
256573.168,4186206.113,-169.251 
256573.168,4186106.113,-170.417 
256573.168,4186006.113,-173.399 
256573.168,4185906.113,-172.477 
256573.168,4185806.113,-173.804 
256573.168,4185706.113,-173.849 
256573.168,4185606.113,-174.516 
256573.168,4185506.113,-176.065 
256573.168,4185406.113,-178.122 
256573.168,4185306.113,-176.482 
256573.168,4185206.113,-178.911 
256673.168,4195406.113,-150.42 
256673.168,4195306.113,-150.57 
256673.168,4195206.113,-150.717 
256673.168,4195106.113,-150.895 
256673.168,4195006.113,-150.702 
256673.168,4194906.113,-150.42 
256673.168,4194806.113,-150.103 
256673.168,4194706.113,-150.188 
256673.168,4194606.113,-150.296 
256673.168,4194506.113,-150.32 
256673.168,4194406.113,-150.752 
256673.168,4194206.113,-150.391 
256673.168,4193406.113,-151.388 
256673.168,4189906.113,-150.657 
256673.168,4189806.113,-150.879 
256673.168,4189706.113,-152.26 
256673.168,4189606.113,-152.014 
256673.168,4189506.113,-152.66 
256673.168,4189406.113,-153.06 
256673.168,4189306.113,-152.307 
256673.168,4189206.113,-153.095 
256673.168,4189106.113,-153.651 
256673.168,4189006.113,-154.669 
256673.168,4188906.113,-155.391 
256673.168,4188806.113,-157.194 
256673.168,4188706.113,-152.869 
256673.168,4188606.113,-151.543 
256673.168,4188506.113,-155.264 
256673.168,4188406.113,-155.555 
256673.168,4188306.113,-156.1 
256673.168,4188206.113,-156.922 
256673.168,4188106.113,-157.467 
256673.168,4188006.113,-158.025 
256673.168,4187906.113,-160.136 
256673.168,4187806.113,-160.733 
256673.168,4187706.113,-160.52 
256673.168,4187606.113,-162.796 
256673.168,4187506.113,-162 
256673.168,4187406.113,-162.437 
256673.168,4187306.113,-163.244 
256673.168,4187206.113,-162.625 
256673.168,4187106.113,-162.885 
256673.168,4187006.113,-163.007 
256673.168,4186906.113,-163.284 
256673.168,4186806.113,-163.839 
256673.168,4186706.113,-164.41 
256673.168,4186606.113,-166.271 
256673.168,4186506.113,-166.156 
256673.168,4186406.113,-166.461 
256673.168,4186306.113,-168.008 
256673.168,4186206.113,-168.335 
256673.168,4186106.113,-169.225 
256673.168,4186006.113,-170.643 
256673.168,4185906.113,-175.123 
256673.168,4185806.113,-173.104 
256673.168,4185706.113,-172.856 
256673.168,4185606.113,-174.361 
256673.168,4185506.113,-176.858 
256673.168,4185406.113,-182.416 
256673.168,4185206.113,-180.904 
256773.168,4189806.113,-151.362 
256773.168,4189706.113,-151.66 
256773.168,4189606.113,-151.926 
256773.168,4189506.113,-152.497 
256773.168,4189406.113,-153.859 
256773.168,4189306.113,-153.491 
256773.168,4189206.113,-153.794 
256773.168,4189106.113,-153.901 
256773.168,4189006.113,-154.685 
256773.168,4188906.113,-153.109 
256773.168,4188806.113,-153.5 
256773.168,4188706.113,-154.867 
256773.168,4188606.113,-153.515 
256773.168,4188506.113,-154.402 
256773.168,4188406.113,-155.089 
256773.168,4188306.113,-156.224 
256773.168,4188206.113,-156.701 
256773.168,4188106.113,-156.702 
256773.168,4188006.113,-157.291 
256773.168,4187906.113,-157.431 
256773.168,4187806.113,-158.525 
256773.168,4187706.113,-159.666 
256773.168,4187606.113,-161.245 
256773.168,4187506.113,-161.246 
256773.168,4187406.113,-163.882 
256773.168,4187306.113,-163.132 
256773.168,4187206.113,-164.067 
256773.168,4187106.113,-163.155 
256773.168,4187006.113,-163.042 
256773.168,4186906.113,-163.169 
256773.168,4186806.113,-163.763 
256773.168,4186706.113,-163.65 
256773.168,4186606.113,-165.228 
256773.168,4186506.113,-165.614 
256773.168,4186406.113,-165.805 
256773.168,4186306.113,-165.839 
256773.168,4186206.113,-167.817 
256773.168,4186106.113,-168.254 
256773.168,4186006.113,-167.68 
256773.168,4185906.113,-169.355 
256773.168,4185806.113,-170.909 
256773.168,4185706.113,-172.353 
256773.168,4185606.113,-173.269 
256773.168,4185506.113,-174.713 
256773.168,4185406.113,-176.308 
256773.168,4185306.113,-176.084 
256773.168,4185206.113,-174.878 
256873.168,4189806.113,-150.76 
256873.168,4189706.113,-150.484 
256873.168,4189606.113,-150.393 
256873.168,4189506.113,-154.837 
256873.168,4189406.113,-153.618 
256873.168,4189306.113,-153.215 
256873.168,4189206.113,-152.315 
256873.168,4189106.113,-152.565 
256873.168,4189006.113,-152.887 
256873.168,4188906.113,-154.66 
256873.168,4188806.113,-153.49 
256873.168,4188706.113,-151.191 
256873.168,4188506.113,-153.997 
256873.168,4188406.113,-155.097 
256873.168,4188306.113,-156.081 
256873.168,4188206.113,-155.617 
256873.168,4188106.113,-157.089 
256873.168,4188006.113,-156.123 
256873.168,4187906.113,-156.363 
256873.168,4187806.113,-156.708 
256873.168,4187706.113,-158.122 
256873.168,4187606.113,-158.594 
256873.168,4187506.113,-160.742 
256873.168,4187406.113,-162.085 
256873.168,4187306.113,-163.601 
256873.168,4187206.113,-163.168 
256873.168,4187106.113,-163.584 
256873.168,4187006.113,-163.101 
256873.168,4186906.113,-163.102 
256873.168,4186806.113,-162.929 
256873.168,4186706.113,-164.3 
256873.168,4186606.113,-165.241 
256873.168,4186506.113,-165.524 
256873.168,4186406.113,-165.091 
256873.168,4186306.113,-165.967 
256873.168,4186206.113,-165.761 
256873.168,4186106.113,-167.001 
256873.168,4186006.113,-166.23 
256873.168,4185906.113,-168.383 
256873.168,4185806.113,-169.497 
256873.168,4185706.113,-171.549 
256873.168,4185606.113,-172.725 
256873.168,4185506.113,-174.016 
256873.168,4185406.113,-176.138 
256873.168,4185306.113,-176.224 
256973.168,4189806.113,-150.136 
256973.168,4189606.113,-150.856 
256973.168,4189506.113,-154.242 
256973.168,4189406.113,-153.442 
256973.168,4189306.113,-153.161 
256973.168,4189206.113,-152.679 
256973.168,4189106.113,-152.174 
256973.168,4189006.113,-153.056 
256973.168,4188906.113,-152.311 
256973.168,4188806.113,-152.469 
256973.168,4188706.113,-153.541 
256973.168,4188606.113,-151.947 
256973.168,4188506.113,-154.414 
256973.168,4188406.113,-157.091 
256973.168,4188306.113,-155.686 
256973.168,4188206.113,-157.465 
256973.168,4188106.113,-155.208 
256973.168,4188006.113,-154.938 
256973.168,4187906.113,-156.518 
256973.168,4187806.113,-156.038 
256973.168,4187706.113,-156.579 
256973.168,4187606.113,-157.673 
256973.168,4187506.113,-158.185 
256973.168,4187406.113,-161.791 
256973.168,4187306.113,-162.898 
256973.168,4187206.113,-162.179 
256973.168,4187106.113,-163.579 
256973.168,4187006.113,-163.683 
256973.168,4186906.113,-162.621 
256973.168,4186806.113,-162.128 
256973.168,4186706.113,-165.809 
256973.168,4186606.113,-166.025 
256973.168,4186506.113,-164.536 
256973.168,4186406.113,-164.816 
256973.168,4186306.113,-166.468 
256973.168,4186206.113,-166.347 
256973.168,4186106.113,-169.949 
256973.168,4186006.113,-167.724 
256973.168,4185906.113,-169.155 
256973.168,4185806.113,-170.053 
256973.168,4185706.113,-171.094 
256973.168,4185606.113,-172.221 
256973.168,4185506.113,-172.591 
256973.168,4185406.113,-175.825 
256973.168,4185306.113,-177.641 
257073.168,4189706.113,-150.884 
257073.168,4189606.113,-152.077 
257073.168,4189506.113,-152.796 
257073.168,4189406.113,-152.879 
257073.168,4189306.113,-153.02 
257073.168,4189206.113,-153.144 
257073.168,4189106.113,-152.493 
257073.168,4189006.113,-152.49 
257073.168,4188906.113,-152.928 
257073.168,4188806.113,-152.558 
257073.168,4188706.113,-153.494 
257073.168,4188606.113,-154.902 
257073.168,4188506.113,-153.39 
257073.168,4188406.113,-154.88 
257073.168,4188306.113,-155.536 
257073.168,4188206.113,-158.82 
257073.168,4188106.113,-155.71 
257073.168,4188006.113,-154.321 
257073.168,4187906.113,-156.034 
257073.168,4187806.113,-155.995 
257073.168,4187706.113,-156.175 
257073.168,4187606.113,-156.373 
257073.168,4187506.113,-157.175 
257073.168,4187406.113,-159.206 
257073.168,4187306.113,-159.645 
257073.168,4187206.113,-164.382 
257073.168,4187106.113,-162.027 
257073.168,4187006.113,-162.628 
257073.168,4186906.113,-161.554 
257073.168,4186806.113,-163.243 
257073.168,4186706.113,-163.185 
257073.168,4186606.113,-164.244 
257073.168,4186506.113,-164.114 
257073.168,4186406.113,-164.21 
257073.168,4186306.113,-164.51 
257073.168,4186206.113,-164.172 
257073.168,4186106.113,-166.301 
257073.168,4186006.113,-166.658 
257073.168,4185906.113,-168.203 
257073.168,4185806.113,-170.296 
257073.168,4185706.113,-170.587 
257073.168,4185606.113,-171.519 
257073.168,4185506.113,-172.364 
257073.168,4185406.113,-172.989 
257073.168,4185306.113,-175.483 
257173.168,4189706.113,-150.153 
257173.168,4189606.113,-154.071 
257173.168,4189506.113,-152.194 
257173.168,4189406.113,-152.52 
257173.168,4189306.113,-153.865 
257173.168,4189206.113,-152.309 
257173.168,4189106.113,-153.408 
257173.168,4189006.113,-152.884 
257173.168,4188906.113,-152.764 
257173.168,4188806.113,-153.121 
257173.168,4188706.113,-152.983 
257173.168,4188606.113,-153.864 
257173.168,4188506.113,-154.119 
257173.168,4188406.113,-156.163 
257173.168,4188306.113,-155.802 
257173.168,4188206.113,-155.468 
257173.168,4188106.113,-154.973 
257173.168,4188006.113,-154.612 
257173.168,4187906.113,-155.658 
257173.168,4187806.113,-156.758 
257173.168,4187706.113,-154.984 
257173.168,4187606.113,-155.337 
257173.168,4187506.113,-155.617 
257173.168,4187406.113,-156.738 
257173.168,4187306.113,-158.863 
257173.168,4187206.113,-159.723 
257173.168,4187106.113,-160.03 
257173.168,4187006.113,-160.819 
257173.168,4186906.113,-161.803 
257173.168,4186806.113,-163.318 
257173.168,4186706.113,-163.481 
257173.168,4186606.113,-162.455 
257173.168,4186506.113,-163.697 
257173.168,4186406.113,-163.428 
257173.168,4186306.113,-163.089 
257173.168,4186206.113,-164.698 
257173.168,4186106.113,-165.479 
257173.168,4186006.113,-165.339 
257173.168,4185906.113,-167.16 
257173.168,4185806.113,-170.149 
257173.168,4185706.113,-169.354 
257173.168,4185606.113,-170.651 
257173.168,4185506.113,-171.076 
257173.168,4185406.113,-172.986 
257173.168,4185306.113,-172.098 
257273.168,4189606.113,-151.224 
257273.168,4189506.113,-152.177 
257273.168,4189406.113,-153.436 
257273.168,4189306.113,-152.511 
257273.168,4189206.113,-153.186 
257273.168,4189106.113,-154.4 
257273.168,4189006.113,-152.961 
257273.168,4188906.113,-152.663 
257273.168,4188806.113,-153.027 
257273.168,4188706.113,-153.7 
257273.168,4188606.113,-154.293 
257273.168,4188506.113,-154.263 
257273.168,4188406.113,-156.823 
257273.168,4188306.113,-155.595 
257273.168,4188206.113,-158.179 
257273.168,4188106.113,-154.632 
257273.168,4188006.113,-155.729 
257273.168,4187906.113,-155.854 
257273.168,4187806.113,-156.782 
257273.168,4187706.113,-155.06 
257273.168,4187606.113,-155.155 
257273.168,4187506.113,-154.805 
257273.168,4187406.113,-156.406 
257273.168,4187306.113,-156.862 
257273.168,4187206.113,-157.413 
257273.168,4187106.113,-158.86 
257273.168,4187006.113,-161.337 
257273.168,4186906.113,-162.862 
257273.168,4186806.113,-163.061 
257273.168,4186706.113,-162.427 
257273.168,4186606.113,-161.613 
257273.168,4186506.113,-163.109 
257273.168,4186406.113,-163.152 
257273.168,4186306.113,-162.686 
257273.168,4186206.113,-161.293 
257273.168,4186106.113,-164.774 
257273.168,4186006.113,-164.545 
257273.168,4185906.113,-167.215 
257273.168,4185806.113,-166.875 
257273.168,4185706.113,-168.537 
257273.168,4185606.113,-170.067 
257273.168,4185506.113,-170.871 
257273.168,4185406.113,-173.01 
257273.168,4185306.113,-171.474 
257373.168,4189506.113,-151.474 
257373.168,4189406.113,-151.334 
257373.168,4189306.113,-153.775 
257373.168,4189206.113,-152.355 
257373.168,4189106.113,-155.093 
257373.168,4189006.113,-153.923 
257373.168,4188906.113,-154.911 
257373.168,4188806.113,-153.712 
257373.168,4188706.113,-153.601 
257373.168,4188606.113,-154.546 
257373.168,4188506.113,-155.455 
257373.168,4188406.113,-156.089 
257373.168,4188306.113,-155.926 
257373.168,4188206.113,-156.455 
257373.168,4188106.113,-155.558 
257373.168,4188006.113,-155.411 
257373.168,4187906.113,-155.048 
257373.168,4187806.113,-154.889 
257373.168,4187706.113,-154.537 
257373.168,4187606.113,-154.411 
257373.168,4187506.113,-158.05 
257373.168,4187406.113,-154.548 
257373.168,4187306.113,-155.848 
257373.168,4187206.113,-156.777 
257373.168,4187106.113,-158.008 
257373.168,4187006.113,-159.183 
257373.168,4186906.113,-160.957 
257373.168,4186806.113,-162.795 
257373.168,4186706.113,-160.593 
257373.168,4186606.113,-162.28 
257373.168,4186506.113,-161.439 
257373.168,4186406.113,-162.088 
257373.168,4186306.113,-162.558 
257373.168,4186206.113,-163.581 
257373.168,4186106.113,-164.496 
257373.168,4186006.113,-164.962 
257373.168,4185906.113,-167.932 
257373.168,4185806.113,-167.383 
257373.168,4185706.113,-168.096 
257373.168,4185606.113,-169.427 
257373.168,4185506.113,-172.061 
257373.168,4185406.113,-172.82 
257373.168,4185306.113,-170.499 
257473.168,4189306.113,-154.372 
257473.168,4189206.113,-150.695 
257473.168,4189106.113,-153.85 
257473.168,4189006.113,-154.505 
257473.168,4188906.113,-157.114 
257473.168,4188806.113,-154.499 
257473.168,4188706.113,-156.105 
257473.168,4188606.113,-156.383 
257473.168,4188506.113,-155.125 
257473.168,4188406.113,-156.272 
257473.168,4188306.113,-156.624 
257473.168,4188206.113,-156.634 
257473.168,4188106.113,-156.583 
257473.168,4188006.113,-155.584 
257473.168,4187906.113,-155.167 
257473.168,4187806.113,-156.11 
257473.168,4187706.113,-155.902 
257473.168,4187606.113,-155.136 
257473.168,4187506.113,-157.109 
257473.168,4187406.113,-154.098 
257473.168,4187306.113,-155.201 
257473.168,4187206.113,-156.267 
257473.168,4187106.113,-156.443 
257473.168,4187006.113,-157.545 
257473.168,4186906.113,-159.064 
257473.168,4186806.113,-161.041 
257473.168,4186706.113,-161.248 
257473.168,4186606.113,-160.822 
257473.168,4186506.113,-160.744 
257473.168,4186406.113,-160.631 
257473.168,4186306.113,-161.784 
257473.168,4186206.113,-162.207 
257473.168,4186106.113,-164.962 
257473.168,4186006.113,-166.259 
257473.168,4185906.113,-165.53 
257473.168,4185806.113,-166.44 
257473.168,4185706.113,-167.175 
257473.168,4185606.113,-168.762 
257473.168,4185506.113,-170.008 
257473.168,4185406.113,-171.51 
257473.168,4185306.113,-171.715 
257573.168,4189406.113,-150.259 
257573.168,4189306.113,-150.774 
257573.168,4189206.113,-152.104 
257573.168,4189106.113,-153.345 
257573.168,4189006.113,-155.501 
257573.168,4188906.113,-152.577 
257573.168,4188806.113,-154.071 
257573.168,4188706.113,-158.375 
257573.168,4188606.113,-156.629 
257573.168,4188506.113,-155.982 
257573.168,4188406.113,-156.39 
257573.168,4188306.113,-157.223 
257573.168,4188206.113,-156.977 
257573.168,4188106.113,-156.856 
257573.168,4188006.113,-157.374 
257573.168,4187906.113,-155.63 
257573.168,4187806.113,-154.87 
257573.168,4187706.113,-156.568 
257573.168,4187606.113,-154.6 
257573.168,4187506.113,-155.928 
257573.168,4187406.113,-156.653 
257573.168,4187306.113,-156.362 
257573.168,4187206.113,-153.913 
257573.168,4187106.113,-155.267 
257573.168,4187006.113,-156.396 
257573.168,4186906.113,-157.794 
257573.168,4186806.113,-158.332 
257573.168,4186706.113,-162.113 
257573.168,4186606.113,-160.221 
257573.168,4186506.113,-160.152 
257573.168,4186406.113,-160.358 
257573.168,4186306.113,-160.428 
257573.168,4186206.113,-161.248 
257573.168,4186106.113,-162.611 
257573.168,4186006.113,-164.426 
257573.168,4185906.113,-165.116 
257573.168,4185806.113,-165.604 
257573.168,4185706.113,-166.547 
257573.168,4185606.113,-168.211 
257573.168,4185506.113,-170.061 
257573.168,4185406.113,-171.847 
257573.168,4185306.113,-170.086 
257673.168,4189206.113,-150.754 
257673.168,4189106.113,-152.462 
257673.168,4189006.113,-153.821 
257673.168,4188906.113,-153.482 
257673.168,4188806.113,-155.598 
257673.168,4188706.113,-155.626 
257673.168,4188606.113,-153.818 
257673.168,4188506.113,-155.726 
257673.168,4188406.113,-156.547 
257673.168,4188306.113,-156.795 
257673.168,4188206.113,-157.232 
257673.168,4188106.113,-157.231 
257673.168,4188006.113,-157.126 
257673.168,4187906.113,-156.492 
257673.168,4187806.113,-156.168 
257673.168,4187706.113,-155.367 
257673.168,4187606.113,-153.633 
257673.168,4187506.113,-155.686 
257673.168,4187406.113,-159.14 
257673.168,4187306.113,-155.396 
257673.168,4187206.113,-153.672 
257673.168,4187106.113,-154.585 
257673.168,4187006.113,-155.357 
257673.168,4186906.113,-156.589 
257673.168,4186806.113,-158.144 
257673.168,4186706.113,-159.947 
257673.168,4186606.113,-159.659 
257673.168,4186506.113,-159.421 
257673.168,4186406.113,-159.313 
257673.168,4186306.113,-160.407 
257673.168,4186206.113,-161.274 
257673.168,4186106.113,-163.234 
257673.168,4186006.113,-164.716 
257673.168,4185906.113,-167.372 
257673.168,4185806.113,-165.304 
257673.168,4185706.113,-166.121 
257673.168,4185606.113,-166.959 
257673.168,4185506.113,-167.676 
257673.168,4185406.113,-169.156 
257673.168,4185306.113,-166.202 
257773.168,4189106.113,-150.566 
257773.168,4189006.113,-153.107 
257773.168,4188906.113,-152.428 
257773.168,4188806.113,-154.94 
257773.168,4188706.113,-155.087 
257773.168,4188606.113,-154.166 
257773.168,4188506.113,-153.983 
257773.168,4188406.113,-155.299 
257773.168,4188306.113,-156.853 
257773.168,4188206.113,-157.141 
257773.168,4188106.113,-157.673 
257773.168,4188006.113,-157.579 
257773.168,4187906.113,-157.497 
257773.168,4187806.113,-156.764 
257773.168,4187706.113,-154.026 
257773.168,4187606.113,-154.962 
257773.168,4187506.113,-153.681 
257773.168,4187406.113,-154.8 
257773.168,4187306.113,-155.547 
257773.168,4187206.113,-155.102 
257773.168,4187106.113,-153.649 
257773.168,4187006.113,-155.528 
257773.168,4186906.113,-155.172 
257773.168,4186806.113,-156.589 
257773.168,4186706.113,-157.539 
257773.168,4186606.113,-159.119 
257773.168,4186506.113,-158.437 
257773.168,4186406.113,-158.989 
257773.168,4186306.113,-160.171 
257773.168,4186206.113,-161.01 
257773.168,4186106.113,-163.478 
257773.168,4186006.113,-161.651 
257773.168,4185906.113,-163.244 
257773.168,4185806.113,-163.852 
257773.168,4185706.113,-165.328 
257773.168,4185606.113,-166.889 
257773.168,4185506.113,-169.656 
257773.168,4185406.113,-167.46 
257873.168,4189006.113,-150.863 
257873.168,4188906.113,-151.419 
257873.168,4188806.113,-153.52 
257873.168,4188706.113,-155.447 
257873.168,4188606.113,-156.369 
257873.168,4188506.113,-152.822 
257873.168,4188406.113,-155.181 
257873.168,4188306.113,-157.733 
257873.168,4188206.113,-157.764 
257873.168,4188106.113,-157.783 
257873.168,4188006.113,-157.504 
257873.168,4187906.113,-157.61 
257873.168,4187806.113,-157.159 
257873.168,4187706.113,-155.095 
257873.168,4187606.113,-153.409 
257873.168,4187506.113,-154.078 
257873.168,4187406.113,-154.534 
257873.168,4187306.113,-153.381 
257873.168,4187206.113,-156.742 
257873.168,4187106.113,-156.082 
257873.168,4187006.113,-155.262 
257873.168,4186906.113,-154.48 
257873.168,4186806.113,-155.817 
257873.168,4186706.113,-157.659 
257873.168,4186606.113,-157.655 
257873.168,4186506.113,-158.104 
257873.168,4186406.113,-158.07 
257873.168,4186306.113,-157.55 
257873.168,4186206.113,-160.605 
257873.168,4186106.113,-160.396 
257873.168,4186006.113,-161.814 
257873.168,4185906.113,-162.74 
257873.168,4185806.113,-163.453 
257873.168,4185706.113,-164.636 
257873.168,4185606.113,-165.32 
257873.168,4185506.113,-166.459 
257873.168,4185406.113,-167.554 
257973.168,4188906.113,-150.998 
257973.168,4188806.113,-151.905 
257973.168,4188706.113,-153.36 
257973.168,4188606.113,-155.464 
257973.168,4188506.113,-156.994 
257973.168,4188406.113,-156.53 
257973.168,4188306.113,-156.456 
257973.168,4188206.113,-156.523 
257973.168,4188106.113,-158.589 
257973.168,4188006.113,-157.514 
257973.168,4187906.113,-158.232 
257973.168,4187806.113,-157.312 
257973.168,4187706.113,-156.739 
257973.168,4187606.113,-155.148 
257973.168,4187506.113,-153.539 
257973.168,4187406.113,-153.447 
257973.168,4187306.113,-155.926 
257973.168,4187206.113,-156.513 
257973.168,4187106.113,-157.049 
257973.168,4187006.113,-152.715 
257973.168,4186906.113,-152.98 
257973.168,4186806.113,-154.821 
257973.168,4186706.113,-156.217 
257973.168,4186606.113,-157.636 
257973.168,4186506.113,-158.478 
257973.168,4186406.113,-157.508 
257973.168,4186306.113,-157.245 
257973.168,4186206.113,-156.953 
257973.168,4186106.113,-157.941 
257973.168,4186006.113,-159.312 
257973.168,4185906.113,-161.832 
257973.168,4185806.113,-162.359 
257973.168,4185706.113,-163.577 
257973.168,4185606.113,-165.801 
257973.168,4185506.113,-169.784 
257973.168,4185406.113,-172.886 
258073.168,4188806.113,-151.044 
258073.168,4188706.113,-152.114 
258073.168,4188606.113,-153.629 
258073.168,4188506.113,-155.137 
258073.168,4188406.113,-156.433 
258073.168,4188306.113,-155.061 
258073.168,4188206.113,-156.914 
258073.168,4188106.113,-156.869 
258073.168,4188006.113,-157.507 
258073.168,4187906.113,-158.264 
258073.168,4187806.113,-158.018 
258073.168,4187706.113,-157.824 
258073.168,4187606.113,-156.598 
258073.168,4187506.113,-154.308 
258073.168,4187406.113,-153.85 
258073.168,4187306.113,-154.431 
258073.168,4187206.113,-156.088 
258073.168,4187106.113,-155.492 
258073.168,4187006.113,-153.867 
258073.168,4186906.113,-153.863 
258073.168,4186806.113,-154.53 
258073.168,4186706.113,-155.534 
258073.168,4186606.113,-157.113 
258073.168,4186506.113,-157.131 
258073.168,4186406.113,-157.076 
258073.168,4186306.113,-157.369 
258073.168,4186206.113,-158.275 
258073.168,4186106.113,-159.744 
258073.168,4186006.113,-161.026 
258073.168,4185906.113,-161.79 
258073.168,4185806.113,-163.096 
258073.168,4185706.113,-163.431 
258073.168,4185606.113,-164.131 
258073.168,4185506.113,-166.046 
258073.168,4185406.113,-167.957 
258173.168,4188806.113,-150.527 
258173.168,4188706.113,-151.22 
258173.168,4188606.113,-152.159 
258173.168,4188506.113,-153.469 
258173.168,4188406.113,-154.153 
258173.168,4188306.113,-156.824 
258173.168,4188206.113,-156.119 
258173.168,4188106.113,-156.486 
258173.168,4188006.113,-157.485 
258173.168,4187906.113,-158.459 
258173.168,4187806.113,-159.361 
258173.168,4187706.113,-158.792 
258173.168,4187606.113,-158.539 
258173.168,4187506.113,-156.203 
258173.168,4187406.113,-154.513 
258173.168,4187306.113,-153.958 
258173.168,4187206.113,-153.903 
258173.168,4187106.113,-155.25 
258173.168,4187006.113,-154.375 
258173.168,4186906.113,-153.444 
258173.168,4186806.113,-153.109 
258173.168,4186706.113,-154.659 
258173.168,4186606.113,-155.487 
258173.168,4186506.113,-156.223 
258173.168,4186406.113,-156.081 
258173.168,4186306.113,-156.426 
258173.168,4186206.113,-157.424 
258173.168,4186106.113,-160.69 
258173.168,4186006.113,-158.572 
258173.168,4185906.113,-159.725 
258173.168,4185806.113,-161.026 
258173.168,4185706.113,-162.186 
258173.168,4185606.113,-163.904 
258173.168,4185506.113,-164.091 
258173.168,4185406.113,-164.531 
258273.168,4188706.113,-150.238 
258273.168,4188606.113,-151.193 
258273.168,4188506.113,-151.925 
258273.168,4188406.113,-153.196 
258273.168,4188306.113,-154.766 
258273.168,4188206.113,-156.378 
258273.168,4188106.113,-156.349 
258273.168,4188006.113,-157.302 
258273.168,4187906.113,-157.531 
258273.168,4187806.113,-159.534 
258273.168,4187706.113,-158.819 
258273.168,4187606.113,-160.047 
258273.168,4187506.113,-158.502 
258273.168,4187406.113,-156.594 
258273.168,4187306.113,-154.449 
258273.168,4187206.113,-153.979 
258273.168,4187106.113,-153.245 
258273.168,4187006.113,-152.961 
258273.168,4186906.113,-153.278 
258273.168,4186806.113,-153.537 
258273.168,4186706.113,-153.914 
258273.168,4186606.113,-154.784 
258273.168,4186506.113,-155.405 
258273.168,4186406.113,-155.878 
258273.168,4186306.113,-156.174 
258273.168,4186206.113,-155.115 
258273.168,4186106.113,-155.974 
258273.168,4186006.113,-159.892 
258273.168,4185906.113,-159.466 
258273.168,4185806.113,-160.134 
258273.168,4185706.113,-161.169 
258273.168,4185606.113,-162.541 
258273.168,4185506.113,-164.868 
258273.168,4185406.113,-165.471 
258373.168,4188906.113,-150.384 
258373.168,4188606.113,-150.947 
258373.168,4188506.113,-151.081 
258373.168,4188406.113,-151.852 
258373.168,4188306.113,-153.382 
258373.168,4188206.113,-154.447 
258373.168,4188106.113,-155.802 
258373.168,4188006.113,-156.678 
258373.168,4187906.113,-157.269 
258373.168,4187806.113,-156.865 
258373.168,4187706.113,-158.857 
258373.168,4187606.113,-159.402 
258373.168,4187506.113,-159.287 
258373.168,4187406.113,-158.71 
258373.168,4187306.113,-155.326 
258373.168,4187206.113,-154.252 
258373.168,4187106.113,-153.696 
258373.168,4187006.113,-153.727 
258373.168,4186906.113,-152.848 
258373.168,4186806.113,-153.099 
258373.168,4186706.113,-153.015 
258373.168,4186606.113,-153.972 
258373.168,4186506.113,-155.077 
258373.168,4186406.113,-154.499 
258373.168,4186306.113,-154.903 
258373.168,4186206.113,-155.903 
258373.168,4186106.113,-157.386 
258373.168,4186006.113,-159.158 
258373.168,4185906.113,-158.055 
258373.168,4185806.113,-159.942 
258373.168,4185706.113,-160.353 
258373.168,4185606.113,-160.747 
258373.168,4185506.113,-161.673 
258373.168,4185406.113,-162.534 
258473.168,4220406.113,-197.982 
258473.168,4188606.113,-150.51 
258473.168,4188506.113,-150.944 
258473.168,4188406.113,-151.588 
258473.168,4188306.113,-151.851 
258473.168,4188206.113,-152.967 
258473.168,4188106.113,-154.139 
258473.168,4188006.113,-155.647 
258473.168,4187906.113,-157.06 
258473.168,4187806.113,-158.5 
258473.168,4187706.113,-158.914 
258473.168,4187606.113,-157.894 
258473.168,4187506.113,-160.721 
258473.168,4187406.113,-160.528 
258473.168,4187306.113,-158.736 
258473.168,4187206.113,-155.188 
258473.168,4187106.113,-154.029 
258473.168,4187006.113,-153.886 
258473.168,4186906.113,-152.983 
258473.168,4186806.113,-152.985 
258473.168,4186706.113,-152.257 
258473.168,4186606.113,-152.984 
258473.168,4186506.113,-153.785 
258473.168,4186406.113,-154.458 
258473.168,4186306.113,-155.102 
258473.168,4186206.113,-155.864 
258473.168,4186106.113,-156.916 
258473.168,4186006.113,-158.015 
258473.168,4185906.113,-159.487 
258473.168,4185806.113,-158.886 
258473.168,4185706.113,-159.125 
258473.168,4185606.113,-161.199 
258473.168,4185506.113,-162.796 
258473.168,4185406.113,-163.709 
258573.168,4189806.113,-151.366 
258573.168,4188606.113,-151.229 
258573.168,4188506.113,-150.425 
258573.168,4188406.113,-150.714 
258573.168,4188306.113,-151.711 
258573.168,4188206.113,-152.022 
258573.168,4188106.113,-153.034 
258573.168,4188006.113,-154.106 
258573.168,4187906.113,-155.396 
258573.168,4187806.113,-157.225 
258573.168,4187706.113,-157.082 
258573.168,4187606.113,-157.355 
258573.168,4187506.113,-157.638 
258573.168,4187406.113,-160.417 
258573.168,4187306.113,-161.232 
258573.168,4187206.113,-157.068 
258573.168,4187106.113,-154.454 
258573.168,4187006.113,-154.277 
258573.168,4186906.113,-154.206 
258573.168,4186806.113,-153.404 
258573.168,4186706.113,-151.837 
258573.168,4186606.113,-151.883 
258573.168,4186506.113,-153.208 
258573.168,4186406.113,-153.308 
258573.168,4186306.113,-152.607 
258573.168,4186206.113,-152.6 
258573.168,4186106.113,-152.822 
258573.168,4186006.113,-154.521 
258573.168,4185906.113,-156.263 
258573.168,4185806.113,-157.267 
258573.168,4185706.113,-158.605 
258573.168,4185606.113,-159.821 
258573.168,4185506.113,-160.685 
258573.168,4185406.113,-161.115 
258673.168,4188706.113,-150.419 
258673.168,4188606.113,-152.245 
258673.168,4188506.113,-151.271 
258673.168,4188406.113,-151.08 
258673.168,4188306.113,-151.208 
258673.168,4188206.113,-151.628 
258673.168,4188106.113,-151.41 
258673.168,4188006.113,-152.858 
258673.168,4187906.113,-154.363 
258673.168,4187806.113,-155.477 
258673.168,4187706.113,-156.592 
258673.168,4187606.113,-158.746 
258673.168,4187506.113,-158.071 
258673.168,4187406.113,-157.979 
258673.168,4187306.113,-160.01 
258673.168,4187206.113,-159.578 
258673.168,4187106.113,-156.453 
258673.168,4187006.113,-155.067 
258673.168,4186906.113,-154.196 
258673.168,4186806.113,-154.038 
258673.168,4186706.113,-152.384 
258673.168,4186606.113,-152.097 
258673.168,4186506.113,-153.365 
258673.168,4186406.113,-153.292 
258673.168,4186306.113,-152.673 
258673.168,4186206.113,-154.137 
258673.168,4186106.113,-155.71 
258673.168,4186006.113,-156.238 
258673.168,4185906.113,-156.467 
258673.168,4185806.113,-157.362 
258673.168,4185706.113,-158.031 
258673.168,4185606.113,-159.335 
258673.168,4185506.113,-160.768 
258673.168,4185406.113,-160.719 
258773.168,4188606.113,-150.254 
258773.168,4188406.113,-150.922 
258773.168,4188306.113,-151.444 
258773.168,4188206.113,-151.479 
258773.168,4188106.113,-151.286 
258773.168,4188006.113,-152.108 
258773.168,4187906.113,-152.725 
258773.168,4187806.113,-154.029 
258773.168,4187706.113,-155.487 
258773.168,4187606.113,-157.753 
258773.168,4187506.113,-159.207 
258773.168,4187406.113,-157.412 
258773.168,4187306.113,-159.588 
258773.168,4187206.113,-159.834 
258773.168,4187106.113,-158.927 
258773.168,4187006.113,-156.304 
258773.168,4186906.113,-154.756 
258773.168,4186806.113,-154.833 
258773.168,4186706.113,-153.365 
258773.168,4186606.113,-151.898 
258773.168,4186506.113,-152.783 
258773.168,4186406.113,-152.443 
258773.168,4186306.113,-152.946 
258773.168,4186206.113,-153.465 
258773.168,4186106.113,-155.726 
258773.168,4186006.113,-157.125 
258773.168,4185906.113,-154.741 
258773.168,4185806.113,-156.369 
258773.168,4185706.113,-157.709 
258773.168,4185606.113,-158.72 
258773.168,4185506.113,-158.783 
258773.168,4185406.113,-160.869 
258873.168,4188406.113,-150.289 
258873.168,4188306.113,-151.715 
258873.168,4188206.113,-151.113 
258873.168,4188106.113,-151.897 
258873.168,4188006.113,-151.319 
258873.168,4187906.113,-152.13 
258873.168,4187806.113,-152.625 
258873.168,4187706.113,-153.65 
258873.168,4187606.113,-154.733 
258873.168,4187506.113,-157.486 
258873.168,4187406.113,-156.9 
258873.168,4187306.113,-159.212 
258873.168,4187206.113,-157.622 
258873.168,4187106.113,-157.027 
258873.168,4187006.113,-156.265 
258873.168,4186906.113,-156.891 
258873.168,4186806.113,-154.821 
258873.168,4186706.113,-153.224 
258873.168,4186606.113,-151.487 
258873.168,4186506.113,-152.276 
258873.168,4186406.113,-151.424 
258873.168,4186306.113,-152.142 
258873.168,4186206.113,-152.416 
258873.168,4186106.113,-153.578 
258873.168,4186006.113,-152.916 
258873.168,4185906.113,-156.815 
258873.168,4185806.113,-156.833 
258873.168,4185706.113,-157.546 
258873.168,4185606.113,-157.736 
258873.168,4185506.113,-159.608 
258873.168,4185406.113,-162.063 
258873.168,4185306.113,-162.779 
258973.168,4188306.113,-153.046 
258973.168,4188206.113,-151.459 
258973.168,4188106.113,-151.568 
258973.168,4188006.113,-151.546 
258973.168,4187906.113,-151.877 
258973.168,4187806.113,-152.008 
258973.168,4187706.113,-152.535 
258973.168,4187606.113,-153.555 
258973.168,4187506.113,-155.053 
258973.168,4187406.113,-156.021 
258973.168,4187306.113,-158.518 
258973.168,4187206.113,-160.807 
258973.168,4187106.113,-158.256 
258973.168,4187006.113,-150.568 
258973.168,4186906.113,-156.815 
258973.168,4186806.113,-154.486 
258973.168,4186706.113,-150.377 
258973.168,4186606.113,-155.627 
258973.168,4186506.113,-150.89 
258973.168,4186406.113,-151.296 
258973.168,4186306.113,-151.261 
258973.168,4186206.113,-152.316 
258973.168,4186106.113,-153.105 
258973.168,4186006.113,-154.265 
258973.168,4185906.113,-156.838 
258973.168,4185806.113,-156.179 
258973.168,4185706.113,-155.058 
258973.168,4185606.113,-157.024 
258973.168,4185506.113,-157.835 
258973.168,4185406.113,-159.577 
258973.168,4185306.113,-157.392 
259073.168,4221106.113,-162.246 
259073.168,4188306.113,-150.439 
259073.168,4188206.113,-151.097 
259073.168,4188106.113,-150.674 
259073.168,4188006.113,-151.906 
259073.168,4187906.113,-151.739 
259073.168,4187806.113,-150.729 
259073.168,4187706.113,-152.008 
259073.168,4187606.113,-152.478 
259073.168,4187506.113,-153.863 
259073.168,4187406.113,-155.019 
259073.168,4187306.113,-155.495 
259073.168,4187206.113,-155.087 
259073.168,4187106.113,-154.482 
259073.168,4187006.113,-152.752 
259073.168,4186906.113,-151.729 
259073.168,4186806.113,-151.414 
259073.168,4186706.113,-151.556 
259073.168,4186606.113,-152.933 
259073.168,4186506.113,-151.616 
259073.168,4186406.113,-150.954 
259073.168,4186306.113,-151.2 
259073.168,4186006.113,-151.603 
259073.168,4185906.113,-150.852 
259073.168,4185806.113,-152.526 
259073.168,4185706.113,-155.153 
259073.168,4185606.113,-156.826 
259073.168,4185506.113,-156.879 
259073.168,4185406.113,-157.776 
259073.168,4185306.113,-157.028 
259173.168,4221106.113,-166.662 
259173.168,4187906.113,-150.504 
259173.168,4187706.113,-151.868 
259173.168,4187606.113,-151.436 
259173.168,4187506.113,-152.225 
259173.168,4187406.113,-153.434 
259173.168,4187306.113,-154.535 
259173.168,4187206.113,-154.597 
259173.168,4187106.113,-153.151 
259173.168,4187006.113,-152.973 
259173.168,4186906.113,-152.798 
259173.168,4186706.113,-152.892 
259173.168,4186606.113,-152.926 
259173.168,4186506.113,-150.617 
259173.168,4186406.113,-150.128 
259173.168,4186106.113,-150.585 
259173.168,4186006.113,-153.257 
259173.168,4185906.113,-153.924 
259173.168,4185806.113,-154.562 
259173.168,4185706.113,-154.458 
259173.168,4185606.113,-155.995 
259173.168,4185506.113,-157.024 
259173.168,4185406.113,-158.895 
259173.168,4185306.113,-159.785 
259273.168,4221106.113,-166.784 
259273.168,4221006.113,-155.723 
259273.168,4187406.113,-151.139 
259273.168,4187306.113,-150.414 
259273.168,4187206.113,-150.397 
259273.168,4187106.113,-150.68 
259273.168,4187006.113,-151.331 
259273.168,4186906.113,-151.95 
259273.168,4186806.113,-153.29 
259273.168,4186706.113,-150.717 
259273.168,4186606.113,-151.097 
259273.168,4186506.113,-150.581 
259273.168,4186006.113,-150.867 
259273.168,4185906.113,-152.712 
259273.168,4185806.113,-153.748 
259273.168,4185706.113,-154.348 
259273.168,4185606.113,-155.334 
259273.168,4185506.113,-156.919 
259273.168,4185406.113,-157.284 
259273.168,4185306.113,-158.101 
259373.168,4221106.113,-165.007 
259373.168,4221006.113,-156.095 
259373.168,4220906.113,-152.243 
259373.168,4187406.113,-150.424 
259373.168,4187006.113,-150.615 
259373.168,4186906.113,-150.527 
259373.168,4186806.113,-151.068 
259373.168,4186706.113,-151.803 
259373.168,4186606.113,-151.527 
259373.168,4186006.113,-150.15 
259373.168,4185906.113,-152.645 
259373.168,4185806.113,-153.542 
259373.168,4185706.113,-154.19 
259373.168,4185606.113,-154.701 
259373.168,4185506.113,-155.363 
259373.168,4185406.113,-155.776 
259373.168,4185306.113,-155.309 
259473.168,4221106.113,-164.811 
259473.168,4221006.113,-156.242 
