228623.168,4196056.113,-744.767 
228623.168,4195856.113,-748.386 
228623.168,4195656.113,-750.849 
228623.168,4195456.113,-755.443 
228623.168,4195256.113,-756.047 
228623.168,4195056.113,-755.764 
228623.168,4194856.113,-747.787 
228623.168,4194656.113,-745.744 
228623.168,4194456.113,-756.013 
228623.168,4194256.113,-753.326 
228623.168,4194056.113,-743.685 
228623.168,4193856.113,-723.105 
228623.168,4193656.113,-689.977 
228623.168,4193456.113,-650.889 
228623.168,4193256.113,-641.58 
228623.168,4193056.113,-635.429 
228623.168,4192856.113,-630.759 
228623.168,4192656.113,-624.914 
228623.168,4192456.113,-619.137 
228623.168,4192256.113,-617.457 
228623.168,4192056.113,-612.381 
228623.168,4191856.113,-608.174 
228623.168,4191656.113,-603.294 
228823.168,4208656.113,-609.844 
228823.168,4208456.113,-636.794 
228823.168,4208256.113,-652.706 
228823.168,4208056.113,-656.104 
228823.168,4207856.113,-669.172 
228823.168,4207656.113,-656.638 
228823.168,4207456.113,-671.951 
228823.168,4207256.113,-666.57 
228823.168,4207056.113,-673.986 
228823.168,4206856.113,-674.956 
228823.168,4206656.113,-675.949 
228823.168,4206456.113,-675.175 
228823.168,4206256.113,-673.518 
228823.168,4206056.113,-672.173 
228823.168,4205856.113,-675.612 
228823.168,4205656.113,-672.792 
228823.168,4205456.113,-670.625 
228823.168,4205256.113,-669.856 
228823.168,4205056.113,-680.004 
228823.168,4204856.113,-676.799 
228823.168,4204656.113,-676.051 
228823.168,4204456.113,-684.377 
228823.168,4204256.113,-682.199 
228823.168,4204056.113,-693.444 
228823.168,4203856.113,-699.358 
228823.168,4203656.113,-697.374 
228823.168,4203456.113,-711.505 
228823.168,4203256.113,-703.602 
228823.168,4203056.113,-709.125 
228823.168,4202856.113,-712.709 
228823.168,4202656.113,-709.987 
228823.168,4202456.113,-716.567 
228823.168,4202256.113,-724.034 
228823.168,4202056.113,-734.336 
228823.168,4201856.113,-741.245 
228823.168,4201656.113,-739.148 
228823.168,4201456.113,-739.927 
228823.168,4201256.113,-746.111 
228823.168,4201056.113,-747.59 
228823.168,4200856.113,-752.332 
228823.168,4200656.113,-750.956 
228823.168,4200456.113,-752.896 
228823.168,4200256.113,-754.653 
228823.168,4200056.113,-752.563 
228823.168,4199856.113,-761.528 
228823.168,4199656.113,-758.955 
228823.168,4199456.113,-758.153 
228823.168,4199256.113,-764.576 
228823.168,4199056.113,-763.108 
228823.168,4198856.113,-764.064 
228823.168,4198656.113,-771.063 
228823.168,4198456.113,-765.472 
228823.168,4198256.113,-763.607 
228823.168,4198056.113,-764.074 
228823.168,4197856.113,-763.958 
228823.168,4197656.113,-762.732 
228823.168,4197456.113,-764.058 
228823.168,4197256.113,-763.059 
228823.168,4197056.113,-759.805 
228823.168,4196856.113,-751.361 
228823.168,4196656.113,-751.435 
228823.168,4196456.113,-745.132 
228823.168,4196256.113,-739.438 
228823.168,4196056.113,-744.171 
228823.168,4195856.113,-743.162 
228823.168,4195656.113,-743.827 
228823.168,4195456.113,-753.416 
228823.168,4195256.113,-755.007 
228823.168,4195056.113,-754.118 
228823.168,4194856.113,-745.596 
228823.168,4194656.113,-740.778 
228823.168,4194456.113,-735.126 
228823.168,4194256.113,-730.618 
228823.168,4194056.113,-734.722 
228823.168,4193856.113,-731.769 
228823.168,4193656.113,-730.492 
228823.168,4193456.113,-714.143 
228823.168,4193256.113,-686.508 
228823.168,4193056.113,-659.836 
228823.168,4192856.113,-646.16 
228823.168,4192656.113,-631.57 
228823.168,4192456.113,-621.982 
228823.168,4192256.113,-619.109 
228823.168,4192056.113,-618.241 
228823.168,4191856.113,-613.876 
228823.168,4191656.113,-611.904 
228823.168,4191456.113,-604.247 
228823.168,4191256.113,-603.955 
228823.168,4191056.113,-606.442 
229023.168,4208656.113,-606.339 
229023.168,4208456.113,-637.922 
229023.168,4208256.113,-653.828 
229023.168,4208056.113,-652.472 
229023.168,4207856.113,-656.515 
229023.168,4207656.113,-658.994 
229023.168,4207456.113,-666.464 
229023.168,4207256.113,-668.651 
229023.168,4207056.113,-669.21 
229023.168,4206856.113,-672.897 
229023.168,4206656.113,-671.378 
229023.168,4206456.113,-669.088 
229023.168,4206256.113,-671.019 
229023.168,4206056.113,-660.804 
229023.168,4205856.113,-666.776 
229023.168,4205656.113,-656.173 
229023.168,4205456.113,-668.122 
229023.168,4205256.113,-661.944 
229023.168,4205056.113,-672.116 
229023.168,4204856.113,-680.678 
229023.168,4204656.113,-683.689 
229023.168,4204456.113,-672.453 
229023.168,4204256.113,-682.799 
229023.168,4204056.113,-684.539 
229023.168,4203856.113,-699.833 
229023.168,4203656.113,-686.114 
229023.168,4203456.113,-700.578 
229023.168,4203256.113,-717.148 
229023.168,4203056.113,-709.15 
229023.168,4202856.113,-713.581 
229023.168,4202656.113,-720.42 
229023.168,4202456.113,-717.216 
229023.168,4202256.113,-725.157 
229023.168,4202056.113,-732.95 
229023.168,4201856.113,-735.345 
229023.168,4201656.113,-730.956 
229023.168,4201456.113,-744.001 
229023.168,4201256.113,-753.323 
229023.168,4201056.113,-749.568 
229023.168,4200856.113,-748.483 
229023.168,4200456.113,-750.685 
229023.168,4200256.113,-751.834 
229023.168,4200056.113,-755.463 
229023.168,4199856.113,-756.312 
229023.168,4199656.113,-763.96 
229023.168,4199456.113,-758.712 
229023.168,4199256.113,-758.807 
229023.168,4199056.113,-758.141 
229023.168,4198856.113,-760.542 
229023.168,4198656.113,-764.413 
229023.168,4198456.113,-764.376 
229023.168,4198256.113,-766.557 
229023.168,4198056.113,-762.437 
229023.168,4197856.113,-762.637 
229023.168,4197656.113,-762.213 
229023.168,4197456.113,-759.757 
229023.168,4197256.113,-758.435 
229023.168,4197056.113,-755.025 
229023.168,4196856.113,-754.695 
229023.168,4196656.113,-746.007 
229023.168,4196456.113,-741.573 
229023.168,4196256.113,-729.581 
229023.168,4196056.113,-730.889 
229023.168,4195856.113,-734.601 
229023.168,4195656.113,-732.057 
229023.168,4195456.113,-739.818 
229023.168,4195256.113,-737.154 
229023.168,4195056.113,-746.608 
229023.168,4194856.113,-745.854 
229023.168,4194656.113,-738.768 
229023.168,4194456.113,-731.293 
229023.168,4194256.113,-729.597 
229023.168,4194056.113,-729.189 
229023.168,4193856.113,-721.875 
229023.168,4193656.113,-716.059 
229023.168,4193456.113,-717.401 
229023.168,4193256.113,-721.612 
229023.168,4193056.113,-691.21 
229023.168,4192856.113,-656.724 
229023.168,4192656.113,-678.993 
229023.168,4192456.113,-654.367 
229023.168,4192256.113,-633.513 
229023.168,4192056.113,-621.645 
229023.168,4191856.113,-630.262 
229023.168,4191656.113,-628.813 
229023.168,4191456.113,-611.49 
229023.168,4191256.113,-617.541 
229023.168,4191056.113,-605.942 
229023.168,4190856.113,-600.484 
229023.168,4190656.113,-618.699 
229223.168,4208456.113,-616.897 
229223.168,4208256.113,-637.68 
229223.168,4208056.113,-644.277 
229223.168,4207856.113,-647.324 
229223.168,4207656.113,-652.669 
229223.168,4207456.113,-654.997 
229223.168,4207256.113,-662.448 
229223.168,4207056.113,-663.82 
229223.168,4206856.113,-664.569 
229223.168,4206656.113,-665.678 
229223.168,4206456.113,-664.355 
229223.168,4206256.113,-668.44 
229223.168,4206056.113,-669.798 
229223.168,4205856.113,-667.595 
229223.168,4205656.113,-672.563 
229223.168,4205456.113,-672.047 
229223.168,4205256.113,-667.449 
229223.168,4205056.113,-669.875 
229223.168,4204856.113,-666.55 
229223.168,4204656.113,-670.574 
229223.168,4204456.113,-665.525 
229223.168,4204256.113,-668.592 
229223.168,4204056.113,-668.418 
229223.168,4203856.113,-668.515 
229223.168,4203656.113,-676.647 
229223.168,4203456.113,-692.079 
229223.168,4203256.113,-693.29 
229223.168,4203056.113,-706.604 
229223.168,4202856.113,-709.894 
229223.168,4202656.113,-714.866 
229223.168,4202456.113,-717.915 
229223.168,4202256.113,-721.262 
229223.168,4202056.113,-727.947 
229223.168,4201856.113,-731.21 
229223.168,4201656.113,-736.221 
229223.168,4201456.113,-739.27 
229223.168,4201256.113,-741.119 
229223.168,4201056.113,-741.87 
229223.168,4200856.113,-747.394 
229223.168,4200656.113,-753.717 
229223.168,4200456.113,-745.477 
229223.168,4200256.113,-749.64 
229223.168,4200056.113,-752.036 
229223.168,4199856.113,-756.343 
229223.168,4199656.113,-761.109 
229223.168,4199456.113,-762.135 
229223.168,4199256.113,-759.068 
229223.168,4198856.113,-760.326 
229223.168,4198656.113,-763.962 
229223.168,4198456.113,-762.719 
229223.168,4198256.113,-761.486 
229223.168,4198056.113,-764.311 
229223.168,4197856.113,-759.785 
229223.168,4197656.113,-759.116 
229223.168,4197456.113,-762.476 
229223.168,4197256.113,-760.834 
229223.168,4197056.113,-760.574 
229223.168,4196856.113,-744.913 
229223.168,4196656.113,-747.08 
229223.168,4196456.113,-748.664 
229223.168,4196256.113,-740.539 
229223.168,4196056.113,-718.063 
229223.168,4195856.113,-745.109 
229223.168,4195656.113,-741.356 
229223.168,4195456.113,-738.421 
229223.168,4195256.113,-730.432 
229223.168,4195056.113,-730.702 
229223.168,4194856.113,-750.192 
229223.168,4194656.113,-730.923 
229223.168,4194456.113,-720.534 
229223.168,4194256.113,-729.272 
229223.168,4194056.113,-723.97 
229223.168,4193856.113,-722.856 
229223.168,4193456.113,-736.01 
229223.168,4193256.113,-717.982 
229223.168,4193056.113,-683.5 
229223.168,4192856.113,-659.18 
229223.168,4192656.113,-675.14 
229223.168,4192456.113,-657.16 
229223.168,4192256.113,-659.197 
229223.168,4192056.113,-646.392 
229223.168,4191856.113,-643.185 
229223.168,4191656.113,-644.474 
229223.168,4191456.113,-637.581 
229223.168,4191256.113,-632.069 
229223.168,4191056.113,-612.035 
229223.168,4190856.113,-617.2 
229223.168,4190656.113,-603.61 
229223.168,4190456.113,-602.272 
229423.168,4208456.113,-606.256 
229423.168,4208256.113,-623.745 
229423.168,4208056.113,-633.357 
229423.168,4207856.113,-638.211 
229423.168,4207656.113,-642.673 
229423.168,4207456.113,-648.113 
229423.168,4207256.113,-654.078 
229423.168,4207056.113,-657.261 
229423.168,4206856.113,-659.683 
229423.168,4206656.113,-660.108 
229423.168,4206456.113,-661.297 
229423.168,4206256.113,-664.221 
229423.168,4206056.113,-666.29 
229423.168,4205856.113,-668.839 
229423.168,4205656.113,-673.36 
229423.168,4205456.113,-678.406 
229423.168,4205256.113,-673.786 
229423.168,4205056.113,-676.769 
229423.168,4204856.113,-676.908 
229423.168,4204656.113,-674.988 
229423.168,4204456.113,-676.398 
229423.168,4204256.113,-673.304 
229423.168,4204056.113,-676.011 
229423.168,4203856.113,-676.209 
229423.168,4203656.113,-676.626 
229423.168,4203456.113,-677.563 
229423.168,4203256.113,-685.234 
229423.168,4203056.113,-695.202 
229423.168,4202856.113,-713.634 
229423.168,4202656.113,-718.118 
229423.168,4202456.113,-716.811 
229423.168,4202256.113,-720.329 
229423.168,4202056.113,-726.834 
229423.168,4201856.113,-729.886 
229423.168,4201656.113,-731.193 
229423.168,4201456.113,-737.903 
229423.168,4201256.113,-743.881 
229423.168,4201056.113,-744.206 
229423.168,4200856.113,-746.084 
229423.168,4200656.113,-749.068 
229423.168,4200456.113,-750.017 
229423.168,4200256.113,-751.085 
229423.168,4200056.113,-749.127 
229423.168,4199856.113,-757.217 
229423.168,4199656.113,-757.089 
229423.168,4199456.113,-760.335 
229423.168,4199256.113,-762.127 
229423.168,4199056.113,-764.705 
229423.168,4198856.113,-761.15 
229423.168,4198656.113,-762.471 
229423.168,4198456.113,-762.412 
229423.168,4198256.113,-761.208 
229423.168,4198056.113,-762.162 
229423.168,4197856.113,-763.472 
229423.168,4197656.113,-762.028 
229423.168,4197456.113,-760.578 
229423.168,4197256.113,-761.553 
229423.168,4197056.113,-757.082 
229423.168,4196856.113,-749.901 
229423.168,4196656.113,-748.817 
229423.168,4196456.113,-740.151 
229423.168,4196256.113,-729.435 
229423.168,4196056.113,-719.75 
229423.168,4195856.113,-726.436 
229423.168,4195656.113,-720.723 
229423.168,4195456.113,-722.919 
229423.168,4195256.113,-730.985 
229423.168,4195056.113,-737.026 
229423.168,4194856.113,-736.633 
229423.168,4194656.113,-729.631 
229423.168,4194456.113,-728.784 
229423.168,4194256.113,-727.993 
229423.168,4194056.113,-715.239 
229423.168,4193856.113,-717.068 
229423.168,4193656.113,-723.605 
229423.168,4193456.113,-716.272 
229423.168,4193256.113,-700.004 
229423.168,4193056.113,-694.958 
229423.168,4192856.113,-671.325 
229423.168,4192656.113,-667.535 
229423.168,4192456.113,-654.457 
229423.168,4192256.113,-672.418 
229423.168,4192056.113,-656.365 
229423.168,4191856.113,-660.13 
229423.168,4191656.113,-640.652 
229423.168,4191456.113,-642.42 
229423.168,4191256.113,-639.401 
229423.168,4191056.113,-615.012 
229423.168,4190856.113,-603.879 
229423.168,4190656.113,-601.328 
229423.168,4190456.113,-606.815 
229623.168,4208656.113,-600.96 
229623.168,4208456.113,-618.316 
229623.168,4208256.113,-631.191 
229623.168,4208056.113,-638.382 
229623.168,4207856.113,-644.162 
229623.168,4207656.113,-646.211 
229623.168,4207456.113,-647.898 
229623.168,4207256.113,-650.403 
229623.168,4207056.113,-653.896 
229623.168,4206856.113,-656.969 
229623.168,4206656.113,-666.574 
229623.168,4206456.113,-665.405 
229623.168,4206256.113,-672.67 
229623.168,4206056.113,-675.995 
229623.168,4205856.113,-676.771 
229623.168,4205656.113,-677.375 
229623.168,4205456.113,-679.77 
229623.168,4205256.113,-680.341 
229623.168,4205056.113,-681.933 
229623.168,4204856.113,-680.533 
229623.168,4204656.113,-678.423 
229623.168,4204456.113,-676.911 
229623.168,4204256.113,-675.358 
229623.168,4204056.113,-673.862 
229623.168,4203856.113,-675.618 
229623.168,4203656.113,-675.301 
229623.168,4203456.113,-675.703 
229623.168,4203256.113,-689.239 
229623.168,4203056.113,-693.151 
229623.168,4202856.113,-700.983 
229623.168,4202656.113,-719.507 
229623.168,4202456.113,-719.886 
229623.168,4202256.113,-719.063 
229623.168,4202056.113,-722.193 
229623.168,4201856.113,-726.775 
229623.168,4201656.113,-728.395 
229623.168,4201456.113,-733.234 
229623.168,4201256.113,-738.479 
229623.168,4201056.113,-740.236 
229623.168,4200856.113,-741.323 
229623.168,4200656.113,-744.809 
229623.168,4200456.113,-742.756 
229623.168,4200256.113,-747.216 
229623.168,4200056.113,-746.944 
229623.168,4199856.113,-751.999 
229623.168,4199656.113,-754.971 
229623.168,4199456.113,-756.989 
229623.168,4199256.113,-760.005 
229623.168,4199056.113,-759.616 
229623.168,4198856.113,-761.319 
229623.168,4198656.113,-761.791 
229623.168,4198456.113,-760.913 
229623.168,4198256.113,-761.864 
229623.168,4198056.113,-760.602 
229623.168,4197856.113,-761.364 
229623.168,4197656.113,-760.09 
229623.168,4197456.113,-761.447 
229623.168,4197256.113,-761.8 
229623.168,4197056.113,-761.553 
229623.168,4196856.113,-758.779 
229623.168,4196656.113,-755.366 
229623.168,4196456.113,-749.389 
229623.168,4196256.113,-751.896 
229623.168,4196056.113,-746.135 
229623.168,4195856.113,-735.866 
229623.168,4195656.113,-728.085 
229623.168,4195456.113,-724.889 
229623.168,4195256.113,-723.09 
229623.168,4195056.113,-726.367 
229623.168,4194856.113,-729.711 
229623.168,4194656.113,-732.662 
229623.168,4194456.113,-728.919 
229623.168,4194256.113,-727.237 
229623.168,4194056.113,-715.958 
229623.168,4193856.113,-712.199 
229623.168,4193656.113,-705.903 
229623.168,4193456.113,-699.485 
229623.168,4193256.113,-696.259 
229623.168,4193056.113,-693.401 
229623.168,4192856.113,-691.64 
229623.168,4192656.113,-689.761 
229623.168,4192456.113,-689.103 
229623.168,4192256.113,-678.059 
229623.168,4192056.113,-670.309 
229623.168,4191856.113,-663.283 
229623.168,4191656.113,-655.006 
229623.168,4191456.113,-647.552 
229623.168,4191256.113,-648.776 
229623.168,4191056.113,-629.433 
229623.168,4190856.113,-624.372 
229623.168,4190656.113,-614.845 
229623.168,4190456.113,-610.967 
229623.168,4190256.113,-603.165 
229623.168,4189856.113,-602.124 
229823.168,4208456.113,-620.763 
229823.168,4208256.113,-641.775 
229823.168,4208056.113,-651.518 
229823.168,4207856.113,-657.205 
229823.168,4207656.113,-658.558 
229823.168,4207456.113,-655.236 
229823.168,4207256.113,-652.36 
229823.168,4207056.113,-652.134 
229823.168,4206856.113,-659.393 
229823.168,4206656.113,-676.607 
229823.168,4206456.113,-672.99 
229823.168,4206256.113,-678.252 
229823.168,4206056.113,-675.834 
229823.168,4205856.113,-671.136 
229823.168,4205656.113,-668.19 
229823.168,4205456.113,-666.641 
229823.168,4205256.113,-666.858 
229823.168,4205056.113,-664.758 
229823.168,4204856.113,-663.514 
229823.168,4204656.113,-663.798 
229823.168,4204456.113,-665.621 
229823.168,4204256.113,-668.387 
229823.168,4204056.113,-670.181 
229823.168,4203856.113,-671.346 
229823.168,4203656.113,-671.872 
229823.168,4203456.113,-680.859 
229823.168,4203256.113,-697.276 
229823.168,4203056.113,-696.598 
229823.168,4202856.113,-696.707 
229823.168,4202656.113,-709.276 
229823.168,4202456.113,-716.887 
229823.168,4202256.113,-718.2 
229823.168,4202056.113,-720.242 
229823.168,4201856.113,-724.325 
229823.168,4201656.113,-726.497 
229823.168,4201456.113,-729.413 
229823.168,4201256.113,-734.147 
229823.168,4201056.113,-736.999 
229823.168,4200856.113,-739.033 
229823.168,4200656.113,-739.735 
229823.168,4200456.113,-742.723 
229823.168,4200256.113,-744.599 
229823.168,4200056.113,-747.22 
229823.168,4199856.113,-749.276 
229823.168,4199656.113,-751.658 
229823.168,4199456.113,-753.955 
229823.168,4199256.113,-756.093 
229823.168,4199056.113,-757.997 
229823.168,4198856.113,-757.439 
229823.168,4198656.113,-757.875 
229823.168,4198456.113,-759.071 
229823.168,4198256.113,-758.809 
229823.168,4198056.113,-758.356 
229823.168,4197856.113,-758.052 
229823.168,4197656.113,-756.419 
229823.168,4197456.113,-757.731 
229823.168,4197256.113,-756.315 
229823.168,4197056.113,-758.055 
229823.168,4196856.113,-756.911 
229823.168,4196656.113,-758.102 
229823.168,4196456.113,-757.593 
229823.168,4196256.113,-751.902 
229823.168,4196056.113,-749.062 
229823.168,4195856.113,-749.581 
229823.168,4195656.113,-746.095 
229823.168,4195456.113,-735.346 
229823.168,4195256.113,-724.877 
229823.168,4195056.113,-719.868 
229823.168,4194856.113,-718.849 
229823.168,4194656.113,-719.659 
229823.168,4194456.113,-721.246 
229823.168,4194256.113,-723.215 
229823.168,4194056.113,-715.042 
229823.168,4193856.113,-710.782 
229823.168,4193656.113,-705.229 
229823.168,4193456.113,-697.266 
229823.168,4193256.113,-693.468 
229823.168,4193056.113,-687.14 
229823.168,4192856.113,-685.371 
229823.168,4192656.113,-681.293 
229823.168,4192456.113,-681.247 
229823.168,4192256.113,-679.858 
229823.168,4192056.113,-677.321 
229823.168,4191856.113,-672.227 
229823.168,4191656.113,-664.871 
229823.168,4191456.113,-656.482 
229823.168,4191256.113,-650.385 
229823.168,4191056.113,-637.975 
229823.168,4190856.113,-620.305 
229823.168,4190656.113,-610.957 
229823.168,4190456.113,-605.689 
230023.168,4208256.113,-623.457 
230023.168,4208056.113,-640.236 
230023.168,4207856.113,-648.434 
230023.168,4207656.113,-656.139 
230023.168,4207456.113,-651.089 
230023.168,4207256.113,-653.079 
230023.168,4207056.113,-651.776 
230023.168,4206856.113,-656.463 
230023.168,4206656.113,-668.14 
230023.168,4206456.113,-667.206 
230023.168,4206256.113,-646.953 
230023.168,4206056.113,-653.249 
230023.168,4205856.113,-651.466 
230023.168,4205656.113,-655.738 
230023.168,4205456.113,-657.313 
230023.168,4205256.113,-658.748 
230023.168,4205056.113,-658.885 
230023.168,4204856.113,-658.489 
230023.168,4204656.113,-660.228 
230023.168,4204456.113,-660.373 
230023.168,4204256.113,-663.157 
230023.168,4204056.113,-665.809 
230023.168,4203856.113,-664.536 
230023.168,4203656.113,-670.15 
230023.168,4203456.113,-688.98 
230023.168,4203256.113,-701.361 
230023.168,4203056.113,-698.398 
230023.168,4202856.113,-698.872 
230023.168,4202656.113,-703.029 
230023.168,4202456.113,-709.916 
230023.168,4202256.113,-716.101 
230023.168,4202056.113,-720.898 
230023.168,4201856.113,-721.291 
230023.168,4201656.113,-724.182 
230023.168,4201456.113,-726.745 
230023.168,4201256.113,-731.196 
230023.168,4201056.113,-733.768 
230023.168,4200856.113,-734.302 
230023.168,4200656.113,-736.56 
230023.168,4200456.113,-738.994 
230023.168,4200256.113,-742.521 
230023.168,4200056.113,-745.834 
230023.168,4199856.113,-748.169 
230023.168,4199656.113,-750.059 
230023.168,4199456.113,-751.666 
230023.168,4199256.113,-754.536 
230023.168,4199056.113,-755.871 
230023.168,4198856.113,-755.5 
230023.168,4198656.113,-756.152 
230023.168,4198456.113,-756.271 
230023.168,4198256.113,-755.334 
230023.168,4198056.113,-754.275 
230023.168,4197856.113,-754.369 
230023.168,4197656.113,-753.716 
230023.168,4197456.113,-753.146 
230023.168,4197256.113,-752.718 
230023.168,4197056.113,-752.16 
230023.168,4196856.113,-752.445 
230023.168,4196656.113,-751.488 
230023.168,4196456.113,-751.761 
230023.168,4196256.113,-749.722 
230023.168,4196056.113,-743.878 
230023.168,4195856.113,-740.951 
230023.168,4195656.113,-738.681 
230023.168,4195456.113,-735.205 
230023.168,4195256.113,-733.252 
230023.168,4195056.113,-727.11 
230023.168,4194856.113,-721.191 
230023.168,4194656.113,-714.14 
230023.168,4194456.113,-713.129 
230023.168,4194256.113,-714.554 
230023.168,4194056.113,-711.617 
230023.168,4193856.113,-707.032 
230023.168,4193656.113,-701.227 
230023.168,4193456.113,-693.434 
230023.168,4193256.113,-687.224 
230023.168,4193056.113,-682.26 
230023.168,4192856.113,-677.099 
230023.168,4192656.113,-671.291 
230023.168,4192456.113,-669.301 
230023.168,4192256.113,-668.375 
230023.168,4192056.113,-665.212 
230023.168,4191856.113,-664.724 
230023.168,4191656.113,-664.881 
230023.168,4191456.113,-656.484 
230023.168,4191256.113,-647.896 
230023.168,4191056.113,-634.315 
230023.168,4190856.113,-624.562 
230023.168,4190656.113,-617.581 
230023.168,4190456.113,-614.641 
230023.168,4190256.113,-612.299 
230023.168,4190056.113,-604.066 
230223.168,4208256.113,-606.65 
230223.168,4208056.113,-620.916 
230223.168,4207856.113,-635.367 
230223.168,4207656.113,-641.682 
230223.168,4207456.113,-652.676 
230223.168,4207256.113,-652.439 
230223.168,4207056.113,-662.728 
230223.168,4206856.113,-652.306 
230223.168,4206656.113,-649.015 
230223.168,4206456.113,-648.378 
230223.168,4206256.113,-648.257 
230223.168,4206056.113,-657.264 
230223.168,4205856.113,-657.259 
230223.168,4205656.113,-664.51 
230223.168,4205456.113,-667.835 
230223.168,4205256.113,-668.169 
230223.168,4205056.113,-671.673 
230223.168,4204856.113,-665.305 
230223.168,4204656.113,-662.026 
230223.168,4204456.113,-663.795 
230223.168,4204256.113,-663.782 
230223.168,4204056.113,-664.978 
230223.168,4203856.113,-664.615 
230223.168,4203656.113,-671.965 
230223.168,4203456.113,-692.14 
230223.168,4203256.113,-697.366 
230223.168,4203056.113,-696.902 
230223.168,4202856.113,-697.728 
230223.168,4202656.113,-704.314 
230223.168,4202456.113,-706.892 
230223.168,4202256.113,-713.559 
230223.168,4202056.113,-717.416 
230223.168,4201856.113,-719.216 
230223.168,4201656.113,-719.818 
230223.168,4201456.113,-726.573 
230223.168,4201256.113,-730.345 
230223.168,4201056.113,-732.364 
230223.168,4200856.113,-731.384 
230223.168,4200656.113,-735.774 
230223.168,4200456.113,-738.898 
230223.168,4200256.113,-738.856 
230223.168,4200056.113,-742.197 
230223.168,4199856.113,-745.532 
230223.168,4199656.113,-748.584 
230223.168,4199456.113,-750.988 
230223.168,4199256.113,-753.497 
230223.168,4199056.113,-753.096 
230223.168,4198856.113,-754.138 
230223.168,4198656.113,-754.732 
230223.168,4198456.113,-754.88 
230223.168,4198256.113,-753.54 
230223.168,4198056.113,-753.318 
230223.168,4197856.113,-750.948 
230223.168,4197656.113,-750.843 
230223.168,4197456.113,-752.054 
230223.168,4197256.113,-748.856 
230223.168,4197056.113,-748.916 
230223.168,4196856.113,-751.303 
230223.168,4196656.113,-748.232 
230223.168,4196456.113,-745.701 
230223.168,4196256.113,-746.669 
230223.168,4196056.113,-742.234 
230223.168,4195856.113,-737.552 
230223.168,4195656.113,-733.81 
230223.168,4195456.113,-730.106 
230223.168,4195256.113,-729.237 
230223.168,4195056.113,-727.841 
230223.168,4194856.113,-726.29 
230223.168,4194656.113,-721.521 
230223.168,4194456.113,-709.685 
230223.168,4194256.113,-703.78 
230223.168,4194056.113,-703.236 
230223.168,4193856.113,-698.257 
230223.168,4193656.113,-693.974 
230223.168,4193456.113,-688.128 
230223.168,4193256.113,-683.607 
230223.168,4193056.113,-679.782 
230223.168,4192856.113,-674.633 
230223.168,4192656.113,-667.188 
230223.168,4192456.113,-662.517 
230223.168,4192256.113,-660.461 
230223.168,4192056.113,-658.651 
230223.168,4191856.113,-656.118 
230223.168,4191656.113,-652.038 
230223.168,4191456.113,-647.381 
230223.168,4191256.113,-640.261 
230223.168,4191056.113,-633.385 
230223.168,4190856.113,-627.767 
230223.168,4190656.113,-623.897 
230223.168,4190456.113,-620.297 
230223.168,4190256.113,-617.149 
230223.168,4190056.113,-612.991 
230223.168,4189856.113,-604.129 
230423.168,4208256.113,-608.134 
230423.168,4208056.113,-624.033 
230423.168,4207856.113,-623.047 
230423.168,4207656.113,-641.962 
230423.168,4207456.113,-641.474 
230423.168,4207256.113,-644.152 
230423.168,4207056.113,-644.058 
230423.168,4206856.113,-647.049 
230423.168,4206656.113,-662.251 
230423.168,4206456.113,-660.076 
230423.168,4206256.113,-662.213 
230423.168,4206056.113,-667.006 
230423.168,4205856.113,-666.948 
230423.168,4205656.113,-668.362 
230423.168,4205456.113,-668.663 
230423.168,4205256.113,-670.623 
230423.168,4205056.113,-671.614 
230423.168,4204856.113,-669.564 
230423.168,4204656.113,-667.376 
230423.168,4204456.113,-666.406 
230423.168,4204256.113,-664.958 
230423.168,4204056.113,-672.744 
230423.168,4203856.113,-677.351 
230423.168,4203656.113,-689.053 
230423.168,4203456.113,-695.097 
230423.168,4203256.113,-692.465 
230423.168,4203056.113,-695.702 
230423.168,4202856.113,-696.099 
230423.168,4202656.113,-704.939 
230423.168,4202456.113,-707.203 
230423.168,4202256.113,-712.008 
230423.168,4202056.113,-718.657 
230423.168,4201856.113,-719.22 
230423.168,4201656.113,-722.14 
230423.168,4201456.113,-725.19 
230423.168,4201256.113,-724.881 
230423.168,4201056.113,-731.228 
230423.168,4200856.113,-728.196 
230423.168,4200656.113,-732.543 
230423.168,4200456.113,-735.306 
230423.168,4200256.113,-736.502 
230423.168,4200056.113,-741.172 
230423.168,4199856.113,-744.55 
230423.168,4199656.113,-748.106 
230423.168,4199456.113,-750.951 
230423.168,4199256.113,-752.299 
230423.168,4199056.113,-753.255 
230423.168,4198856.113,-750.363 
230423.168,4198656.113,-751.237 
230423.168,4198456.113,-753.189 
230423.168,4198256.113,-755.878 
230423.168,4198056.113,-747.493 
230423.168,4197856.113,-748.707 
230423.168,4197656.113,-751.986 
230423.168,4197456.113,-751.292 
230423.168,4197256.113,-746.226 
230423.168,4197056.113,-746.544 
230423.168,4196856.113,-745.222 
230423.168,4196656.113,-747.082 
230423.168,4196456.113,-745.73 
230423.168,4196256.113,-744.947 
230423.168,4196056.113,-742.364 
230423.168,4195856.113,-736.947 
230423.168,4195656.113,-732.859 
230423.168,4195456.113,-730.241 
230423.168,4195256.113,-729.502 
230423.168,4195056.113,-724.555 
230423.168,4194856.113,-722.992 
230423.168,4194656.113,-722.308 
230423.168,4194456.113,-716.552 
230423.168,4194256.113,-701.085 
230423.168,4194056.113,-698.136 
230423.168,4193856.113,-691.508 
230423.168,4193656.113,-689.041 
230423.168,4193456.113,-683.433 
230423.168,4193256.113,-681.554 
230423.168,4193056.113,-677.348 
230423.168,4192856.113,-671.731 
230423.168,4192656.113,-666.489 
230423.168,4192456.113,-660.663 
230423.168,4192256.113,-657.327 
230423.168,4192056.113,-657.338 
230423.168,4191856.113,-654.11 
230423.168,4191656.113,-648.477 
230423.168,4191456.113,-643.636 
230423.168,4191256.113,-637.972 
230423.168,4191056.113,-631.042 
230423.168,4190856.113,-629.326 
230423.168,4190656.113,-628.471 
230423.168,4190456.113,-624.486 
230423.168,4190256.113,-620.555 
230423.168,4190056.113,-617 
230423.168,4189856.113,-604.911 
230623.168,4208056.113,-612.684 
230623.168,4207856.113,-618.63 
230623.168,4207656.113,-622.492 
230623.168,4207456.113,-623.694 
230623.168,4207256.113,-631.006 
230623.168,4207056.113,-638.287 
230623.168,4206856.113,-654.321 
230623.168,4206656.113,-672.741 
230623.168,4206456.113,-671.53 
230623.168,4206256.113,-670.174 
230623.168,4206056.113,-673.48 
230623.168,4205856.113,-669.182 
230623.168,4205656.113,-669.921 
230623.168,4205456.113,-678.836 
230623.168,4205256.113,-678.652 
230623.168,4205056.113,-674.851 
230623.168,4204856.113,-674.333 
230623.168,4204656.113,-670.738 
230623.168,4204456.113,-675.979 
230623.168,4204256.113,-674.295 
230623.168,4204056.113,-685.113 
230623.168,4203856.113,-690.567 
230623.168,4203656.113,-687.449 
230623.168,4203456.113,-700.244 
230623.168,4203256.113,-694.187 
230623.168,4203056.113,-694.412 
230623.168,4202856.113,-699.176 
230623.168,4202656.113,-704.406 
230623.168,4202456.113,-711.354 
230623.168,4202256.113,-714.855 
230623.168,4202056.113,-716.072 
230623.168,4201856.113,-721.191 
230623.168,4201656.113,-721.381 
230623.168,4201456.113,-725.637 
230623.168,4201256.113,-726.262 
230623.168,4201056.113,-728.174 
230623.168,4200856.113,-727.645 
230623.168,4200656.113,-730.813 
230623.168,4200456.113,-735.519 
230623.168,4200256.113,-731.394 
230623.168,4200056.113,-740.752 
230623.168,4199856.113,-744.114 
230623.168,4199656.113,-747.346 
230623.168,4199456.113,-748.357 
230623.168,4199256.113,-749.398 
230623.168,4199056.113,-750.793 
230623.168,4198856.113,-749.569 
230623.168,4198656.113,-750.231 
230623.168,4198456.113,-749.988 
230623.168,4198256.113,-751.412 
230623.168,4198056.113,-749.174 
230623.168,4197856.113,-747.148 
230623.168,4197656.113,-744.207 
230623.168,4197456.113,-749.126 
230623.168,4197256.113,-744.957 
230623.168,4197056.113,-744.432 
230623.168,4196856.113,-743.325 
230623.168,4196656.113,-745.261 
230623.168,4196456.113,-743.246 
230623.168,4196256.113,-737.661 
230623.168,4196056.113,-738.935 
230623.168,4195856.113,-736.819 
230623.168,4195656.113,-733.366 
230623.168,4195456.113,-730.161 
230623.168,4195256.113,-731.883 
230623.168,4195056.113,-726.509 
230623.168,4194856.113,-723.383 
230623.168,4194656.113,-719.775 
230623.168,4194456.113,-714.791 
230623.168,4194256.113,-704.763 
230623.168,4194056.113,-699.015 
230623.168,4193856.113,-688.916 
230623.168,4193656.113,-685.531 
230623.168,4193456.113,-678.549 
230623.168,4193256.113,-676.253 
230623.168,4193056.113,-672.9 
230623.168,4192856.113,-669.05 
230623.168,4192656.113,-666.603 
230623.168,4192456.113,-663.369 
230623.168,4192256.113,-659.816 
230623.168,4192056.113,-658.644 
230623.168,4191856.113,-652.247 
230623.168,4191656.113,-649.144 
230623.168,4191456.113,-644.829 
230623.168,4191256.113,-637.203 
230623.168,4191056.113,-633.641 
230623.168,4190856.113,-626.711 
230623.168,4190656.113,-622.197 
230623.168,4190456.113,-619.229 
230623.168,4190256.113,-614.19 
230623.168,4190056.113,-609.34 
230823.168,4208056.113,-604.495 
230823.168,4207856.113,-603.073 
230823.168,4207656.113,-613.372 
230823.168,4207456.113,-625.251 
230823.168,4207256.113,-626.592 
230823.168,4207056.113,-626.377 
230823.168,4206856.113,-640.538 
230823.168,4206656.113,-660.869 
230823.168,4206456.113,-668.511 
230823.168,4206256.113,-670.387 
230823.168,4206056.113,-676.155 
230823.168,4205856.113,-681.679 
230823.168,4205656.113,-680.563 
230823.168,4205456.113,-684.272 
230823.168,4205256.113,-677.215 
230823.168,4205056.113,-675.561 
230823.168,4204856.113,-674.236 
230823.168,4204656.113,-671.046 
230823.168,4204456.113,-678.266 
230823.168,4204256.113,-688.637 
230823.168,4204056.113,-691.793 
230823.168,4203856.113,-688.088 
230823.168,4203656.113,-689.373 
230823.168,4203456.113,-691.23 
230823.168,4203256.113,-700.364 
230823.168,4203056.113,-694.585 
230823.168,4202856.113,-702.44 
230823.168,4202656.113,-705.503 
230823.168,4202456.113,-705.293 
230823.168,4202256.113,-708.52 
230823.168,4202056.113,-714.713 
230823.168,4201856.113,-723.633 
230823.168,4201656.113,-714.367 
230823.168,4201456.113,-720.535 
230823.168,4201256.113,-724.32 
230823.168,4201056.113,-731.454 
230823.168,4200856.113,-727.742 
230823.168,4200656.113,-732.79 
230823.168,4200456.113,-733.927 
230823.168,4200256.113,-733.871 
230823.168,4200056.113,-744.021 
230823.168,4199856.113,-741.529 
230823.168,4199656.113,-741.699 
230823.168,4199456.113,-741.438 
230823.168,4199256.113,-747.754 
230823.168,4199056.113,-746.716 
230823.168,4198856.113,-748.043 
230823.168,4198656.113,-750.757 
230823.168,4198456.113,-746.102 
230823.168,4198256.113,-752.286 
230823.168,4198056.113,-752.946 
230823.168,4197856.113,-752.348 
230823.168,4197656.113,-744.631 
230823.168,4197456.113,-747.641 
230823.168,4197256.113,-746.857 
230823.168,4197056.113,-748.173 
230823.168,4196856.113,-750.033 
230823.168,4196656.113,-741.54 
230823.168,4196456.113,-742.409 
230823.168,4196256.113,-735.894 
230823.168,4196056.113,-743.368 
230823.168,4195856.113,-738.088 
230823.168,4195656.113,-732.782 
230823.168,4195456.113,-730.8 
230823.168,4195256.113,-734.749 
230823.168,4195056.113,-730.06 
230823.168,4194856.113,-728.557 
230823.168,4194656.113,-725.193 
230823.168,4194456.113,-719.209 
230823.168,4194256.113,-704.94 
230823.168,4194056.113,-701.202 
230823.168,4193856.113,-687.3 
230823.168,4193656.113,-684.663 
230823.168,4193456.113,-675.41 
230823.168,4193256.113,-672.67 
230823.168,4193056.113,-671.144 
230823.168,4192856.113,-668.937 
230823.168,4192656.113,-664.358 
230823.168,4192456.113,-665.05 
230823.168,4192256.113,-658.004 
230823.168,4192056.113,-654.692 
230823.168,4191856.113,-648.776 
230823.168,4191656.113,-644.699 
230823.168,4191456.113,-641.3 
230823.168,4191256.113,-635.129 
230823.168,4191056.113,-626.112 
230823.168,4190856.113,-619.969 
230823.168,4190656.113,-612.045 
230823.168,4190456.113,-609.067 
230823.168,4190256.113,-606.646 
230823.168,4190056.113,-601.358 
231023.168,4207456.113,-603.227 
231023.168,4207256.113,-620.081 
231023.168,4207056.113,-631.203 
231023.168,4206856.113,-640.926 
231023.168,4206656.113,-657.045 
231023.168,4206456.113,-668.02 
231023.168,4206256.113,-673.925 
231023.168,4206056.113,-680.052 
231023.168,4205856.113,-686.182 
231023.168,4205656.113,-683.377 
231023.168,4205456.113,-682.65 
231023.168,4205256.113,-682.075 
231023.168,4205056.113,-676.799 
231023.168,4204856.113,-675.297 
231023.168,4204656.113,-675.628 
231023.168,4204456.113,-681.578 
231023.168,4204256.113,-688.841 
231023.168,4204056.113,-692.006 
231023.168,4203856.113,-689.79 
231023.168,4203656.113,-691.189 
231023.168,4203456.113,-693.716 
231023.168,4203256.113,-698.503 
231023.168,4203056.113,-696.384 
231023.168,4202856.113,-702.999 
231023.168,4202656.113,-705.328 
231023.168,4202456.113,-707.217 
231023.168,4202256.113,-714.282 
231023.168,4202056.113,-718.121 
231023.168,4201856.113,-723.331 
231023.168,4201656.113,-722.72 
231023.168,4201456.113,-721.456 
231023.168,4201256.113,-723.89 
231023.168,4201056.113,-725.584 
231023.168,4200856.113,-726.925 
231023.168,4200656.113,-729.342 
231023.168,4200456.113,-735.221 
231023.168,4200256.113,-740.898 
231023.168,4200056.113,-737.711 
231023.168,4199856.113,-737.394 
231023.168,4199656.113,-742.668 
231023.168,4199456.113,-740.535 
231023.168,4199256.113,-745.266 
231023.168,4199056.113,-743.686 
231023.168,4198856.113,-741.06 
231023.168,4198656.113,-748.672 
231023.168,4198456.113,-745.492 
231023.168,4198256.113,-748.055 
231023.168,4198056.113,-752.821 
231023.168,4197856.113,-744.039 
231023.168,4197656.113,-740.092 
231023.168,4197456.113,-738.938 
231023.168,4197256.113,-743.784 
231023.168,4197056.113,-743.97 
231023.168,4196856.113,-738.893 
231023.168,4196656.113,-729.662 
231023.168,4196456.113,-735.107 
231023.168,4196256.113,-728.564 
231023.168,4196056.113,-732.769 
231023.168,4195856.113,-730.948 
231023.168,4195656.113,-722.563 
231023.168,4195456.113,-725.279 
231023.168,4195256.113,-725.51 
231023.168,4195056.113,-712.921 
231023.168,4194856.113,-718.701 
231023.168,4194656.113,-725.866 
231023.168,4194456.113,-711.778 
231023.168,4194256.113,-699.913 
231023.168,4194056.113,-705.017 
231023.168,4193856.113,-687.551 
231023.168,4193656.113,-674.861 
231023.168,4193456.113,-672.501 
231023.168,4193256.113,-669.827 
231023.168,4193056.113,-665.213 
231023.168,4192856.113,-654.055 
231023.168,4192656.113,-660.388 
231023.168,4192456.113,-655.684 
231023.168,4192256.113,-648.745 
231023.168,4192056.113,-655.677 
231023.168,4191856.113,-639.919 
231023.168,4191656.113,-635.605 
231023.168,4191456.113,-636.76 
231023.168,4191256.113,-613.69 
231023.168,4191056.113,-624.799 
231023.168,4190856.113,-618.196 
231023.168,4190656.113,-609.998 
231023.168,4190456.113,-606.647 
231023.168,4190256.113,-602.405 
231023.168,4189256.113,-607.475 
231023.168,4189056.113,-606.924 
231023.168,4188856.113,-602.134 
231223.168,4207256.113,-604.251 
231223.168,4207056.113,-628.703 
231223.168,4206856.113,-645.873 
231223.168,4206656.113,-655.764 
231223.168,4206456.113,-665.208 
231223.168,4206256.113,-666.68 
231223.168,4206056.113,-662.83 
231223.168,4205856.113,-666.551 
231223.168,4205656.113,-671.176 
231223.168,4205456.113,-670.615 
231223.168,4205256.113,-671.104 
231223.168,4205056.113,-673.221 
231223.168,4204856.113,-684.861 
231223.168,4204656.113,-688.47 
231223.168,4204456.113,-689.05 
231223.168,4204256.113,-693.197 
231223.168,4204056.113,-691.173 
231223.168,4203856.113,-689.32 
231223.168,4203656.113,-691.933 
231223.168,4203456.113,-689.55 
231223.168,4203256.113,-697.282 
231223.168,4203056.113,-699.66 
231223.168,4202856.113,-702.575 
231223.168,4202656.113,-707.422 
231223.168,4202456.113,-706.573 
231223.168,4202256.113,-714.746 
231223.168,4202056.113,-721.606 
231223.168,4201856.113,-724.568 
231223.168,4201656.113,-722.369 
231223.168,4201456.113,-719.329 
231223.168,4201256.113,-726.415 
231223.168,4201056.113,-726.128 
231223.168,4200856.113,-727.794 
231223.168,4200656.113,-726.402 
231223.168,4200456.113,-727.096 
231223.168,4200256.113,-737.029 
231223.168,4200056.113,-735.87 
231223.168,4199856.113,-728.512 
231223.168,4199656.113,-736.175 
231223.168,4199456.113,-742.223 
231223.168,4199256.113,-741.86 
231223.168,4199056.113,-744.843 
231223.168,4198856.113,-742.059 
231223.168,4198656.113,-745.132 
231223.168,4198456.113,-742.953 
231223.168,4198256.113,-739.735 
231223.168,4198056.113,-745.873 
231223.168,4197856.113,-744.681 
231223.168,4197656.113,-743.144 
231223.168,4197456.113,-738.303 
231223.168,4197256.113,-734.881 
231223.168,4197056.113,-735.177 
231223.168,4196856.113,-733.186 
231223.168,4196656.113,-726.86 
231223.168,4196456.113,-726.662 
231223.168,4196256.113,-731.289 
231223.168,4196056.113,-727.086 
231223.168,4195856.113,-725.933 
231223.168,4195656.113,-723.78 
231223.168,4195456.113,-719.212 
231223.168,4195256.113,-720.081 
231223.168,4195056.113,-720.089 
231223.168,4194856.113,-718.946 
231223.168,4194656.113,-720.024 
231223.168,4194456.113,-710.572 
231223.168,4194256.113,-702.059 
231223.168,4194056.113,-699.063 
231223.168,4193856.113,-681.869 
231223.168,4193656.113,-674.329 
231223.168,4193456.113,-663.744 
231223.168,4193256.113,-661.717 
231223.168,4193056.113,-656.186 
231223.168,4192856.113,-656.441 
231223.168,4192656.113,-639.405 
231223.168,4192456.113,-646.361 
231223.168,4192256.113,-639.458 
231223.168,4192056.113,-633.836 
231223.168,4191856.113,-633.909 
231223.168,4191656.113,-633.594 
231223.168,4191456.113,-625.245 
231223.168,4191256.113,-617.399 
231223.168,4191056.113,-612.066 
231223.168,4190856.113,-609.453 
231223.168,4190656.113,-610.676 
231223.168,4190456.113,-611.201 
231223.168,4190256.113,-604.462 
231223.168,4189456.113,-610.704 
231223.168,4189256.113,-617.476 
231223.168,4189056.113,-607.376 
231423.168,4207056.113,-606.201 
231423.168,4206856.113,-621.544 
231423.168,4206656.113,-639.19 
231423.168,4206456.113,-655.9 
231423.168,4206256.113,-659.689 
231423.168,4206056.113,-657.616 
231423.168,4205856.113,-662.62 
231423.168,4205656.113,-665.609 
231423.168,4205456.113,-667.276 
231423.168,4205256.113,-674.791 
231423.168,4205056.113,-687.208 
231423.168,4204856.113,-694.447 
231423.168,4204656.113,-692.215 
231423.168,4204456.113,-689.942 
231423.168,4204256.113,-691.984 
231423.168,4204056.113,-690.756 
231423.168,4203856.113,-690.361 
231423.168,4203656.113,-691.853 
231423.168,4203456.113,-693.168 
231423.168,4203256.113,-698.471 
231423.168,4203056.113,-699.514 
231423.168,4202856.113,-702.626 
231423.168,4202656.113,-704.025 
231423.168,4202456.113,-709.183 
231423.168,4202256.113,-713.213 
231423.168,4202056.113,-711.453 
231423.168,4201856.113,-721.282 
231423.168,4201656.113,-721.453 
231423.168,4201456.113,-718.983 
231423.168,4201256.113,-725.301 
231423.168,4201056.113,-726.251 
231423.168,4200856.113,-727.299 
231423.168,4200656.113,-726.466 
231423.168,4200456.113,-730.503 
231423.168,4200256.113,-733.839 
231423.168,4200056.113,-734.28 
231423.168,4199856.113,-736.233 
231423.168,4199656.113,-736.285 
231423.168,4199456.113,-740.416 
231423.168,4199256.113,-742.927 
231423.168,4199056.113,-743.253 
231423.168,4198856.113,-741.872 
231423.168,4198656.113,-746.527 
231423.168,4198456.113,-741.972 
231423.168,4198256.113,-739.174 
231423.168,4198056.113,-743.042 
231423.168,4197856.113,-742.833 
231423.168,4197656.113,-740.373 
231423.168,4197456.113,-737.931 
231423.168,4197256.113,-734.65 
231423.168,4197056.113,-729.392 
231423.168,4196856.113,-734.19 
231423.168,4196656.113,-722.936 
231423.168,4196456.113,-733.533 
231423.168,4196256.113,-727.765 
231423.168,4196056.113,-720.88 
231423.168,4195856.113,-725.399 
231423.168,4195656.113,-724.943 
231423.168,4195456.113,-718.009 
231423.168,4195256.113,-721.522 
231423.168,4195056.113,-718.022 
231423.168,4194856.113,-711.881 
231423.168,4194656.113,-708.088 
231423.168,4194456.113,-714.362 
231423.168,4194256.113,-705.59 
231423.168,4194056.113,-709.943 
231423.168,4193856.113,-691.968 
231423.168,4193656.113,-671.096 
231423.168,4193456.113,-666.749 
231423.168,4193256.113,-658.01 
231423.168,4193056.113,-657.643 
231423.168,4192856.113,-645.413 
231423.168,4192656.113,-637.386 
231423.168,4192456.113,-635.943 
231423.168,4192256.113,-634.315 
231423.168,4192056.113,-633.244 
231423.168,4191856.113,-628.795 
231423.168,4191656.113,-629.996 
231423.168,4191456.113,-615.189 
231423.168,4191256.113,-611.541 
231423.168,4191056.113,-613.032 
231423.168,4190856.113,-616.1 
231423.168,4190656.113,-605.496 
231423.168,4190456.113,-606.429 
231423.168,4190256.113,-601.7 
231423.168,4190056.113,-614.279 
231423.168,4189856.113,-614.991 
231423.168,4189656.113,-618.346 
231423.168,4189456.113,-630.482 
231423.168,4189256.113,-615.649 
231423.168,4189056.113,-603.952 
231423.168,4188856.113,-600.351 
231623.168,4207056.113,-605.585 
231623.168,4206856.113,-631.328 
231623.168,4206656.113,-656.784 
231623.168,4206456.113,-679.569 
231623.168,4206256.113,-672.037 
231623.168,4206056.113,-663.009 
231623.168,4205856.113,-667.622 
231623.168,4205656.113,-673.152 
231623.168,4205456.113,-677.707 
231623.168,4205256.113,-688.092 
231623.168,4205056.113,-693.994 
231623.168,4204856.113,-692.071 
231623.168,4204656.113,-690.141 
231623.168,4204456.113,-690.823 
231623.168,4204256.113,-690.423 
231623.168,4204056.113,-691.768 
231623.168,4203856.113,-691.173 
231623.168,4203656.113,-691.461 
231623.168,4203456.113,-693.888 
231623.168,4203256.113,-697.081 
231623.168,4203056.113,-700.321 
231623.168,4202856.113,-703.093 
231623.168,4202656.113,-706.504 
231623.168,4202456.113,-709.933 
231623.168,4202256.113,-713.165 
231623.168,4202056.113,-715.643 
231623.168,4201856.113,-718.764 
231623.168,4201656.113,-720.399 
231623.168,4201456.113,-722.513 
231623.168,4201256.113,-723.986 
231623.168,4201056.113,-725.059 
231623.168,4200856.113,-728.362 
231623.168,4200656.113,-729.14 
231623.168,4200456.113,-730.453 
231623.168,4200256.113,-732.436 
231623.168,4200056.113,-733.674 
231623.168,4199856.113,-733.531 
231623.168,4199656.113,-735.03 
231623.168,4199456.113,-738.976 
231623.168,4199256.113,-739.352 
231623.168,4199056.113,-740.679 
231623.168,4198856.113,-741.796 
231623.168,4198656.113,-742.344 
231623.168,4198456.113,-741.87 
231623.168,4198256.113,-740.085 
231623.168,4198056.113,-740.818 
231623.168,4197856.113,-740.139 
231623.168,4197656.113,-737.606 
231623.168,4197456.113,-734.96 
231623.168,4197256.113,-733.729 
231623.168,4197056.113,-731.593 
231623.168,4196856.113,-731.791 
231623.168,4196656.113,-724.832 
231623.168,4196456.113,-723.963 
231623.168,4196256.113,-722.877 
231623.168,4196056.113,-719.894 
231623.168,4195856.113,-722.431 
231623.168,4195656.113,-720.752 
231623.168,4195456.113,-718.907 
231623.168,4195256.113,-714.824 
231623.168,4195056.113,-713.174 
231623.168,4194856.113,-710.537 
231623.168,4194656.113,-703.654 
231623.168,4194456.113,-705.199 
231623.168,4194256.113,-700.487 
231623.168,4194056.113,-698.429 
231623.168,4193856.113,-697.276 
231623.168,4193656.113,-676.429 
231623.168,4193456.113,-666.3 
231623.168,4193256.113,-657.47 
231623.168,4193056.113,-654.358 
231623.168,4192856.113,-643.64 
231623.168,4192656.113,-638.195 
231623.168,4192456.113,-632.833 
231623.168,4192256.113,-627.097 
231623.168,4192056.113,-627.442 
231623.168,4191856.113,-628.337 
231623.168,4191656.113,-621.626 
231623.168,4191456.113,-614.239 
231623.168,4191256.113,-612.237 
231623.168,4191056.113,-605.566 
231623.168,4190856.113,-605.952 
231623.168,4190656.113,-605.84 
231623.168,4190456.113,-604.062 
231623.168,4190256.113,-602.682 
231623.168,4190056.113,-627.752 
231623.168,4189856.113,-648.995 
231623.168,4189656.113,-638.01 
231623.168,4189456.113,-635.54 
231623.168,4189256.113,-613.619 
231623.168,4189056.113,-604.346 
231823.168,4207056.113,-610.151 
231823.168,4206856.113,-628.128 
231823.168,4206656.113,-673.533 
231823.168,4206456.113,-692.98 
231823.168,4206256.113,-677.405 
231823.168,4206056.113,-665.223 
231823.168,4205856.113,-669.239 
231823.168,4205656.113,-675.754 
231823.168,4205456.113,-682.98 
231823.168,4205256.113,-689.683 
231823.168,4205056.113,-690.288 
231823.168,4204856.113,-692.471 
231823.168,4204656.113,-691.793 
231823.168,4204456.113,-689.603 
231823.168,4204256.113,-689.371 
231823.168,4204056.113,-692.799 
231823.168,4203856.113,-694.121 
231823.168,4203656.113,-693.755 
231823.168,4203456.113,-694.889 
231823.168,4203256.113,-697.4 
231823.168,4203056.113,-699.553 
231823.168,4202856.113,-703.415 
231823.168,4202656.113,-703.862 
231823.168,4202456.113,-709.589 
231823.168,4202256.113,-714.452 
231823.168,4202056.113,-715.932 
231823.168,4201856.113,-717.334 
