521464.104,4171471.237,-410.6 
521464.104,4171371.057,-414.6 
521464.104,4171270.878,-421.7 
521464.104,4171170.699,-433.2 
521464.104,4171070.520,-440.7 
521464.104,4170970.341,-447.3 
521464.104,4170870.161,-447.5 
521464.104,4170769.982,-449.6 
521464.104,4170669.803,-456.6 
521464.104,4170569.624,-454.1 
521464.104,4170469.444,-469.4 
521464.104,4170369.265,-474.2 
521464.104,4170269.086,-472.9 
521464.104,4170168.907,-488.5 
521464.104,4170068.728,-509.8 
521464.104,4169968.548,-515.3 
521464.104,4169868.369,-524.5 
521464.104,4169768.190,-536.1 
521464.104,4169668.011,-548.3 
521464.104,4169567.832,-556.1 
521464.104,4169467.652,-562.3 
521464.104,4169367.473,-567.9 
521464.104,4169267.294,-575.4 
521464.104,4169167.115,-586.9 
521464.104,4169066.935,-594.8 
521464.104,4168966.756,-596.7 
521464.104,4168866.577,-606.4 
521464.104,4168766.398,-614.1 
521464.104,4168666.219,-621.7 
521464.104,4162455.108,-625 
521464.104,4162354.928,-606.6 
521464.104,4162254.749,-593.5 
521464.104,4162154.570,-587.8 
521464.104,4162054.391,-585.7 
521464.104,4161954.211,-582.3 
521464.104,4161854.032,-594.5 
521464.104,4161753.853,-607.1 
521464.104,4161653.674,-610.5 
521464.104,4161553.495,-609.2 
521464.104,4161453.315,-598.3 
521464.104,4161353.136,-588.8 
521464.104,4161252.957,-581.9 
521464.104,4161152.778,-573.8 
521464.104,4161052.599,-581.6 
521464.104,4160952.419,-600.2 
521464.104,4160852.240,-620.9 
521464.104,4160752.061,-627.4 
521464.104,4160551.703,-609.5 
521464.104,4160451.523,-598.2 
521464.104,4160351.344,-593.3 
521464.104,4160251.165,-592.9 
521464.104,4160150.986,-591.6 
521464.104,4160050.806,-593.3 
521464.104,4159950.627,-612.5 
521464.104,4159549.910,-605.7 
521464.104,4159449.731,-582.5 
521464.104,4159349.552,-586.8 
521464.104,4159249.373,-609 
521464.104,4159149.194,-614.5 
521464.104,4159049.014,-606 
521464.104,4158948.835,-597.6 
521464.104,4158848.656,-608.1 
521464.104,4158748.477,-624.5 
521464.104,4158648.297,-625.7 
521464.104,4158548.118,-620.6 
521464.104,4158347.760,-620.7 
521464.104,4158247.581,-617 
521464.104,4158047.222,-616.9 
521564.403,4181990.054,-136.9 
521564.403,4181889.875,-146.1 
521564.403,4181789.695,-158.7 
521564.403,4181689.516,-170.1 
521564.403,4181589.337,-173.2 
521564.403,4181489.158,-167.9 
521564.403,4181388.978,-170.5 
521564.403,4181288.799,-171.7 
521564.403,4181188.620,-167.2 
521564.403,4181088.441,-154.9 
521564.403,4180988.262,-135.8 
521564.403,4179886.290,-123.7 
521564.403,4179786.111,-128.4 
521564.403,4179685.932,-134 
521564.403,4179585.753,-140.4 
521564.403,4179485.573,-150.2 
521564.403,4179385.394,-167 
521564.403,4179285.215,-184.2 
521564.403,4179185.036,-195.3 
521564.403,4179084.857,-199 
521564.403,4178984.677,-208.6 
521564.403,4178884.498,-226.1 
521564.403,4178784.319,-260 
521564.403,4178684.140,-307.4 
521564.403,4178583.961,-341.1 
521564.403,4178483.781,-349.6 
521564.403,4178383.602,-339.7 
521564.403,4178283.423,-345.4 
521564.403,4178183.244,-365.5 
521564.403,4178083.065,-397.4 
521564.403,4177982.885,-405.7 
521564.403,4177882.706,-403.4 
521564.403,4177782.527,-403.9 
521564.403,4177682.348,-402.5 
521564.403,4177582.168,-384.8 
521564.403,4177481.989,-357.8 
521564.403,4177381.810,-326.1 
521564.403,4177281.631,-294.5 
521564.403,4177181.452,-281 
521564.403,4177081.272,-276.8 
521564.403,4176981.093,-280.9 
521564.403,4176880.914,-306.7 
521564.403,4176780.735,-308.6 
521564.403,4176680.556,-293.2 
521564.403,4176580.376,-259.8 
521564.403,4176480.197,-223.5 
521564.403,4176380.018,-199.8 
521564.403,4176279.839,-176.2 
521564.403,4176179.659,-148.2 
521564.403,4176079.480,-124.7 
521564.403,4174777.151,-127.6 
521564.403,4174676.971,-130.1 
521564.403,4174576.792,-142 
521564.403,4174476.613,-144 
521564.403,4174376.434,-152 
521564.403,4174276.254,-166.6 
521564.403,4174176.075,-175.5 
521564.403,4174075.896,-195.2 
521564.403,4173975.717,-222.8 
521564.403,4173875.538,-240.2 
521564.403,4173775.358,-244.4 
521564.403,4173675.179,-250 
521564.403,4173575.000,-263.2 
521564.403,4173474.821,-280.6 
521564.403,4173374.642,-291.3 
521564.403,4173274.462,-298.7 
521564.403,4173174.283,-303.2 
521564.403,4173074.104,-310 
521564.403,4172973.925,-327.5 
521564.403,4172873.746,-334.4 
521564.403,4172773.566,-343.4 
521564.403,4172673.387,-343.2 
521564.403,4172573.208,-338.2 
521564.403,4172473.029,-347.6 
521564.403,4172372.849,-345.4 
521564.403,4172272.670,-336.8 
521564.403,4172172.491,-344.9 
521564.403,4172072.312,-358.9 
521564.403,4171972.133,-376.3 
521564.403,4171871.953,-381.5 
521564.403,4171771.774,-387.9 
521564.403,4171671.595,-396 
521564.403,4171571.416,-406.6 
521564.403,4171471.237,-417.5 
521564.403,4171371.057,-431.5 
521564.403,4171270.878,-433.2 
521564.403,4171170.699,-442.4 
521564.403,4171070.520,-452.4 
521564.403,4170970.341,-459.9 
521564.403,4170870.161,-463.6 
521564.403,4170769.982,-463.4 
521564.403,4170669.803,-472.7 
521564.403,4170569.624,-468.3 
521564.403,4170469.444,-482.2 
521564.403,4170369.265,-488.1 
521564.403,4170269.086,-491.1 
521564.403,4170168.907,-504.6 
521564.403,4170068.728,-516.5 
521564.403,4169968.548,-528.8 
521564.403,4169868.369,-535.9 
521564.403,4169768.190,-545.8 
521564.403,4169668.011,-557 
521564.403,4169567.832,-566.9 
521564.403,4169467.652,-578.3 
521564.403,4169367.473,-578.7 
521564.403,4169267.294,-581.8 
521564.403,4169167.115,-595.5 
521564.403,4169066.935,-604.8 
521564.403,4168966.756,-609.7 
521564.403,4168866.577,-610.2 
521564.403,4168766.398,-623 
521564.403,4168666.219,-627.5 
521564.403,4162455.108,-620.2 
521564.403,4162354.928,-606 
521564.403,4162254.749,-593.2 
521564.403,4162154.570,-595.7 
521564.403,4162054.391,-595.8 
521564.403,4161954.211,-594.8 
521564.403,4161854.032,-605 
521564.403,4161753.853,-618.2 
521564.403,4161653.674,-619.8 
521564.403,4161553.495,-620.5 
521564.403,4161453.315,-612.1 
521564.403,4161353.136,-603.5 
521564.403,4161252.957,-590.2 
521564.403,4161152.778,-572.7 
521564.403,4161052.599,-569.7 
521564.403,4160952.419,-587.6 
521564.403,4160852.240,-612.1 
521564.403,4160451.523,-616.3 
521564.403,4160351.344,-606.4 
521564.403,4160251.165,-611.1 
521564.403,4160150.986,-605.1 
521564.403,4160050.806,-595.5 
521564.403,4159950.627,-613.4 
521564.403,4159549.910,-618.3 
521564.403,4159449.731,-598 
521564.403,4159349.552,-599.4 
521564.403,4159249.373,-615.7 
521564.403,4158948.835,-617.2 
521564.403,4158848.656,-613.6 
521664.701,4182090.233,-125.6 
521664.701,4181990.054,-138.9 
521664.701,4181889.875,-156.3 
521664.701,4181789.695,-171.2 
521664.701,4181689.516,-184.7 
521664.701,4181589.337,-192.3 
521664.701,4181489.158,-190.9 
521664.701,4181388.978,-189.1 
521664.701,4181288.799,-187.3 
521664.701,4181188.620,-181.2 
521664.701,4181088.441,-164.4 
521664.701,4180988.262,-139.9 
521664.701,4180086.649,-121.3 
521664.701,4179986.470,-123.3 
521664.701,4179886.290,-126.5 
521664.701,4179786.111,-131.2 
521664.701,4179685.932,-136.5 
521664.701,4179585.753,-144 
521664.701,4179485.573,-160.3 
521664.701,4179385.394,-176.9 
521664.701,4179285.215,-190.8 
521664.701,4179185.036,-204.1 
521664.701,4179084.857,-210.6 
521664.701,4178984.677,-224.1 
521664.701,4178884.498,-243.6 
521664.701,4178784.319,-260.9 
521664.701,4178684.140,-299.2 
521664.701,4178583.961,-338.2 
521664.701,4178483.781,-357.7 
521664.701,4178383.602,-362.9 
521664.701,4178283.423,-359.6 
521664.701,4178183.244,-385.6 
521664.701,4178083.065,-410 
521664.701,4177982.885,-412.9 
521664.701,4177882.706,-411.2 
521664.701,4177782.527,-410 
521664.701,4177682.348,-405.9 
521664.701,4177582.168,-383.3 
521664.701,4177481.989,-346 
521664.701,4177381.810,-308 
521664.701,4177281.631,-298.2 
521664.701,4177181.452,-298.1 
521664.701,4177081.272,-301.8 
521664.701,4176981.093,-317.2 
521664.701,4176880.914,-319.6 
521664.701,4176780.735,-308.2 
521664.701,4176680.556,-277.3 
521664.701,4176580.376,-237.6 
521664.701,4176480.197,-206.5 
521664.701,4176380.018,-183.4 
521664.701,4176279.839,-161.8 
521664.701,4176179.659,-135.5 
521664.701,4176079.480,-121.3 
521664.701,4174777.151,-122.3 
521664.701,4174676.971,-134.8 
521664.701,4174576.792,-144.4 
521664.701,4174476.613,-145.8 
521664.701,4174376.434,-159.8 
521664.701,4174276.254,-167 
521664.701,4174176.075,-174.6 
521664.701,4174075.896,-195.7 
521664.701,4173975.717,-216.5 
521664.701,4173875.538,-238.3 
521664.701,4173775.358,-242.9 
521664.701,4173675.179,-258.6 
521664.701,4173575.000,-273.3 
521664.701,4173474.821,-287.1 
521664.701,4173374.642,-295.1 
521664.701,4173274.462,-303.4 
521664.701,4173174.283,-316.8 
521664.701,4173074.104,-320 
521664.701,4172973.925,-331 
521664.701,4172873.746,-341.6 
521664.701,4172773.566,-347.8 
521664.701,4172673.387,-356.3 
521664.701,4172573.208,-347.2 
521664.701,4172473.029,-354.4 
521664.701,4172372.849,-355.2 
521664.701,4172272.670,-336 
521664.701,4172172.491,-348.9 
521664.701,4172072.312,-357.6 
521664.701,4171972.133,-375.2 
521664.701,4171871.953,-391.2 
521664.701,4171771.774,-397.9 
521664.701,4171671.595,-404.8 
521664.701,4171571.416,-412.8 
521664.701,4171471.237,-425.4 
521664.701,4171371.057,-435.7 
521664.701,4171270.878,-452.5 
521664.701,4171170.699,-455.3 
521664.701,4171070.520,-464.1 
521664.701,4170970.341,-470.4 
521664.701,4170870.161,-476.1 
521664.701,4170769.982,-479.3 
521664.701,4170669.803,-485.9 
521664.701,4170569.624,-484.4 
521664.701,4170469.444,-493.5 
521664.701,4170369.265,-510 
521664.701,4170269.086,-510.4 
521664.701,4170168.907,-515 
521664.701,4170068.728,-526.7 
521664.701,4169968.548,-538.1 
521664.701,4169868.369,-547.9 
521664.701,4169768.190,-554.6 
521664.701,4169668.011,-565.5 
521664.701,4169567.832,-575.1 
521664.701,4169467.652,-584.8 
521664.701,4169367.473,-591.2 
521664.701,4169267.294,-594.7 
521664.701,4169167.115,-603.5 
521664.701,4169066.935,-613.3 
521664.701,4168966.756,-618.6 
521664.701,4168866.577,-616.4 
521664.701,4168766.398,-627.3 
521664.701,4162455.108,-621.9 
521664.701,4162354.928,-608.5 
521664.701,4162254.749,-597.4 
521664.701,4162154.570,-603.1 
521664.701,4162054.391,-604.9 
521664.701,4161954.211,-604.6 
521664.701,4161854.032,-610.3 
521664.701,4161353.136,-611.4 
521664.701,4161252.957,-602.7 
521664.701,4161152.778,-582.4 
521664.701,4161052.599,-577 
521664.701,4160952.419,-584 
521664.701,4160852.240,-605.9 
521664.701,4160351.344,-619.6 
521664.701,4160251.165,-622 
521664.701,4160150.986,-615.3 
521664.701,4160050.806,-606.2 
521664.701,4159950.627,-608.9 
521664.701,4159449.731,-609.1 
521664.701,4159349.552,-611.1 
521664.701,4159249.373,-624 
521765.000,4182791.487,-122.3 
521765.000,4182691.308,-124.2 
521765.000,4182190.412,-129.4 
521765.000,4182090.233,-139.4 
521765.000,4181990.054,-153.7 
521765.000,4181889.875,-169.1 
521765.000,4181789.695,-184.2 
521765.000,4181689.516,-199.1 
521765.000,4181589.337,-208.1 
521765.000,4181489.158,-212.5 
521765.000,4181388.978,-208.5 
521765.000,4181288.799,-204.6 
521765.000,4181188.620,-192.4 
521765.000,4181088.441,-164.7 
521765.000,4180988.262,-137.8 
521765.000,4180888.082,-125.4 
521765.000,4180787.903,-120.6 
521765.000,4180687.724,-120.6 
521765.000,4180587.545,-121.6 
521765.000,4180487.366,-122 
521765.000,4180387.186,-121.9 
521765.000,4180287.007,-120.9 
521765.000,4180186.828,-123.3 
521765.000,4180086.649,-125.7 
521765.000,4179986.470,-127.3 
521765.000,4179886.290,-129.7 
521765.000,4179786.111,-133.5 
521765.000,4179685.932,-139.7 
521765.000,4179585.753,-154.9 
521765.000,4179485.573,-172 
521765.000,4179385.394,-185.7 
521765.000,4179285.215,-198.8 
521765.000,4179185.036,-214.6 
521765.000,4179084.857,-227.1 
521765.000,4178984.677,-240.7 
521765.000,4178884.498,-255.8 
521765.000,4178784.319,-276.8 
521765.000,4178684.140,-314.5 
521765.000,4178583.961,-346 
521765.000,4178483.781,-367.2 
521765.000,4178383.602,-384.2 
521765.000,4178283.423,-379.4 
521765.000,4178183.244,-404.4 
521765.000,4178083.065,-417.8 
521765.000,4177982.885,-418.9 
521765.000,4177882.706,-417.7 
521765.000,4177782.527,-415.2 
521765.000,4177682.348,-400.5 
521765.000,4177582.168,-376.5 
521765.000,4177481.989,-342.3 
521765.000,4177381.810,-319.1 
521765.000,4177281.631,-325.5 
521765.000,4177181.452,-324.3 
521765.000,4177081.272,-330.2 
521765.000,4176981.093,-331.3 
521765.000,4176880.914,-317.9 
521765.000,4176780.735,-294 
521765.000,4176680.556,-252.3 
521765.000,4176580.376,-214 
521765.000,4176480.197,-183.2 
521765.000,4176380.018,-158.8 
521765.000,4176279.839,-141.6 
521765.000,4176179.659,-127 
521765.000,4175278.047,-131.1 
521765.000,4175177.867,-134 
521765.000,4175077.688,-127.1 
521765.000,4174676.971,-141.4 
521765.000,4174576.792,-145.8 
521765.000,4174476.613,-156.1 
521765.000,4174376.434,-165.7 
521765.000,4174276.254,-164.3 
521765.000,4174176.075,-184.6 
521765.000,4174075.896,-195.7 
521765.000,4173975.717,-229.9 
521765.000,4173875.538,-237.6 
521765.000,4173775.358,-248.2 
521765.000,4173675.179,-259.7 
521765.000,4173575.000,-271.1 
521765.000,4173474.821,-287.7 
521765.000,4173374.642,-298.7 
521765.000,4173274.462,-307.6 
521765.000,4173174.283,-318.2 
521765.000,4173074.104,-329.9 
521765.000,4172973.925,-332.7 
521765.000,4172873.746,-343.8 
521765.000,4172773.566,-357.3 
521765.000,4172673.387,-361.8 
521765.000,4172573.208,-366.9 
521765.000,4172473.029,-369.4 
521765.000,4172372.849,-361.7 
521765.000,4172272.670,-346.9 
521765.000,4172172.491,-353 
521765.000,4172072.312,-355.6 
521765.000,4171972.133,-365.8 
521765.000,4171871.953,-394 
521765.000,4171771.774,-409.9 
521765.000,4171671.595,-415.4 
521765.000,4171571.416,-420.9 
521765.000,4171471.237,-431.7 
521765.000,4171371.057,-443 
521765.000,4171270.878,-458.7 
521765.000,4171170.699,-471.9 
521765.000,4171070.520,-475.1 
521765.000,4170970.341,-482.7 
521765.000,4170870.161,-487.2 
521765.000,4170769.982,-494.9 
521765.000,4170669.803,-500.1 
521765.000,4170569.624,-505.6 
521765.000,4170469.444,-510.1 
521765.000,4170369.265,-521 
521765.000,4170269.086,-527.2 
521765.000,4170168.907,-528.5 
521765.000,4170068.728,-539.4 
521765.000,4169968.548,-548.7 
521765.000,4169868.369,-557.3 
521765.000,4169768.190,-565 
521765.000,4169668.011,-573.8 
521765.000,4169567.832,-583.4 
521765.000,4169467.652,-592 
521765.000,4169367.473,-601.7 
521765.000,4169267.294,-609.4 
521765.000,4169167.115,-611.1 
521765.000,4169066.935,-620.8 
521765.000,4168966.756,-627.4 
521765.000,4162455.108,-625.2 
521765.000,4162354.928,-610.5 
521765.000,4162254.749,-605 
521765.000,4162154.570,-607.3 
521765.000,4162054.391,-608.5 
521765.000,4161954.211,-609.2 
521765.000,4161854.032,-611.9 
521765.000,4161252.957,-612 
521765.000,4161152.778,-598.8 
521765.000,4161052.599,-592.1 
521765.000,4160952.419,-590.7 
521765.000,4160852.240,-607.4 
521765.000,4160752.061,-627.7 
521765.000,4160150.986,-624.6 
521765.000,4160050.806,-611.8 
521765.000,4159950.627,-605.4 
521765.000,4159850.448,-617.9 
521765.000,4159449.731,-621.8 
521865.299,4182891.667,-129.2 
521865.299,4182791.487,-138.9 
521865.299,4182691.308,-143.5 
521865.299,4182591.129,-136.1 
521865.299,4182390.771,-120.3 
521865.299,4182290.591,-127.9 
521865.299,4182190.412,-141.6 
521865.299,4182090.233,-156.3 
521865.299,4181990.054,-171.5 
521865.299,4181889.875,-185.4 
521865.299,4181789.695,-198.7 
521865.299,4181689.516,-214.4 
521865.299,4181589.337,-223.9 
521865.299,4181489.158,-230.2 
521865.299,4181388.978,-227.7 
521865.299,4181288.799,-221.4 
521865.299,4181188.620,-204 
521865.299,4181088.441,-178.3 
521865.299,4180988.262,-149.3 
521865.299,4180888.082,-135.5 
521865.299,4180787.903,-129.5 
521865.299,4180687.724,-126.4 
521865.299,4180587.545,-128.6 
521865.299,4180487.366,-128.4 
521865.299,4180387.186,-126.5 
521865.299,4180287.007,-125.8 
521865.299,4180186.828,-128.3 
521865.299,4180086.649,-130.3 
521865.299,4179986.470,-131.4 
521865.299,4179886.290,-132.8 
521865.299,4179786.111,-136.1 
521865.299,4179685.932,-146.9 
521865.299,4179585.753,-165.9 
521865.299,4179485.573,-180.9 
521865.299,4179385.394,-194.7 
521865.299,4179285.215,-208.8 
521865.299,4179185.036,-222.7 
521865.299,4179084.857,-236.5 
521865.299,4178984.677,-251.7 
521865.299,4178884.498,-268.7 
521865.299,4178784.319,-287.3 
521865.299,4178684.140,-321.3 
521865.299,4178583.961,-357.4 
521865.299,4178483.781,-377.7 
521865.299,4178383.602,-391.3 
521865.299,4178283.423,-398.2 
521865.299,4178183.244,-421.8 
521865.299,4178083.065,-425 
521865.299,4177982.885,-424.8 
521865.299,4177882.706,-423.5 
521865.299,4177782.527,-420.6 
521865.299,4177682.348,-391.7 
521865.299,4177582.168,-368.2 
521865.299,4177481.989,-343.8 
521865.299,4177381.810,-346.4 
521865.299,4177281.631,-350.3 
521865.299,4177181.452,-345.9 
521865.299,4177081.272,-341.9 
521865.299,4176981.093,-328.1 
521865.299,4176880.914,-301.9 
521865.299,4176780.735,-261.4 
521865.299,4176680.556,-229.7 
521865.299,4176580.376,-198.4 
521865.299,4176480.197,-167.2 
521865.299,4176380.018,-143.1 
521865.299,4176279.839,-130.8 
521865.299,4176179.659,-122.8 
521865.299,4175378.226,-124.2 
521865.299,4175278.047,-138.4 
521865.299,4175177.867,-137.9 
521865.299,4175077.688,-130.5 
521865.299,4174676.971,-146 
521865.299,4174576.792,-148.6 
521865.299,4174476.613,-160.8 
521865.299,4174376.434,-168.5 
521865.299,4174276.254,-172.3 
521865.299,4174176.075,-190.6 
521865.299,4174075.896,-207.7 
521865.299,4173975.717,-236.8 
521865.299,4173875.538,-239.7 
521865.299,4173775.358,-248 
521865.299,4173675.179,-259 
521865.299,4173575.000,-275.1 
521865.299,4173474.821,-292.4 
521865.299,4173374.642,-301.2 
521865.299,4173274.462,-312 
521865.299,4173174.283,-325.8 
521865.299,4173074.104,-333 
521865.299,4172973.925,-342.2 
521865.299,4172873.746,-346.3 
521865.299,4172773.566,-356.9 
521865.299,4172673.387,-372.8 
521865.299,4172573.208,-368.9 
521865.299,4172473.029,-381.6 
521865.299,4172372.849,-372 
521865.299,4172272.670,-356.3 
521865.299,4172172.491,-374.2 
521865.299,4172072.312,-381.3 
521865.299,4171972.133,-370.6 
521865.299,4171871.953,-407.5 
521865.299,4171771.774,-420.1 
521865.299,4171671.595,-427 
521865.299,4171571.416,-432.5 
521865.299,4171471.237,-440.1 
521865.299,4171371.057,-451.7 
521865.299,4171270.878,-464.3 
521865.299,4171170.699,-481 
521865.299,4171070.520,-493.1 
521865.299,4170970.341,-493.6 
521865.299,4170870.161,-502 
521865.299,4170769.982,-506.1 
521865.299,4170669.803,-510.7 
521865.299,4170569.624,-517.4 
521865.299,4170469.444,-525.7 
521865.299,4170369.265,-534.2 
521865.299,4170269.086,-546.4 
521865.299,4170168.907,-552.1 
521865.299,4170068.728,-560.7 
521865.299,4169968.548,-568.4 
521865.299,4169868.369,-572.3 
521865.299,4169768.190,-576.5 
521865.299,4169668.011,-584.8 
521865.299,4169567.832,-592.3 
521865.299,4169467.652,-599.9 
521865.299,4169367.473,-608.7 
521865.299,4169267.294,-617.9 
521865.299,4169167.115,-624.1 
521865.299,4162354.928,-621.7 
521865.299,4162254.749,-624.1 
521865.299,4162154.570,-615.4 
521865.299,4162054.391,-612.5 
521865.299,4161954.211,-611.8 
521865.299,4161854.032,-614.2 
521865.299,4161753.853,-629.9 
521865.299,4161152.778,-617.9 
521865.299,4161052.599,-615.1 
521865.299,4160952.419,-606.1 
521865.299,4160852.240,-602.6 
521865.299,4160752.061,-627.2 
521865.299,4160050.806,-618.1 
521865.299,4159950.627,-611.3 
521865.299,4159850.448,-621.6 
521965.597,4183092.025,-123.4 
521965.597,4182991.846,-133.3 
521965.597,4182891.667,-149 
521965.597,4182791.487,-158.9 
521965.597,4182691.308,-166.5 
521965.597,4182591.129,-158.4 
521965.597,4182490.950,-145.2 
521965.597,4182390.771,-141.2 
521965.597,4182290.591,-144.3 
521965.597,4182190.412,-157.5 
521965.597,4182090.233,-173.4 
521965.597,4181990.054,-189.2 
521965.597,4181889.875,-203.5 
521965.597,4181789.695,-215.2 
521965.597,4181689.516,-227.2 
521965.597,4181589.337,-238.9 
521965.597,4181489.158,-245.6 
521965.597,4181388.978,-245.5 
521965.597,4181288.799,-237.7 
521965.597,4181188.620,-218.5 
521965.597,4181088.441,-189.7 
521965.597,4180988.262,-161.3 
521965.597,4180888.082,-142.2 
521965.597,4180787.903,-137.1 
521965.597,4180687.724,-133.1 
521965.597,4180587.545,-136.9 
521965.597,4180487.366,-135.3 
521965.597,4180387.186,-132.1 
521965.597,4180287.007,-130.9 
521965.597,4180186.828,-133.1 
521965.597,4180086.649,-134.8 
521965.597,4179986.470,-135.3 
521965.597,4179886.290,-136.1 
521965.597,4179786.111,-141.1 
521965.597,4179685.932,-158.3 
521965.597,4179585.753,-173.2 
521965.597,4179485.573,-187.3 
521965.597,4179385.394,-204.3 
521965.597,4179285.215,-217.5 
521965.597,4179185.036,-231.9 
521965.597,4179084.857,-246.6 
521965.597,4178984.677,-264.7 
521965.597,4178884.498,-280.5 
521965.597,4178784.319,-302.9 
521965.597,4178684.140,-327.3 
521965.597,4178583.961,-354.5 
521965.597,4178483.781,-377.1 
521965.597,4178383.602,-391.4 
521965.597,4178283.423,-410.6 
521965.597,4178183.244,-431.5 
521965.597,4178083.065,-432.1 
521965.597,4177982.885,-431 
521965.597,4177882.706,-428 
521965.597,4177782.527,-418.6 
521965.597,4177682.348,-388.8 
521965.597,4177582.168,-374.8 
521965.597,4177481.989,-361.3 
521965.597,4177381.810,-362.7 
521965.597,4177281.631,-361.7 
521965.597,4177181.452,-354 
521965.597,4177081.272,-335.2 
521965.597,4176981.093,-305.6 
521965.597,4176880.914,-271.6 
521965.597,4176780.735,-238.1 
521965.597,4176680.556,-212.2 
521965.597,4176580.376,-185.2 
521965.597,4176480.197,-154.4 
521965.597,4176380.018,-134.8 
521965.597,4176279.839,-126.6 
521965.597,4176179.659,-122.7 
521965.597,4175979.301,-121.3 
521965.597,4175879.122,-121.8 
521965.597,4175778.943,-121.3 
521965.597,4175678.763,-123.1 
521965.597,4175578.584,-124.6 
521965.597,4175478.405,-127.1 
521965.597,4175378.226,-135.1 
521965.597,4175278.047,-139.4 
521965.597,4175177.867,-139.7 
521965.597,4175077.688,-129.5 
521965.597,4174777.151,-147.7 
521965.597,4174676.971,-152.6 
521965.597,4174576.792,-158.2 
521965.597,4174476.613,-161.7 
521965.597,4174376.434,-172 
521965.597,4174276.254,-193.9 
521965.597,4174176.075,-199.4 
521965.597,4174075.896,-229.5 
521965.597,4173975.717,-240 
521965.597,4173875.538,-243.7 
521965.597,4173775.358,-249.6 
521965.597,4173675.179,-266.9 
521965.597,4173575.000,-283.8 
521965.597,4173474.821,-294.9 
521965.597,4173374.642,-302.1 
521965.597,4173274.462,-311.9 
521965.597,4173174.283,-323.4 
521965.597,4173074.104,-327.2 
521965.597,4172973.925,-339.4 
521965.597,4172873.746,-352.3 
521965.597,4172773.566,-365.2 
521965.597,4172673.387,-378.5 
521965.597,4172573.208,-386.2 
521965.597,4172473.029,-392.8 
521965.597,4172372.849,-397.5 
521965.597,4172272.670,-382 
521965.597,4172172.491,-385 
521965.597,4172072.312,-413.4 
521965.597,4171972.133,-397.5 
521965.597,4171871.953,-408.5 
521965.597,4171771.774,-430.6 
521965.597,4171671.595,-436.3 
521965.597,4171571.416,-444.2 
521965.597,4171471.237,-452.6 
521965.597,4171371.057,-461.9 
521965.597,4171270.878,-473 
521965.597,4171170.699,-482.3 
521965.597,4171070.520,-493.9 
521965.597,4170970.341,-501.2 
521965.597,4170870.161,-507.8 
521965.597,4170769.982,-513.6 
521965.597,4170669.803,-522.1 
521965.597,4170569.624,-536.5 
521965.597,4170469.444,-546.8 
521965.597,4170369.265,-554.1 
521965.597,4170269.086,-561.4 
521965.597,4170168.907,-566.8 
521965.597,4170068.728,-575.1 
521965.597,4169968.548,-578 
521965.597,4169868.369,-581.9 
521965.597,4169768.190,-582.9 
521965.597,4169668.011,-590 
521965.597,4169567.832,-598.6 
521965.597,4169467.652,-605.4 
521965.597,4169367.473,-616 
521965.597,4169267.294,-625.7 
521965.597,4162154.570,-625.8 
521965.597,4162054.391,-619 
521965.597,4161954.211,-620.2 
521965.597,4161854.032,-617.3 
521965.597,4160852.240,-609.3 
521965.597,4160752.061,-619.3 
521965.597,4159950.627,-615.3 
521965.597,4159850.448,-619.4 
522065.896,4183192.204,-129.2 
522065.896,4183092.025,-138.5 
522065.896,4182991.846,-154.4 
522065.896,4182891.667,-167.5 
522065.896,4182791.487,-181.9 
522065.896,4182691.308,-190.9 
522065.896,4182591.129,-180.7 
522065.896,4182490.950,-167.9 
522065.896,4182390.771,-164.5 
522065.896,4182290.591,-165.6 
522065.896,4182190.412,-173.8 
522065.896,4182090.233,-191.3 
522065.896,4181990.054,-209 
522065.896,4181889.875,-224 
522065.896,4181789.695,-233.7 
522065.896,4181689.516,-242.3 
522065.896,4181589.337,-253.5 
522065.896,4181489.158,-260.7 
522065.896,4181388.978,-261.6 
522065.896,4181288.799,-248.9 
522065.896,4181188.620,-221.8 
522065.896,4181088.441,-191.6 
522065.896,4180988.262,-163.8 
522065.896,4180888.082,-151.6 
522065.896,4180787.903,-143.1 
522065.896,4180687.724,-139.7 
522065.896,4180587.545,-144.6 
522065.896,4180487.366,-141.9 
522065.896,4180387.186,-138.1 
522065.896,4180287.007,-136 
522065.896,4180186.828,-138.3 
522065.896,4180086.649,-139.5 
522065.896,4179986.470,-141 
522065.896,4179886.290,-143.9 
522065.896,4179786.111,-151.9 
522065.896,4179685.932,-167.3 
522065.896,4179585.753,-177.6 
522065.896,4179485.573,-189 
522065.896,4179385.394,-208.3 
522065.896,4179285.215,-226.2 
522065.896,4179185.036,-242.7 
522065.896,4179084.857,-256.4 
522065.896,4178984.677,-284 
522065.896,4178884.498,-305.9 
522065.896,4178784.319,-314.1 
522065.896,4178684.140,-327.2 
522065.896,4178583.961,-351.6 
522065.896,4178483.781,-376.2 
522065.896,4178383.602,-398.5 
522065.896,4178283.423,-420.1 
522065.896,4178183.244,-436.8 
522065.896,4178083.065,-437.2 
522065.896,4177982.885,-438.9 
522065.896,4177882.706,-434.4 
522065.896,4177782.527,-409 
522065.896,4177682.348,-388.5 
522065.896,4177582.168,-380.4 
522065.896,4177481.989,-376.6 
522065.896,4177381.810,-371.2 
522065.896,4177281.631,-355 
522065.896,4177181.452,-331.3 
522065.896,4177081.272,-301.7 
522065.896,4176981.093,-271.3 
522065.896,4176880.914,-241.8 
522065.896,4176780.735,-217.4 
522065.896,4176680.556,-194.6 
522065.896,4176580.376,-168.1 
522065.896,4176480.197,-151.5 
522065.896,4176380.018,-137.4 
522065.896,4176179.659,-121.7 
522065.896,4175879.122,-123.5 
522065.896,4175778.943,-127.7 
522065.896,4175678.763,-128.5 
522065.896,4175578.584,-127.7 
522065.896,4175478.405,-134 
522065.896,4175378.226,-139.9 
522065.896,4175278.047,-139.5 
522065.896,4175177.867,-142.9 
522065.896,4175077.688,-138.2 
522065.896,4174977.509,-125.2 
522065.896,4174877.330,-133.5 
522065.896,4174777.151,-161.3 
522065.896,4174676.971,-164.1 
522065.896,4174576.792,-163.8 
522065.896,4174476.613,-194.8 
522065.896,4174376.434,-198.4 
522065.896,4174276.254,-203.8 
522065.896,4174176.075,-225 
522065.896,4174075.896,-236.5 
522065.896,4173975.717,-241.2 
522065.896,4173875.538,-245.9 
522065.896,4173775.358,-256.2 
522065.896,4173675.179,-268 
522065.896,4173575.000,-284.9 
522065.896,4173474.821,-296.7 
522065.896,4173374.642,-305.1 
522065.896,4173274.462,-310.3 
522065.896,4173174.283,-312.8 
522065.896,4173074.104,-324 
522065.896,4172973.925,-334.8 
522065.896,4172873.746,-356.8 
522065.896,4172773.566,-357.2 
522065.896,4172673.387,-357.7 
522065.896,4172573.208,-365.4 
522065.896,4172473.029,-397.7 
522065.896,4172372.849,-419.9 
522065.896,4172272.670,-417.5 
522065.896,4172172.491,-413 
522065.896,4172072.312,-417.1 
522065.896,4171972.133,-430.8 
522065.896,4171871.953,-433.8 
522065.896,4171771.774,-448.9 
522065.896,4171671.595,-454.9 
522065.896,4171571.416,-460.2 
522065.896,4171471.237,-467.2 
522065.896,4171371.057,-469.6 
522065.896,4171270.878,-478.5 
522065.896,4171170.699,-489 
522065.896,4171070.520,-497 
522065.896,4170970.341,-507.4 
522065.896,4170870.161,-518.6 
522065.896,4170769.982,-532.4 
522065.896,4170669.803,-540.2 
522065.896,4170569.624,-547.3 
522065.896,4170469.444,-553.4 
522065.896,4170369.265,-559.2 
522065.896,4170269.086,-564.4 
522065.896,4170168.907,-570.5 
522065.896,4170068.728,-577.5 
522065.896,4169968.548,-582 
522065.896,4169868.369,-585.5 
522065.896,4169768.190,-588.1 
522065.896,4169668.011,-590.3 
522065.896,4169567.832,-597.8 
522065.896,4169467.652,-605.2 
522065.896,4169367.473,-617.1 
522065.896,4169267.294,-629.1 
522065.896,4162054.391,-624.6 
522065.896,4161954.211,-625.9 
522065.896,4160852.240,-624.9 
522065.896,4160752.061,-624.7 
522065.896,4159850.448,-626 
522166.194,4183292.384,-132 
522166.194,4183192.204,-143.9 
522166.194,4183092.025,-159.8 
522166.194,4182991.846,-174.9 
522166.194,4182891.667,-186.5 
522166.194,4182791.487,-201.2 
522166.194,4182691.308,-211.5 
522166.194,4182591.129,-206.5 
522166.194,4182490.950,-193 
522166.194,4182390.771,-189.2 
522166.194,4182290.591,-189.9 
522166.194,4182190.412,-196.8 
522166.194,4182090.233,-207.6 
522166.194,4181990.054,-227.9 
522166.194,4181889.875,-245.7 
522166.194,4181789.695,-254.1 
522166.194,4181689.516,-259.6 
522166.194,4181589.337,-267.4 
522166.194,4181489.158,-273.3 
522166.194,4181388.978,-274.5 
522166.194,4181288.799,-254.3 
522166.194,4181188.620,-222.2 
522166.194,4181088.441,-193.8 
522166.194,4180988.262,-167 
522166.194,4180888.082,-158.4 
522166.194,4180787.903,-152.3 
522166.194,4180687.724,-149.5 
522166.194,4180587.545,-152.9 
522166.194,4180487.366,-150 
522166.194,4180387.186,-144.4 
522166.194,4180287.007,-141.7 
522166.194,4180186.828,-143 
522166.194,4180086.649,-144.8 
522166.194,4179986.470,-147.9 
522166.194,4179886.290,-153.2 
522166.194,4179786.111,-163.4 
522166.194,4179685.932,-173.1 
522166.194,4179585.753,-181.1 
522166.194,4179485.573,-191.1 
522166.194,4179385.394,-208.7 
522166.194,4179285.215,-230.6 
522166.194,4179185.036,-254.8 
522166.194,4179084.857,-274.6 
522166.194,4178984.677,-304.6 
522166.194,4178884.498,-322.2 
522166.194,4178784.319,-326.2 
522166.194,4178684.140,-328.5 
522166.194,4178583.961,-353.5 
522166.194,4178483.781,-380.1 
522166.194,4178383.602,-410.8 
522166.194,4178283.423,-430.7 
522166.194,4178183.244,-442.9 
522166.194,4178083.065,-444.2 
522166.194,4177982.885,-443.7 
522166.194,4177882.706,-431.7 
522166.194,4177782.527,-404.3 
522166.194,4177682.348,-391.9 
522166.194,4177582.168,-384.9 
522166.194,4177481.989,-380.8 
522166.194,4177381.810,-359.3 
522166.194,4177281.631,-332.1 
522166.194,4177181.452,-301.9 
522166.194,4177081.272,-273.9 
522166.194,4176981.093,-247.2 
522166.194,4176880.914,-220.1 
522166.194,4176780.735,-200.8 
522166.194,4176680.556,-183.8 
522166.194,4176580.376,-163.9 
522166.194,4176480.197,-152 
522166.194,4176380.018,-145.5 
522166.194,4176279.839,-124.9 
522166.194,4176179.659,-121.1 
522166.194,4175879.122,-123.9 
522166.194,4175778.943,-129.1 
522166.194,4175678.763,-130.9 
522166.194,4175578.584,-135 
522166.194,4175478.405,-141.2 
522166.194,4175378.226,-141.5 
522166.194,4175278.047,-144.2 
522166.194,4175177.867,-145.9 
522166.194,4175077.688,-145.2 
522166.194,4174977.509,-144.4 
522166.194,4174877.330,-150.9 
522166.194,4174777.151,-169.3 
522166.194,4174676.971,-182.7 
522166.194,4174576.792,-199.4 
522166.194,4174476.613,-209.9 
522166.194,4174376.434,-218 
522166.194,4174276.254,-222.9 
522166.194,4174176.075,-236.9 
522166.194,4174075.896,-244 
522166.194,4173975.717,-247.2 
522166.194,4173875.538,-254.9 
522166.194,4173775.358,-264.2 
522166.194,4173675.179,-278.1 
522166.194,4173575.000,-295.7 
522166.194,4173474.821,-299.6 
522166.194,4173374.642,-302.8 
522166.194,4173274.462,-306.1 
522166.194,4173174.283,-313.1 
522166.194,4173074.104,-316.4 
522166.194,4172973.925,-321.9 
522166.194,4172873.746,-339.4 
522166.194,4172773.566,-333 
522166.194,4172673.387,-345.3 
522166.194,4172573.208,-370.9 
522166.194,4172473.029,-387.3 
522166.194,4172372.849,-422 
522166.194,4172272.670,-438.5 
522166.194,4172172.491,-440.6 
522166.194,4172072.312,-430 
522166.194,4171972.133,-444.6 
522166.194,4171871.953,-448.8 
522166.194,4171771.774,-456.2 
522166.194,4171671.595,-460.7 
522166.194,4171571.416,-465.6 
522166.194,4171471.237,-471.9 
522166.194,4171371.057,-479.1 
522166.194,4171270.878,-485.2 
522166.194,4171170.699,-496.1 
522166.194,4171070.520,-504.4 
522166.194,4170970.341,-514.3 
522166.194,4170870.161,-528.8 
522166.194,4170769.982,-537.8 
522166.194,4170669.803,-543.8 
522166.194,4170569.624,-549.6 
522166.194,4170469.444,-556.1 
522166.194,4170369.265,-562.4 
522166.194,4170269.086,-567.7 
522166.194,4170168.907,-573.2 
522166.194,4170068.728,-578.7 
522166.194,4169968.548,-583.6 
522166.194,4169868.369,-587.7 
522166.194,4169768.190,-590.9 
522166.194,4169668.011,-594.2 
522166.194,4169567.832,-597.5 
522166.194,4169467.652,-603 
522166.194,4169367.473,-612.2 
522166.194,4159850.448,-621.1 
522266.493,4183392.563,-121.3 
522266.493,4183292.384,-138 
522266.493,4183192.204,-158.4 
522266.493,4183092.025,-177.2 
522266.493,4182991.846,-186.4 
522266.493,4182891.667,-197.9 
522266.493,4182791.487,-211.5 
522266.493,4182691.308,-227.1 
522266.493,4182591.129,-235.1 
522266.493,4182490.950,-220.5 
522266.493,4182390.771,-220.6 
522266.493,4182290.591,-218 
522266.493,4182190.412,-227.2 
522266.493,4182090.233,-229.7 
522266.493,4181990.054,-241 
522266.493,4181889.875,-261.5 
522266.493,4181789.695,-273.3 
522266.493,4181689.516,-277.2 
522266.493,4181589.337,-279.6 
522266.493,4181489.158,-287.4 
522266.493,4181388.978,-286.8 
522266.493,4181288.799,-257.5 
522266.493,4181188.620,-224.3 
522266.493,4181088.441,-195.7 
522266.493,4180988.262,-177.1 
522266.493,4180888.082,-166.2 
522266.493,4180787.903,-160.4 
522266.493,4180687.724,-161.3 
522266.493,4180587.545,-163.4 
522266.493,4180487.366,-161.3 
522266.493,4180387.186,-151.5 
522266.493,4180287.007,-147.6 
522266.493,4180186.828,-148.8 
522266.493,4180086.649,-152 
522266.493,4179986.470,-159.8 
522266.493,4179886.290,-162.4 
522266.493,4179786.111,-170.4 
522266.493,4179685.932,-178.3 
522266.493,4179585.753,-186 
522266.493,4179485.573,-195.9 
522266.493,4179385.394,-216.3 
522266.493,4179285.215,-244 
522266.493,4179185.036,-273.6 
522266.493,4179084.857,-304.1 
522266.493,4178984.677,-314.9 
522266.493,4178884.498,-326.4 
522266.493,4178784.319,-337.7 
522266.493,4178684.140,-345.3 
522266.493,4178583.961,-372 
522266.493,4178483.781,-396.4 
522266.493,4178383.602,-426.5 
522266.493,4178283.423,-445 
522266.493,4178183.244,-448.6 
522266.493,4178083.065,-450.3 
522266.493,4177982.885,-446.7 
522266.493,4177882.706,-425.9 
522266.493,4177782.527,-405.8 
522266.493,4177682.348,-392.5 
522266.493,4177582.168,-376.2 
522266.493,4177481.989,-366.2 
522266.493,4177381.810,-347.8 
522266.493,4177281.631,-330.9 
522266.493,4177181.452,-303.7 
522266.493,4177081.272,-272.3 
522266.493,4176981.093,-240.4 
522266.493,4176880.914,-215.8 
522266.493,4176780.735,-197.9 
522266.493,4176680.556,-176.9 
522266.493,4176580.376,-159.2 
522266.493,4176480.197,-150 
522266.493,4176380.018,-144.3 
522266.493,4176279.839,-138.6 
522266.493,4176179.659,-121.1 
522266.493,4175879.122,-124.7 
522266.493,4175778.943,-134.9 
522266.493,4175678.763,-136.6 
522266.493,4175578.584,-140.8 
522266.493,4175478.405,-145.9 
522266.493,4175378.226,-144.6 
522266.493,4175278.047,-148.1 
522266.493,4175177.867,-149.3 
522266.493,4175077.688,-150.5 
522266.493,4174977.509,-147.7 
522266.493,4174877.330,-159 
522266.493,4174777.151,-178.1 
522266.493,4174676.971,-198.6 
522266.493,4174576.792,-213.5 
522266.493,4174476.613,-225.4 
522266.493,4174376.434,-233.4 
522266.493,4174276.254,-238.3 
522266.493,4174176.075,-244.2 
522266.493,4174075.896,-252.1 
522266.493,4173975.717,-257.8 
522266.493,4173875.538,-265.3 
522266.493,4173775.358,-272.3 
522266.493,4173675.179,-284.4 
522266.493,4173575.000,-293.9 
522266.493,4173474.821,-301.6 
522266.493,4173374.642,-305.4 
522266.493,4173274.462,-308 
522266.493,4173174.283,-310.4 
522266.493,4173074.104,-312.1 
522266.493,4172973.925,-308.2 
522266.493,4172873.746,-320 
522266.493,4172773.566,-328.8 
522266.493,4172673.387,-342.6 
522266.493,4172573.208,-357.1 
522266.493,4172473.029,-379.1 
522266.493,4172372.849,-414.6 
522266.493,4172272.670,-434 
522266.493,4172172.491,-453.3 
522266.493,4172072.312,-456.4 
522266.493,4171972.133,-462.9 
522266.493,4171871.953,-466.2 
522266.493,4171771.774,-468.5 
522266.493,4171671.595,-470.9 
522266.493,4171571.416,-473.7 
522266.493,4171471.237,-478 
522266.493,4171371.057,-484.8 
522266.493,4171270.878,-491.6 
522266.493,4171170.699,-501.5 
522266.493,4171070.520,-512.3 
522266.493,4170970.341,-527 
522266.493,4170870.161,-534.4 
522266.493,4170769.982,-538.2 
522266.493,4170669.803,-540.6 
522266.493,4170569.624,-543.4 
522266.493,4170469.444,-548.3 
522266.493,4170369.265,-557 
522266.493,4170269.086,-569.2 
522266.493,4170168.907,-576.2 
522266.493,4170068.728,-582.4 
522266.493,4169968.548,-587.9 
522266.493,4169868.369,-592.6 
522266.493,4169768.190,-596.1 
522266.493,4169668.011,-599.8 
522266.493,4169567.832,-602.3 
522266.493,4169467.652,-600.3 
522266.493,4169367.473,-605.8 
522266.493,4169267.294,-615.3 
522266.493,4169167.115,-623.9 
522366.791,4183392.563,-137.2 
522366.791,4183292.384,-151.2 
522366.791,4183192.204,-173 
522366.791,4183092.025,-190.9 
522366.791,4182991.846,-206.8 
522366.791,4182891.667,-217 
522366.791,4182791.487,-229.3 
522366.791,4182691.308,-240.7 
522366.791,4182591.129,-254.9 
522366.791,4182490.950,-243.7 
522366.791,4182390.771,-252.1 
522366.791,4182290.591,-250.3 
522366.791,4182190.412,-259.6 
522366.791,4182090.233,-263.1 
522366.791,4181990.054,-243.9 
522366.791,4181889.875,-261.1 
522366.791,4181789.695,-283.6 
522366.791,4181689.516,-292.3 
522366.791,4181589.337,-294.4 
522366.791,4181489.158,-302.5 
522366.791,4181388.978,-293.4 
522366.791,4181288.799,-258 
522366.791,4181188.620,-224.6 
522366.791,4181088.441,-199.1 
522366.791,4180988.262,-183.9 
522366.791,4180888.082,-172.8 
522366.791,4180787.903,-167.2 
522366.791,4180687.724,-169.7 
522366.791,4180587.545,-171.5 
522366.791,4180487.366,-169.4 
522366.791,4180387.186,-165.1 
522366.791,4180287.007,-162.3 
522366.791,4180186.828,-162.1 
522366.791,4180086.649,-163.7 
522366.791,4179986.470,-166.6 
522366.791,4179886.290,-169.7 
522366.791,4179786.111,-177.6 
522366.791,4179685.932,-184.8 
522366.791,4179585.753,-191.4 
522366.791,4179485.573,-202.2 
522366.791,4179385.394,-228 
522366.791,4179285.215,-260.7 
522366.791,4179185.036,-297.6 
522366.791,4179084.857,-312.1 
522366.791,4178984.677,-325.8 
522366.791,4178884.498,-333.3 
522366.791,4178784.319,-347.6 
522366.791,4178684.140,-370.5 
522366.791,4178583.961,-397.2 
522366.791,4178483.781,-425.5 
522366.791,4178383.602,-442.4 
522366.791,4178283.423,-455.3 
522366.791,4178183.244,-453.6 
522366.791,4178083.065,-454.8 
522366.791,4177982.885,-445.3 
522366.791,4177882.706,-422.5 
522366.791,4177782.527,-400.1 
522366.791,4177682.348,-373.2 
522366.791,4177582.168,-352.3 
522366.791,4177481.989,-335.2 
522366.791,4177381.810,-330.5 
522366.791,4177281.631,-321.7 
522366.791,4177181.452,-300.8 
522366.791,4177081.272,-275.3 
522366.791,4176981.093,-243.1 
522366.791,4176880.914,-217.6 
522366.791,4176780.735,-201.1 
522366.791,4176680.556,-181.2 
522366.791,4176580.376,-158.9 
522366.791,4176480.197,-148.9 
522366.791,4176380.018,-142.7 
522366.791,4176279.839,-135.9 
522366.791,4176179.659,-123.8 
522366.791,4175879.122,-128.3 
522366.791,4175778.943,-138.8 
522366.791,4175678.763,-141.9 
522366.791,4175578.584,-145.4 
522366.791,4175478.405,-146 
522366.791,4175378.226,-148.1 
522366.791,4175278.047,-153.2 
522366.791,4175177.867,-156.1 
522366.791,4175077.688,-149.6 
522366.791,4174977.509,-154.9 
522366.791,4174877.330,-165.7 
522366.791,4174777.151,-189.9 
522366.791,4174676.971,-214.3 
522366.791,4174576.792,-229 
522366.791,4174476.613,-236.6 
522366.791,4174376.434,-242.1 
522366.791,4174276.254,-241.2 
522366.791,4174176.075,-249.4 
522366.791,4174075.896,-257.7 
522366.791,4173975.717,-265.1 
522366.791,4173875.538,-273.5 
522366.791,4173775.358,-280.3 
522366.791,4173675.179,-289.1 
522366.791,4173575.000,-296.3 
522366.791,4173474.821,-301 
522366.791,4173374.642,-303.1 
522366.791,4173274.462,-305.1 
522366.791,4173174.283,-306.7 
522366.791,4173074.104,-307.9 
522366.791,4172973.925,-306.6 
522366.791,4172873.746,-320.2 
522366.791,4172773.566,-329.4 
522366.791,4172673.387,-339.7 
522366.791,4172573.208,-346.5 
522366.791,4172473.029,-364.2 
522366.791,4172372.849,-383 
522366.791,4172272.670,-417 
522366.791,4172172.491,-441.7 
522366.791,4172072.312,-451.1 
522366.791,4171972.133,-462 
522366.791,4171871.953,-469 
522366.791,4171771.774,-473.3 
522366.791,4171671.595,-476.9 
522366.791,4171571.416,-481.6 
522366.791,4171471.237,-485.6 
522366.791,4171371.057,-490.9 
522366.791,4171270.878,-497.2 
522366.791,4171170.699,-506 
522366.791,4171070.520,-521.2 
522366.791,4170970.341,-529.2 
522366.791,4170870.161,-524.5 
522366.791,4170769.982,-516.1 
522366.791,4170669.803,-505.6 
522366.791,4170569.624,-500.6 
522366.791,4170469.444,-505.6 
522366.791,4170369.265,-525.8 
522366.791,4170269.086,-547.5 
522366.791,4170168.907,-575.2 
522366.791,4170068.728,-585.9 
522366.791,4169968.548,-591.5 
522366.791,4169868.369,-597.1 
522366.791,4169768.190,-600.9 
522366.791,4169668.011,-606.2 
522366.791,4169567.832,-610.1 
522366.791,4169467.652,-614.7 
522366.791,4169367.473,-607.6 
522366.791,4169267.294,-609.9 
522366.791,4169167.115,-619.5 
522467.090,4183492.742,-131.5 
522467.090,4183392.563,-145.4 
522467.090,4183292.384,-163 
522467.090,4183192.204,-180.9 
522467.090,4183092.025,-200.7 
522467.090,4182991.846,-219.8 
522467.090,4182891.667,-237.4 
522467.090,4182791.487,-247.1 
522467.090,4182691.308,-256.7 
522467.090,4182591.129,-271.7 
522467.090,4182490.950,-272.5 
522467.090,4182390.771,-276 
522467.090,4182290.591,-280.1 
522467.090,4182190.412,-288.9 
522467.090,4182090.233,-288.4 
522467.090,4181990.054,-249.8 
522467.090,4181889.875,-256.7 
522467.090,4181789.695,-286.8 
522467.090,4181689.516,-306.1 
522467.090,4181589.337,-311.9 
522467.090,4181489.158,-316.9 
522467.090,4181388.978,-301.6 
522467.090,4181288.799,-258.8 
522467.090,4181188.620,-226.5 
522467.090,4181088.441,-206.4 
522467.090,4180988.262,-187.5 
522467.090,4180888.082,-174.4 
522467.090,4180787.903,-176.3 
522467.090,4180687.724,-178.9 
522467.090,4180587.545,-179.5 
522467.090,4180487.366,-177.7 
522467.090,4180387.186,-174.6 
522467.090,4180287.007,-172.3 
522467.090,4180186.828,-171.9 
522467.090,4180086.649,-172.8 
522467.090,4179986.470,-173.7 
522467.090,4179886.290,-179.1 
522467.090,4179786.111,-185.6 
522467.090,4179685.932,-191.7 
522467.090,4179585.753,-197.5 
522467.090,4179485.573,-207 
522467.090,4179385.394,-230.3 
522467.090,4179285.215,-260.9 
522467.090,4179185.036,-288.9 
522467.090,4179084.857,-315 
522467.090,4178984.677,-329.1 
522467.090,4178884.498,-340.3 
522467.090,4178784.319,-364.4 
522467.090,4178684.140,-413.1 
522467.090,4178583.961,-428.6 
522467.090,4178483.781,-445.2 
522467.090,4178383.602,-458.8 
522467.090,4178283.423,-460 
522467.090,4178183.244,-458.9 
522467.090,4178083.065,-455.8 
522467.090,4177982.885,-438.6 
522467.090,4177882.706,-418.1 
522467.090,4177782.527,-383.9 
522467.090,4177682.348,-349.2 
522467.090,4177582.168,-326.6 
522467.090,4177481.989,-308.1 
522467.090,4177381.810,-308.7 
522467.090,4177281.631,-302.9 
522467.090,4177181.452,-280.4 
522467.090,4177081.272,-254.7 
522467.090,4176981.093,-232.8 
522467.090,4176880.914,-208.8 
522467.090,4176780.735,-197.6 
522467.090,4176680.556,-170.3 
522467.090,4176580.376,-155.8 
522467.090,4176480.197,-148.4 
522467.090,4176380.018,-141.3 
522467.090,4176279.839,-135.1 
522467.090,4176179.659,-125.2 
522467.090,4175879.122,-134 
522467.090,4175778.943,-142.1 
522467.090,4175678.763,-142.8 
522467.090,4175578.584,-142.1 
522467.090,4175478.405,-146.6 
522467.090,4175378.226,-151.1 
522467.090,4175278.047,-155.6 
522467.090,4175177.867,-152.3 
522467.090,4175077.688,-155.2 
522467.090,4174977.509,-165.9 
522467.090,4174877.330,-181.9 
522467.090,4174777.151,-204.7 
522467.090,4174676.971,-229 
522467.090,4174576.792,-240.8 
522467.090,4174476.613,-240.7 
522467.090,4174376.434,-241.4 
522467.090,4174276.254,-252.2 
522467.090,4174176.075,-261.1 
522467.090,4174075.896,-263.6 
522467.090,4173975.717,-267.8 
522467.090,4173875.538,-276.7 
522467.090,4173775.358,-285.1 
522467.090,4173675.179,-292.4 
522467.090,4173575.000,-296.9 
522467.090,4173474.821,-298.8 
522467.090,4173374.642,-302.4 
522467.090,4173274.462,-304.7 
522467.090,4173174.283,-305.3 
522467.090,4173074.104,-312.5 
522467.090,4172973.925,-309.9 
522467.090,4172873.746,-317.6 
522467.090,4172773.566,-321.9 
522467.090,4172673.387,-330.5 
522467.090,4172573.208,-337.7 
522467.090,4172473.029,-350.2 
522467.090,4172372.849,-360.4 
522467.090,4172272.670,-404.4 
522467.090,4172172.491,-431.4 
522467.090,4172072.312,-445.3 
522467.090,4171972.133,-457.3 
522467.090,4171871.953,-466.7 
522467.090,4171771.774,-470.7 
522467.090,4171671.595,-476.7 
522467.090,4171571.416,-481.1 
522467.090,4171471.237,-486.8 
522467.090,4171371.057,-492.8 
522467.090,4171270.878,-499.2 
522467.090,4171170.699,-507.9 
522467.090,4171070.520,-501.9 
522467.090,4170970.341,-496.1 
522467.090,4170870.161,-491.4 
522467.090,4170769.982,-484.3 
522467.090,4170669.803,-479.7 
522467.090,4170569.624,-480.9 
522467.090,4170469.444,-489 
522467.090,4170369.265,-498.3 
522467.090,4170269.086,-521.1 
522467.090,4170168.907,-549.2 
522467.090,4170068.728,-589.8 
522467.090,4169968.548,-597 
522467.090,4169868.369,-601.3 
522467.090,4169768.190,-605.6 
522467.090,4169668.011,-611 
522467.090,4169567.832,-615.5 
522467.090,4169467.652,-620.2 
522467.090,4169367.473,-622.8 
522467.090,4169267.294,-611.5 
522467.090,4169167.115,-614.4 
522467.090,4169066.935,-621.6 
522467.090,4159750.269,-627.6 
522467.090,4159650.090,-621.6 
522567.388,4183592.921,-126 
522567.388,4183492.742,-138 
522567.388,4183392.563,-154.8 
522567.388,4183292.384,-163.1 
522567.388,4183192.204,-175.5 
522567.388,4183092.025,-191.4 
522567.388,4182991.846,-224.9 
522567.388,4182891.667,-252.2 
522567.388,4182791.487,-264.5 
522567.388,4182691.308,-273.3 
522567.388,4182591.129,-285.3 
522567.388,4182490.950,-298.5 
522567.388,4182390.771,-279 
522567.388,4182290.591,-306.3 
522567.388,4182190.412,-315.1 
522567.388,4182090.233,-309.6 
522567.388,4181990.054,-266.8 
522567.388,4181889.875,-260.5 
522567.388,4181789.695,-289.6 
522567.388,4181689.516,-315.5 
522567.388,4181589.337,-329 
522567.388,4181489.158,-330.7 
522567.388,4181388.978,-301.3 
522567.388,4181288.799,-260.6 
522567.388,4181188.620,-232.1 
522567.388,4181088.441,-214.4 
522567.388,4180988.262,-195.3 
522567.388,4180888.082,-179.2 
522567.388,4180787.903,-183.7 
