540516.617,4171216.756,-1890.1 
540516.617,4171016.039,-1893.8 
540516.617,4170815.323,-1902 
540516.617,4170614.606,-1909.8 
540516.617,4170413.889,-1915.7 
540516.617,4170213.172,-1921.5 
540516.617,4170012.455,-1928.2 
540516.617,4169811.738,-1933.9 
540516.617,4169611.022,-1936.2 
540516.617,4169410.305,-1939.8 
540516.617,4169209.588,-1942.8 
540516.617,4169008.871,-1945.6 
540516.617,4168808.154,-1944.9 
540516.617,4168607.437,-1949.2 
540516.617,4168406.720,-1952.7 
540516.617,4168206.004,-1956.4 
540516.617,4168005.287,-1957.3 
540516.617,4167804.570,-1962.8 
540516.617,4167603.853,-1965.7 
540516.617,4167403.136,-1969.2 
540516.617,4167202.419,-1972 
540516.617,4167001.703,-1975.1 
540516.617,4166800.986,-1978.2 
540516.617,4166600.269,-1981.6 
540516.617,4166399.552,-1984.3 
540516.617,4166198.835,-1986.6 
540516.617,4165998.118,-1988.8 
540516.617,4165797.401,-1989.8 
540516.617,4165596.685,-1992.1 
540516.617,4165395.968,-1993.4 
540516.617,4165195.251,-1996 
540516.617,4164994.534,-1997.3 
540516.617,4164793.817,-1999.2 
540516.617,4164593.100,-2000.4 
540516.617,4164392.384,-2000.6 
540516.617,4164191.667,-2002.6 
540516.617,4163990.950,-2003.3 
540516.617,4163790.233,-2004 
540516.617,4163589.516,-2005.5 
540516.617,4163388.799,-2007.4 
540516.617,4163188.082,-2006.2 
540516.617,4162987.366,-2007.8 
540516.617,4162786.649,-2007.9 
540516.617,4162585.932,-2009.8 
540516.617,4162385.215,-2011.4 
540516.617,4162184.498,-2012.9 
540516.617,4161983.781,-2014 
540516.617,4161783.065,-2016.3 
540516.617,4161582.348,-2017.5 
540516.617,4161381.631,-2021 
540516.617,4161180.914,-2024.5 
540516.617,4160980.197,-2025.8 
540516.617,4160779.480,-2027.9 
540516.617,4160578.763,-2029.5 
540516.617,4160378.047,-2031.2 
540516.617,4160177.330,-2033.4 
540516.617,4159976.613,-2034 
540516.617,4159775.896,-2034.7 
540516.617,4159575.179,-2034.9 
540516.617,4159374.462,-2035.1 
540516.617,4159173.746,-2035.6 
540516.617,4158973.029,-2035.4 
540516.617,4158772.312,-2033.6 
540516.617,4158571.595,-2031.1 
540516.617,4158370.878,-2030.3 
540516.617,4158170.161,-2028.8 
540516.617,4157969.444,-2024.5 
540516.617,4157768.728,-2024.8 
540516.617,4157568.011,-2026.8 
540516.617,4157367.294,-2023.5 
540516.617,4157166.577,-2025.2 
540516.617,4156965.860,-2028.2 
540516.617,4156765.143,-2024.2 
540516.617,4156564.427,-2022.7 
540516.617,4156363.710,-2023.9 
540516.617,4156162.993,-2023.2 
540516.617,4155962.276,-2024.1 
540516.617,4155761.559,-2024.9 
540516.617,4155560.842,-2024.8 
540516.617,4155360.125,-2025.6 
540516.617,4155159.409,-2026.9 
540516.617,4154958.692,-2026.9 
540516.617,4154757.975,-2026.9 
540516.617,4154557.258,-2028.7 
540516.617,4154356.541,-2029.9 
540516.617,4154155.824,-2030.3 
540516.617,4153955.108,-2031 
540516.617,4153754.391,-2031.2 
540516.617,4153553.674,-2030.3 
540516.617,4153352.957,-2028.9 
540516.617,4153152.240,-2028.4 
540516.617,4152951.523,-2027.1 
540516.617,4152750.806,-2026.6 
540516.617,4152550.090,-2026.8 
540516.617,4152349.373,-2027.2 
540516.617,4152148.656,-2029 
540516.617,4151947.939,-2029.4 
540516.617,4151747.222,-2030.5 
540516.617,4151546.505,-2032.4 
540516.617,4151345.789,-2032.9 
540516.617,4151145.072,-2032.8 
540516.617,4150944.355,-2033.3 
540516.617,4150743.638,-2034.5 
540516.617,4150542.921,-2035.2 
540516.617,4150342.204,-2035.3 
540516.617,4150141.487,-2035.6 
540516.617,4149940.771,-2035.7 
540516.617,4149740.054,-2036 
540516.617,4149539.337,-2038.8 
540516.617,4149338.620,-2042.2 
540516.617,4149137.903,-2044.5 
540516.617,4148937.186,-2047.4 
540516.617,4148736.470,-2047.3 
540516.617,4148535.753,-2046.5 
540516.617,4148335.036,-2045.5 
540516.617,4148134.319,-2046.5 
540516.617,4147933.602,-2049.3 
540516.617,4147732.885,-2050.7 
540516.617,4147532.168,-2052.8 
540516.617,4147331.452,-2056.2 
540516.617,4147130.735,-2059 
540516.617,4146930.018,-2064.4 
540516.617,4146729.301,-2068.6 
540516.617,4146528.584,-2069.1 
540516.617,4146327.867,-2070.5 
540516.617,4146127.151,-2071.4 
540516.617,4145926.434,-2072.7 
540516.617,4145725.717,-2071.8 
540717.814,4201525.000,-993.7 
540717.814,4201324.283,-996.6 
540717.814,4201123.566,-977 
540717.814,4200922.849,-994.9 
540717.814,4200722.133,-1018.8 
540717.814,4200521.416,-1031.2 
540717.814,4200320.699,-1041.7 
540717.814,4200119.982,-1045.7 
540717.814,4199919.265,-1051.4 
540717.814,4199718.548,-1059.5 
540717.814,4199517.832,-1061.2 
540717.814,4199317.115,-1060.5 
540717.814,4199116.398,-1070.2 
540717.814,4198915.681,-1079.5 
540717.814,4198714.964,-1071.5 
540717.814,4198514.247,-1066.9 
540717.814,4198313.530,-1082.4 
540717.814,4198112.814,-1095.5 
540717.814,4197912.097,-1101.4 
540717.814,4197711.380,-1103.9 
540717.814,4197510.663,-1098 
540717.814,4197309.946,-1099 
540717.814,4197109.229,-1110.4 
540717.814,4196908.513,-1113.9 
540717.814,4196707.796,-1107.9 
540717.814,4196507.079,-1119.8 
540717.814,4196306.362,-1139.9 
540717.814,4196105.645,-1132.1 
540717.814,4195904.928,-1131.1 
540717.814,4195704.211,-1148.1 
540717.814,4195503.495,-1162.9 
540717.814,4195302.778,-1166.2 
540717.814,4195102.061,-1178.8 
540717.814,4194901.344,-1193.3 
540717.814,4194700.627,-1206.2 
540717.814,4194499.910,-1219.2 
540717.814,4194299.194,-1228.2 
540717.814,4194098.477,-1230.7 
540717.814,4193897.760,-1237.2 
540717.814,4193697.043,-1253.6 
540717.814,4193496.326,-1268.9 
540717.814,4193295.609,-1269.3 
540717.814,4193094.892,-1256.2 
540717.814,4192894.176,-1249.8 
540717.814,4192693.459,-1237.9 
540717.814,4192492.742,-1228.4 
540717.814,4192292.025,-1239.3 
540717.814,4192091.308,-1255.2 
540717.814,4191890.591,-1252 
540717.814,4191689.875,-1236.6 
540717.814,4191489.158,-1225.3 
540717.814,4191288.441,-1230.1 
540717.814,4191087.724,-1246.4 
540717.814,4190887.007,-1270.6 
540717.814,4190686.290,-1299 
540717.814,4190485.573,-1322.6 
540717.814,4190284.857,-1324.4 
540717.814,4190084.140,-1321.7 
540717.814,4189883.423,-1316.2 
540717.814,4189682.706,-1295.2 
540717.814,4189481.989,-1275.5 
540717.814,4189281.272,-1282.6 
540717.814,4189080.556,-1312.8 
540717.814,4188879.839,-1347.8 
540717.814,4188679.122,-1368.6 
540717.814,4188478.405,-1374.3 
540717.814,4188277.688,-1378.4 
540717.814,4188076.971,-1381.1 
540717.814,4187876.254,-1381.1 
540717.814,4187675.538,-1362.4 
540717.814,4187474.821,-1346.7 
540717.814,4187274.104,-1346.4 
540717.814,4187073.387,-1359.2 
540717.814,4186872.670,-1379.2 
540717.814,4186671.953,-1403 
540717.814,4186471.237,-1417.1 
540717.814,4186270.520,-1422.3 
540717.814,4186069.803,-1408.7 
540717.814,4185869.086,-1363.3 
540717.814,4185668.369,-1349.8 
540717.814,4185467.652,-1352.6 
540717.814,4185266.935,-1359.7 
540717.814,4185066.219,-1364.9 
540717.814,4184865.502,-1366.2 
540717.814,4184664.785,-1372.6 
540717.814,4184464.068,-1375.5 
540717.814,4184263.351,-1375.9 
540717.814,4184062.634,-1374.8 
540717.814,4183861.918,-1374.5 
540717.814,4183661.201,-1375.2 
540717.814,4183460.484,-1376.4 
540717.814,4183259.767,-1378.7 
540717.814,4183059.050,-1382.1 
540717.814,4182858.333,-1387.2 
540717.814,4182657.616,-1389.6 
540717.814,4182456.900,-1394.1 
540717.814,4182256.183,-1412.1 
540717.814,4182055.466,-1434 
540717.814,4181854.749,-1449.3 
540717.814,4181654.032,-1474.9 
540717.814,4181453.315,-1496.8 
540717.814,4181252.599,-1510.6 
540717.814,4181051.882,-1508.7 
540717.814,4180851.165,-1501.1 
540717.814,4180650.448,-1491.2 
540717.814,4180449.731,-1486.2 
540717.814,4180249.014,-1484.1 
540717.814,4180048.297,-1484.8 
540717.814,4179847.581,-1483.7 
540717.814,4179646.864,-1476.8 
540717.814,4179446.147,-1431.8 
540717.814,4179245.430,-1428.6 
540717.814,4179044.713,-1437.3 
540717.814,4178843.996,-1446.9 
540717.814,4178643.280,-1453.9 
540717.814,4178442.563,-1453.9 
540717.814,4178241.846,-1462 
540717.814,4178041.129,-1481.2 
540717.814,4177840.412,-1484.9 
540717.814,4177639.695,-1488.8 
540717.814,4177438.978,-1501.2 
540717.814,4177238.262,-1500.7 
540717.814,4177037.545,-1498 
540717.814,4176836.828,-1514.9 
540717.814,4176636.111,-1559.1 
540717.814,4176435.394,-1609 
540717.814,4176234.677,-1652.4 
540717.814,4176033.961,-1660.7 
540717.814,4175833.244,-1674.3 
540717.814,4175632.527,-1690.6 
540717.814,4175431.810,-1686.3 
540717.814,4175231.093,-1697.6 
540717.814,4175030.376,-1706 
540717.814,4174829.659,-1717 
540717.814,4174628.943,-1729.2 
540717.814,4174428.226,-1737.6 
540717.814,4174227.509,-1744.5 
540717.814,4174026.792,-1750.2 
540717.814,4173826.075,-1750.1 
540717.814,4173625.358,-1756.8 
540717.814,4173424.642,-1764.9 
540717.814,4173223.925,-1772.6 
540717.814,4173023.208,-1782.4 
540717.814,4172822.491,-1791.6 
540717.814,4172621.774,-1797 
540717.814,4172421.057,-1806.7 
540717.814,4172220.341,-1820.9 
540717.814,4172019.624,-1856.7 
540717.814,4171818.907,-1871.7 
540717.814,4171618.190,-1873.3 
540717.814,4171417.473,-1873.9 
540717.814,4171216.756,-1882.5 
540717.814,4171016.039,-1888.5 
540717.814,4170815.323,-1898.1 
540717.814,4170614.606,-1905.7 
540717.814,4170413.889,-1911.3 
540717.814,4170213.172,-1915.8 
540717.814,4170012.455,-1920.7 
540717.814,4169811.738,-1934.4 
540717.814,4169611.022,-1933 
540717.814,4169410.305,-1936.4 
540717.814,4169209.588,-1939.4 
540717.814,4169008.871,-1942.8 
540717.814,4168808.154,-1941.6 
540717.814,4168607.437,-1947.2 
540717.814,4168406.720,-1951.2 
540717.814,4168206.004,-1953.9 
540717.814,4168005.287,-1956.7 
540717.814,4167804.570,-1960.6 
540717.814,4167603.853,-1963.7 
540717.814,4167403.136,-1966.5 
540717.814,4167202.419,-1970.6 
540717.814,4167001.703,-1974 
540717.814,4166800.986,-1977.7 
540717.814,4166600.269,-1978.7 
540717.814,4166399.552,-1980.3 
540717.814,4166198.835,-1982.3 
540717.814,4165998.118,-1985.2 
540717.814,4165797.401,-1986.5 
540717.814,4165596.685,-1990.5 
540717.814,4165395.968,-1991.2 
540717.814,4165195.251,-1994 
540717.814,4164994.534,-1996.2 
540717.814,4164793.817,-1998 
540717.814,4164593.100,-2000.1 
540717.814,4164392.384,-2001.7 
540717.814,4164191.667,-2003.8 
540717.814,4163990.950,-2004.5 
540717.814,4163790.233,-2005.2 
540717.814,4163589.516,-2005.1 
540717.814,4163388.799,-2006.1 
540717.814,4163188.082,-2006.5 
540717.814,4162987.366,-2007.2 
540717.814,4162786.649,-2007.4 
540717.814,4162585.932,-2007.3 
540717.814,4162385.215,-2007.7 
540717.814,4162184.498,-2010.3 
540717.814,4161983.781,-2010 
540717.814,4161783.065,-2012.3 
540717.814,4161582.348,-2012.3 
540717.814,4161381.631,-2013.1 
540717.814,4161180.914,-2015.9 
540717.814,4160980.197,-2015.1 
540717.814,4160779.480,-2016.9 
540717.814,4160578.763,-2018.5 
540717.814,4160378.047,-2020.8 
540717.814,4160177.330,-2022.5 
540717.814,4159976.613,-2022.1 
540717.814,4159775.896,-2024 
540717.814,4159575.179,-2025.8 
540717.814,4159374.462,-2025.9 
540717.814,4159173.746,-2024.9 
540717.814,4158973.029,-2023.8 
540717.814,4158772.312,-2023.4 
540717.814,4158571.595,-2019.9 
540717.814,4158370.878,-2020 
540717.814,4158170.161,-2019.7 
540717.814,4157969.444,-2016.9 
540717.814,4157768.728,-2021.2 
540717.814,4157568.011,-2024.3 
540717.814,4157367.294,-2021.1 
540717.814,4157166.577,-2021.1 
540717.814,4156965.860,-2024.8 
540717.814,4156765.143,-2022.1 
540717.814,4156564.427,-2020.5 
540717.814,4156363.710,-2021.3 
540717.814,4156162.993,-2021.5 
540717.814,4155962.276,-2022 
540717.814,4155761.559,-2022.1 
540717.814,4155560.842,-2022.6 
540717.814,4155360.125,-2024 
540717.814,4155159.409,-2025.8 
540717.814,4154958.692,-2025.8 
540717.814,4154757.975,-2026 
540717.814,4154557.258,-2027.5 
540717.814,4154356.541,-2027.9 
540717.814,4154155.824,-2028.3 
540717.814,4153955.108,-2028.6 
540717.814,4153754.391,-2028.5 
540717.814,4153553.674,-2027.5 
540717.814,4153352.957,-2025.9 
540717.814,4153152.240,-2026 
540717.814,4152951.523,-2025.5 
540717.814,4152750.806,-2024 
540717.814,4152550.090,-2024.1 
540717.814,4152349.373,-2024.8 
540717.814,4152148.656,-2026.3 
540717.814,4151947.939,-2027.5 
540717.814,4151747.222,-2028.1 
540717.814,4151546.505,-2030.2 
540717.814,4151345.789,-2031.2 
540717.814,4151145.072,-2031.4 
540717.814,4150944.355,-2031.7 
540717.814,4150743.638,-2032.3 
540717.814,4150542.921,-2033.1 
540717.814,4150342.204,-2033.1 
540717.814,4150141.487,-2033 
540717.814,4149940.771,-2033.7 
540717.814,4149740.054,-2034.9 
540717.814,4149539.337,-2036.9 
540717.814,4149338.620,-2040.8 
540717.814,4149137.903,-2043.2 
540717.814,4148937.186,-2044 
540717.814,4148736.470,-2045.1 
540717.814,4148535.753,-2044.5 
540717.814,4148335.036,-2044.3 
540717.814,4148134.319,-2044.9 
540717.814,4147933.602,-2047.3 
540717.814,4147732.885,-2049.5 
540717.814,4147532.168,-2051.4 
540717.814,4147331.452,-2054.8 
540717.814,4147130.735,-2058.7 
540717.814,4146930.018,-2063.3 
540717.814,4146729.301,-2066.9 
540717.814,4146528.584,-2068.7 
540717.814,4146327.867,-2071 
540717.814,4146127.151,-2073.5 
540717.814,4145926.434,-2074.7 
540717.814,4145725.717,-2075.1 
540919.012,4201525.000,-1013 
540919.012,4201324.283,-1022.2 
540919.012,4201123.566,-997.6 
540919.012,4200922.849,-996 
540919.012,4200722.133,-1029.3 
540919.012,4200521.416,-1053.5 
540919.012,4200320.699,-1061.9 
540919.012,4200119.982,-1066.7 
540919.012,4199919.265,-1070.5 
540919.012,4199718.548,-1075.2 
540919.012,4199517.832,-1078.7 
540919.012,4199317.115,-1072.5 
540919.012,4199116.398,-1078.7 
540919.012,4198915.681,-1089.8 
540919.012,4198714.964,-1092.5 
540919.012,4198514.247,-1088.1 
540919.012,4198313.530,-1091.6 
540919.012,4198112.814,-1103.8 
540919.012,4197912.097,-1112.7 
540919.012,4197711.380,-1116.3 
540919.012,4197510.663,-1113.7 
540919.012,4197309.946,-1108.7 
540919.012,4197109.229,-1118.4 
540919.012,4196908.513,-1125.8 
540919.012,4196707.796,-1124.5 
540919.012,4196507.079,-1126.1 
540919.012,4196306.362,-1143.7 
540919.012,4196105.645,-1146 
540919.012,4195904.928,-1142.3 
540919.012,4195704.211,-1151.6 
540919.012,4195503.495,-1166 
540919.012,4195302.778,-1174.4 
540919.012,4195102.061,-1178.9 
540919.012,4194901.344,-1187.3 
540919.012,4194700.627,-1203.3 
540919.012,4194499.910,-1221.4 
540919.012,4194299.194,-1234.7 
540919.012,4194098.477,-1240.9 
540919.012,4193897.760,-1240.4 
540919.012,4193697.043,-1242.1 
540919.012,4193496.326,-1257.5 
540919.012,4193295.609,-1276.4 
540919.012,4193094.892,-1281.9 
540919.012,4192894.176,-1278.5 
540919.012,4192693.459,-1258.6 
540919.012,4192492.742,-1239.1 
540919.012,4192292.025,-1247.3 
540919.012,4192091.308,-1267.1 
540919.012,4191890.591,-1267.1 
540919.012,4191689.875,-1252.3 
540919.012,4191489.158,-1240.4 
540919.012,4191288.441,-1246.2 
540919.012,4191087.724,-1253.6 
540919.012,4190887.007,-1254.4 
540919.012,4190686.290,-1272.4 
540919.012,4190485.573,-1308.4 
540919.012,4190284.857,-1331.3 
540919.012,4190084.140,-1339.6 
540919.012,4189883.423,-1336.5 
540919.012,4189682.706,-1329.9 
540919.012,4189481.989,-1304.5 
540919.012,4189281.272,-1292.6 
540919.012,4189080.556,-1308.6 
540919.012,4188879.839,-1339.5 
540919.012,4188679.122,-1368.1 
540919.012,4188478.405,-1379.7 
540919.012,4188277.688,-1383.3 
540919.012,4188076.971,-1384.7 
540919.012,4187876.254,-1384.5 
540919.012,4187675.538,-1380.1 
540919.012,4187474.821,-1371 
540919.012,4187274.104,-1349.6 
540919.012,4187073.387,-1354.6 
540919.012,4186872.670,-1373.1 
540919.012,4186671.953,-1395.3 
540919.012,4186471.237,-1416.6 
540919.012,4186270.520,-1424.8 
540919.012,4186069.803,-1420.1 
540919.012,4185869.086,-1374.6 
540919.012,4185668.369,-1353 
540919.012,4185467.652,-1352.2 
540919.012,4185266.935,-1359.8 
540919.012,4185066.219,-1366.2 
540919.012,4184865.502,-1373 
540919.012,4184664.785,-1379.8 
540919.012,4184464.068,-1382.7 
540919.012,4184263.351,-1383.3 
540919.012,4184062.634,-1381.1 
540919.012,4183861.918,-1379.3 
540919.012,4183661.201,-1375.7 
540919.012,4183460.484,-1377.1 
540919.012,4183259.767,-1378.5 
540919.012,4183059.050,-1381.1 
540919.012,4182858.333,-1382.9 
540919.012,4182657.616,-1383.2 
540919.012,4182456.900,-1395.5 
540919.012,4182256.183,-1415.2 
540919.012,4182055.466,-1423.2 
540919.012,4181854.749,-1429.3 
540919.012,4181654.032,-1460.7 
540919.012,4181453.315,-1491.7 
540919.012,4181252.599,-1509.2 
540919.012,4181051.882,-1520.9 
540919.012,4180851.165,-1518 
540919.012,4180650.448,-1510.3 
540919.012,4180449.731,-1503.2 
540919.012,4180249.014,-1500.5 
540919.012,4180048.297,-1499.5 
540919.012,4179847.581,-1489.8 
540919.012,4179646.864,-1489.9 
540919.012,4179446.147,-1454.2 
540919.012,4179245.430,-1451.3 
540919.012,4179044.713,-1453.2 
540919.012,4178843.996,-1461.6 
540919.012,4178643.280,-1471.9 
540919.012,4178442.563,-1472.1 
540919.012,4178241.846,-1477.6 
540919.012,4178041.129,-1490.5 
540919.012,4177840.412,-1488.9 
540919.012,4177639.695,-1492.7 
540919.012,4177438.978,-1492.2 
540919.012,4177238.262,-1488.8 
540919.012,4177037.545,-1488.2 
540919.012,4176836.828,-1510.5 
540919.012,4176636.111,-1553.4 
540919.012,4176435.394,-1602.9 
540919.012,4176234.677,-1636.9 
540919.012,4176033.961,-1658.6 
540919.012,4175833.244,-1674.8 
540919.012,4175632.527,-1695.9 
540919.012,4175431.810,-1691.3 
540919.012,4175231.093,-1696.6 
540919.012,4175030.376,-1709.1 
540919.012,4174829.659,-1713.5 
540919.012,4174628.943,-1730 
540919.012,4174428.226,-1740.4 
540919.012,4174227.509,-1748 
540919.012,4174026.792,-1752.9 
540919.012,4173826.075,-1755 
540919.012,4173625.358,-1759.3 
540919.012,4173424.642,-1769.7 
540919.012,4173223.925,-1778.3 
540919.012,4173023.208,-1791.5 
540919.012,4172822.491,-1799.8 
540919.012,4172621.774,-1800.8 
540919.012,4172421.057,-1811.1 
540919.012,4172220.341,-1820.8 
540919.012,4172019.624,-1837.2 
540919.012,4171818.907,-1856.5 
540919.012,4171618.190,-1859.9 
540919.012,4171417.473,-1865 
540919.012,4171216.756,-1875.7 
540919.012,4171016.039,-1886.9 
540919.012,4170815.323,-1895 
540919.012,4170614.606,-1903.4 
540919.012,4170413.889,-1906.7 
540919.012,4170213.172,-1911 
540919.012,4170012.455,-1919.1 
540919.012,4169811.738,-1933.2 
540919.012,4169611.022,-1927.4 
540919.012,4169410.305,-1930.8 
540919.012,4169209.588,-1935.2 
540919.012,4169008.871,-1937.2 
540919.012,4168808.154,-1940 
540919.012,4168607.437,-1945.3 
540919.012,4168406.720,-1948.4 
540919.012,4168206.004,-1952.3 
540919.012,4168005.287,-1955.6 
540919.012,4167804.570,-1958.6 
540919.012,4167603.853,-1960.9 
540919.012,4167403.136,-1963.9 
540919.012,4167202.419,-1967.5 
540919.012,4167001.703,-1970.4 
540919.012,4166800.986,-1974.3 
540919.012,4166600.269,-1976 
540919.012,4166399.552,-1977.8 
540919.012,4166198.835,-1980.4 
540919.012,4165998.118,-1982.7 
540919.012,4165797.401,-1985.5 
540919.012,4165596.685,-1988.7 
540919.012,4165395.968,-1989.8 
540919.012,4165195.251,-1991.9 
540919.012,4164994.534,-1994.5 
540919.012,4164793.817,-1997 
540919.012,4164593.100,-1999.5 
540919.012,4164392.384,-2001.4 
540919.012,4164191.667,-2002.7 
540919.012,4163990.950,-2003.2 
540919.012,4163790.233,-2003.9 
540919.012,4163589.516,-2004.8 
540919.012,4163388.799,-2004.8 
540919.012,4163188.082,-2006.1 
540919.012,4162987.366,-2006 
540919.012,4162786.649,-2006.5 
540919.012,4162585.932,-2006 
540919.012,4162385.215,-2005.6 
540919.012,4162184.498,-2007.5 
540919.012,4161983.781,-2008 
540919.012,4161783.065,-2008.7 
540919.012,4161582.348,-2006.5 
540919.012,4161381.631,-2005.9 
540919.012,4161180.914,-2007.3 
540919.012,4160980.197,-2007.3 
540919.012,4160779.480,-2007.6 
540919.012,4160578.763,-2009 
540919.012,4160378.047,-2010.2 
540919.012,4160177.330,-2010.8 
540919.012,4159976.613,-2009.8 
540919.012,4159775.896,-2011.2 
540919.012,4159575.179,-2013.6 
540919.012,4159374.462,-2014.4 
540919.012,4159173.746,-2013.6 
540919.012,4158973.029,-2011.7 
540919.012,4158772.312,-2013 
540919.012,4158571.595,-2011.4 
540919.012,4158370.878,-2013.4 
540919.012,4158170.161,-2013.6 
540919.012,4157969.444,-2013.2 
540919.012,4157768.728,-2019.2 
540919.012,4157568.011,-2021.1 
540919.012,4157367.294,-2018.3 
540919.012,4157166.577,-2018.3 
540919.012,4156965.860,-2020.6 
540919.012,4156765.143,-2019.8 
540919.012,4156564.427,-2018.7 
540919.012,4156363.710,-2019 
540919.012,4156162.993,-2019.9 
540919.012,4155962.276,-2020.4 
540919.012,4155761.559,-2020.3 
540919.012,4155560.842,-2021.2 
540919.012,4155360.125,-2022.8 
540919.012,4155159.409,-2024.2 
540919.012,4154958.692,-2024.8 
540919.012,4154757.975,-2025.7 
540919.012,4154557.258,-2026 
540919.012,4154356.541,-2025.6 
540919.012,4154155.824,-2025.8 
540919.012,4153955.108,-2025.7 
540919.012,4153754.391,-2024.9 
540919.012,4153553.674,-2024.2 
540919.012,4153352.957,-2023.4 
540919.012,4153152.240,-2022.5 
540919.012,4152951.523,-2021.4 
540919.012,4152750.806,-2020.3 
540919.012,4152550.090,-2020.9 
540919.012,4152349.373,-2022 
540919.012,4152148.656,-2023.2 
540919.012,4151947.939,-2024.2 
540919.012,4151747.222,-2025.4 
540919.012,4151546.505,-2027.8 
540919.012,4151345.789,-2029.4 
540919.012,4151145.072,-2029.7 
540919.012,4150944.355,-2029.8 
540919.012,4150743.638,-2030.3 
540919.012,4150542.921,-2030.4 
540919.012,4150342.204,-2030 
540919.012,4150141.487,-2030.2 
540919.012,4149940.771,-2031.8 
540919.012,4149740.054,-2033.4 
540919.012,4149539.337,-2035.8 
540919.012,4149338.620,-2040.2 
540919.012,4149137.903,-2041.8 
540919.012,4148937.186,-2040.9 
540919.012,4148736.470,-2041 
540919.012,4148535.753,-2041.5 
540919.012,4148335.036,-2042.2 
540919.012,4148134.319,-2043.9 
540919.012,4147933.602,-2046 
540919.012,4147732.885,-2047.4 
540919.012,4147532.168,-2049.7 
540919.012,4147331.452,-2054.2 
540919.012,4147130.735,-2058.6 
540919.012,4146930.018,-2059.8 
540919.012,4146729.301,-2062.1 
540919.012,4146528.584,-2066.9 
540919.012,4146327.867,-2070.4 
540919.012,4146127.151,-2073.8 
540919.012,4145926.434,-2076.4 
540919.012,4145725.717,-2078.2 
541120.210,4201525.000,-1028.3 
541120.210,4201324.283,-1040 
541120.210,4201123.566,-1023.9 
541120.210,4200922.849,-1012.3 
541120.210,4200722.133,-1031.7 
541120.210,4200521.416,-1057.5 
541120.210,4200320.699,-1069.3 
541120.210,4200119.982,-1073.5 
541120.210,4199919.265,-1079.4 
541120.210,4199718.548,-1083.2 
541120.210,4199517.832,-1085.2 
541120.210,4199317.115,-1082 
541120.210,4199116.398,-1085.8 
541120.210,4198915.681,-1099.3 
541120.210,4198714.964,-1107 
541120.210,4198514.247,-1108 
541120.210,4198313.530,-1106.7 
541120.210,4198112.814,-1114.3 
541120.210,4197912.097,-1125.3 
541120.210,4197711.380,-1132.6 
541120.210,4197510.663,-1134.6 
541120.210,4197309.946,-1126.1 
541120.210,4197109.229,-1128.1 
541120.210,4196908.513,-1137.4 
541120.210,4196707.796,-1138.8 
541120.210,4196507.079,-1140.9 
541120.210,4196306.362,-1147.4 
541120.210,4196105.645,-1157.8 
541120.210,4195904.928,-1150 
541120.210,4195704.211,-1151.3 
541120.210,4195503.495,-1169.5 
541120.210,4195302.778,-1182.5 
541120.210,4195102.061,-1186.9 
541120.210,4194901.344,-1190.4 
541120.210,4194700.627,-1198.4 
541120.210,4194499.910,-1212.7 
541120.210,4194299.194,-1230.2 
541120.210,4194098.477,-1245.5 
541120.210,4193897.760,-1251.4 
541120.210,4193697.043,-1242.1 
541120.210,4193496.326,-1241.8 
541120.210,4193295.609,-1264.9 
541120.210,4193094.892,-1287.3 
541120.210,4192894.176,-1295.8 
541120.210,4192693.459,-1284.9 
541120.210,4192492.742,-1258.8 
541120.210,4192292.025,-1256.4 
541120.210,4192091.308,-1273.3 
541120.210,4191890.591,-1279 
541120.210,4191689.875,-1265 
541120.210,4191489.158,-1248.5 
541120.210,4191288.441,-1254.6 
541120.210,4191087.724,-1262.4 
541120.210,4190887.007,-1262.5 
541120.210,4190686.290,-1266.7 
541120.210,4190485.573,-1285 
541120.210,4190284.857,-1313.8 
541120.210,4190084.140,-1337.8 
541120.210,4189883.423,-1343.6 
541120.210,4189682.706,-1343.4 
541120.210,4189481.989,-1335.7 
541120.210,4189281.272,-1316.6 
541120.210,4189080.556,-1309.6 
541120.210,4188879.839,-1327.5 
541120.210,4188679.122,-1360.3 
541120.210,4188478.405,-1382.5 
541120.210,4188277.688,-1388.8 
541120.210,4188076.971,-1389.8 
541120.210,4187876.254,-1389.1 
541120.210,4187675.538,-1388.6 
541120.210,4187474.821,-1387.7 
541120.210,4187274.104,-1356.7 
541120.210,4187073.387,-1349.4 
541120.210,4186872.670,-1365.4 
541120.210,4186671.953,-1388.4 
541120.210,4186471.237,-1412.4 
541120.210,4186270.520,-1425.4 
541120.210,4186069.803,-1431.2 
541120.210,4185869.086,-1389 
541120.210,4185668.369,-1361.3 
541120.210,4185467.652,-1358.1 
541120.210,4185266.935,-1362.8 
541120.210,4185066.219,-1371.8 
541120.210,4184865.502,-1382.5 
541120.210,4184664.785,-1387.1 
541120.210,4184464.068,-1388.5 
541120.210,4184263.351,-1389.1 
541120.210,4184062.634,-1387 
541120.210,4183861.918,-1386.1 
541120.210,4183661.201,-1379.6 
541120.210,4183460.484,-1380.2 
541120.210,4183259.767,-1384.4 
541120.210,4183059.050,-1388.3 
541120.210,4182858.333,-1391 
541120.210,4182657.616,-1393.5 
541120.210,4182456.900,-1400.5 
541120.210,4182256.183,-1407.6 
541120.210,4182055.466,-1409.3 
541120.210,4181854.749,-1424.6 
541120.210,4181654.032,-1463.5 
541120.210,4181453.315,-1484.5 
541120.210,4181252.599,-1501.9 
541120.210,4181051.882,-1522 
541120.210,4180851.165,-1524.4 
541120.210,4180650.448,-1523 
541120.210,4180449.731,-1517.5 
541120.210,4180249.014,-1516.3 
541120.210,4180048.297,-1511.7 
541120.210,4179847.581,-1503.5 
541120.210,4179646.864,-1497 
541120.210,4179446.147,-1485.9 
541120.210,4179245.430,-1477.7 
541120.210,4179044.713,-1468.9 
541120.210,4178843.996,-1468.5 
541120.210,4178643.280,-1470.4 
541120.210,4178442.563,-1473.7 
541120.210,4178241.846,-1478.6 
541120.210,4178041.129,-1482.7 
541120.210,4177840.412,-1473.2 
541120.210,4177639.695,-1480.6 
541120.210,4177438.978,-1476.2 
541120.210,4177238.262,-1476.5 
541120.210,4177037.545,-1480.5 
541120.210,4176836.828,-1499.7 
541120.210,4176636.111,-1532.2 
541120.210,4176435.394,-1568.2 
541120.210,4176234.677,-1594.9 
541120.210,4176033.961,-1646.8 
541120.210,4175833.244,-1675.4 
541120.210,4175632.527,-1695.1 
541120.210,4175431.810,-1692.9 
541120.210,4175231.093,-1695.5 
541120.210,4175030.376,-1710.8 
541120.210,4174829.659,-1714 
541120.210,4174628.943,-1721.8 
541120.210,4174428.226,-1742.4 
541120.210,4174227.509,-1748.3 
541120.210,4174026.792,-1753.7 
541120.210,4173826.075,-1759.7 
541120.210,4173625.358,-1759.4 
541120.210,4173424.642,-1766.4 
541120.210,4173223.925,-1774.2 
541120.210,4173023.208,-1786 
541120.210,4172822.491,-1795.9 
541120.210,4172621.774,-1801.1 
541120.210,4172421.057,-1809.6 
541120.210,4172220.341,-1817.6 
541120.210,4172019.624,-1829.4 
541120.210,4171818.907,-1843.6 
541120.210,4171618.190,-1851.3 
541120.210,4171417.473,-1857.4 
541120.210,4171216.756,-1860.8 
541120.210,4171016.039,-1865.4 
541120.210,4170815.323,-1874.9 
541120.210,4170614.606,-1898.1 
541120.210,4170413.889,-1903.5 
541120.210,4170213.172,-1905.7 
541120.210,4170012.455,-1911.7 
541120.210,4169811.738,-1918.3 
541120.210,4169611.022,-1919.9 
541120.210,4169410.305,-1925.6 
541120.210,4169209.588,-1929.5 
541120.210,4169008.871,-1932.7 
541120.210,4168808.154,-1939 
541120.210,4168607.437,-1943.2 
541120.210,4168406.720,-1946.8 
541120.210,4168206.004,-1949.7 
541120.210,4168005.287,-1953 
541120.210,4167804.570,-1956.3 
541120.210,4167603.853,-1958 
541120.210,4167403.136,-1961.1 
541120.210,4167202.419,-1964 
541120.210,4167001.703,-1966.5 
541120.210,4166800.986,-1970.1 
541120.210,4166600.269,-1974.4 
541120.210,4166399.552,-1977.1 
541120.210,4166198.835,-1978.9 
541120.210,4165998.118,-1980.3 
541120.210,4165797.401,-1983.8 
541120.210,4165596.685,-1986.6 
541120.210,4165395.968,-1988.3 
541120.210,4165195.251,-1990.8 
541120.210,4164994.534,-1992.7 
541120.210,4164793.817,-1996.4 
541120.210,4164593.100,-1997.7 
541120.210,4164392.384,-1999.3 
541120.210,4164191.667,-2000.1 
541120.210,4163990.950,-2000.7 
541120.210,4163790.233,-2001.7 
541120.210,4163589.516,-2001.8 
541120.210,4163388.799,-2003 
541120.210,4163188.082,-2003.1 
541120.210,4162987.366,-2003.1 
541120.210,4162786.649,-2002.6 
541120.210,4162585.932,-2002.2 
541120.210,4162385.215,-2002.8 
541120.210,4162184.498,-2002.7 
541120.210,4161983.781,-2005.2 
541120.210,4161783.065,-2006.9 
541120.210,4161582.348,-2001.9 
541120.210,4161381.631,-2000.1 
541120.210,4161180.914,-2000.8 
541120.210,4160980.197,-2001.1 
541120.210,4160779.480,-2002.4 
541120.210,4160578.763,-2004.6 
541120.210,4160378.047,-2005.3 
541120.210,4160177.330,-2006.8 
541120.210,4159976.613,-2005.6 
541120.210,4159775.896,-2004 
541120.210,4159575.179,-2004.8 
541120.210,4159374.462,-2006.1 
541120.210,4159173.746,-2006.7 
541120.210,4158973.029,-2006.6 
541120.210,4158772.312,-2006.2 
541120.210,4158571.595,-2006.7 
541120.210,4158370.878,-2008.5 
541120.210,4158170.161,-2009.4 
541120.210,4157969.444,-2012.6 
541120.210,4157768.728,-2018.4 
541120.210,4157568.011,-2018.2 
541120.210,4157367.294,-2015.6 
541120.210,4157166.577,-2015.6 
541120.210,4156965.860,-2016.2 
541120.210,4156765.143,-2016.7 
541120.210,4156564.427,-2016.6 
541120.210,4156363.710,-2016.7 
541120.210,4156162.993,-2018.1 
541120.210,4155962.276,-2019.5 
541120.210,4155761.559,-2019.7 
541120.210,4155560.842,-2021 
541120.210,4155360.125,-2022.8 
541120.210,4155159.409,-2023.5 
541120.210,4154958.692,-2023.8 
541120.210,4154757.975,-2024.5 
541120.210,4154557.258,-2024.4 
541120.210,4154356.541,-2023.2 
541120.210,4154155.824,-2022 
541120.210,4153955.108,-2022.6 
541120.210,4153754.391,-2022 
541120.210,4153553.674,-2021.2 
541120.210,4153352.957,-2021.6 
541120.210,4153152.240,-2019.7 
541120.210,4152951.523,-2017 
541120.210,4152750.806,-2016.1 
541120.210,4152550.090,-2017.3 
541120.210,4152349.373,-2018.5 
541120.210,4152148.656,-2019.9 
541120.210,4151947.939,-2021.1 
541120.210,4151747.222,-2023.1 
541120.210,4151546.505,-2025.6 
541120.210,4151345.789,-2026.8 
541120.210,4151145.072,-2027 
541120.210,4150944.355,-2027 
541120.210,4150743.638,-2028 
541120.210,4150542.921,-2028.3 
541120.210,4150342.204,-2028 
541120.210,4150141.487,-2028.6 
541120.210,4149940.771,-2030.4 
541120.210,4149740.054,-2031 
541120.210,4149539.337,-2034 
541120.210,4149338.620,-2038.4 
541120.210,4149137.903,-2038.9 
541120.210,4148937.186,-2038.6 
541120.210,4148736.470,-2038.3 
541120.210,4148535.753,-2039.4 
541120.210,4148335.036,-2041.2 
541120.210,4148134.319,-2043.4 
541120.210,4147933.602,-2044.4 
541120.210,4147732.885,-2045.9 
541120.210,4147532.168,-2048.7 
541120.210,4147331.452,-2052.9 
541120.210,4147130.735,-2056.3 
541120.210,4146930.018,-2057.8 
541120.210,4146729.301,-2062.8 
541120.210,4146528.584,-2067.1 
541120.210,4146327.867,-2070.1 
541120.210,4146127.151,-2075.1 
541120.210,4145926.434,-2078.2 
541120.210,4145725.717,-2078.2 
541321.407,4201525.000,-1045.9 
541321.407,4201324.283,-1056.4 
541321.407,4201123.566,-1048 
541321.407,4200922.849,-1038.3 
541321.407,4200722.133,-1041.6 
541321.407,4200521.416,-1061.3 
541321.407,4200320.699,-1074.3 
541321.407,4200119.982,-1075.8 
541321.407,4199919.265,-1088.1 
541321.407,4199718.548,-1096.5 
541321.407,4199517.832,-1099 
541321.407,4199317.115,-1098.8 
541321.407,4199116.398,-1093.7 
541321.407,4198915.681,-1106.1 
541321.407,4198714.964,-1121.2 
541321.407,4198514.247,-1128.7 
541321.407,4198313.530,-1124.2 
541321.407,4198112.814,-1122.2 
541321.407,4197912.097,-1138 
541321.407,4197711.380,-1150.1 
541321.407,4197510.663,-1151.2 
541321.407,4197309.946,-1145.8 
541321.407,4197109.229,-1140.2 
541321.407,4196908.513,-1148.9 
541321.407,4196707.796,-1153.5 
541321.407,4196507.079,-1155.3 
541321.407,4196306.362,-1157.3 
541321.407,4196105.645,-1168.6 
541321.407,4195904.928,-1165.2 
541321.407,4195704.211,-1162 
541321.407,4195503.495,-1175 
541321.407,4195302.778,-1191.5 
541321.407,4195102.061,-1200.1 
541321.407,4194901.344,-1203.4 
541321.407,4194700.627,-1207.8 
541321.407,4194499.910,-1213.5 
541321.407,4194299.194,-1223.5 
541321.407,4194098.477,-1240.9 
541321.407,4193897.760,-1257.3 
541321.407,4193697.043,-1261 
541321.407,4193496.326,-1246.1 
541321.407,4193295.609,-1253.2 
541321.407,4193094.892,-1276.6 
541321.407,4192894.176,-1297.8 
541321.407,4192693.459,-1305.7 
541321.407,4192492.742,-1289.3 
541321.407,4192292.025,-1269.4 
541321.407,4192091.308,-1280.1 
541321.407,4191890.591,-1292.3 
541321.407,4191689.875,-1280.1 
541321.407,4191489.158,-1256.1 
541321.407,4191288.441,-1256.5 
541321.407,4191087.724,-1271.3 
541321.407,4190887.007,-1276.8 
541321.407,4190686.290,-1279 
541321.407,4190485.573,-1283.2 
541321.407,4190284.857,-1296.8 
541321.407,4190084.140,-1321.1 
541321.407,4189883.423,-1338.7 
541321.407,4189682.706,-1344.4 
541321.407,4189481.989,-1357.3 
541321.407,4189281.272,-1353.5 
541321.407,4189080.556,-1336.3 
541321.407,4188879.839,-1334.9 
541321.407,4188679.122,-1357.3 
541321.407,4188478.405,-1385.8 
541321.407,4188277.688,-1393.8 
541321.407,4188076.971,-1396 
541321.407,4187876.254,-1395.7 
541321.407,4187675.538,-1393.8 
541321.407,4187474.821,-1394.6 
541321.407,4187274.104,-1375.9 
541321.407,4187073.387,-1357.2 
541321.407,4186872.670,-1361.9 
541321.407,4186671.953,-1385.6 
541321.407,4186471.237,-1409.4 
541321.407,4186270.520,-1428.7 
541321.407,4186069.803,-1437.8 
541321.407,4185869.086,-1406.7 
541321.407,4185668.369,-1374.8 
541321.407,4185467.652,-1368.7 
541321.407,4185266.935,-1368.9 
541321.407,4185066.219,-1377.9 
541321.407,4184865.502,-1388.5 
541321.407,4184664.785,-1391 
541321.407,4184464.068,-1393.7 
541321.407,4184263.351,-1393.6 
541321.407,4184062.634,-1392.4 
541321.407,4183861.918,-1391.8 
541321.407,4183661.201,-1383.1 
541321.407,4183460.484,-1381.8 
541321.407,4183259.767,-1385.3 
541321.407,4183059.050,-1390.5 
541321.407,4182858.333,-1396.6 
541321.407,4182657.616,-1401.1 
541321.407,4182456.900,-1404.1 
541321.407,4182256.183,-1404 
541321.407,4182055.466,-1409.5 
541321.407,4181854.749,-1427.3 
541321.407,4181654.032,-1458 
541321.407,4181453.315,-1469.1 
541321.407,4181252.599,-1491.1 
541321.407,4181051.882,-1516.7 
541321.407,4180851.165,-1523.9 
541321.407,4180650.448,-1527 
541321.407,4180449.731,-1529 
541321.407,4180249.014,-1524.7 
541321.407,4180048.297,-1524.4 
541321.407,4179847.581,-1523.2 
541321.407,4179646.864,-1517.2 
541321.407,4179446.147,-1501.5 
541321.407,4179245.430,-1478.5 
541321.407,4179044.713,-1464.4 
541321.407,4178843.996,-1462.4 
541321.407,4178643.280,-1462 
541321.407,4178442.563,-1463.9 
541321.407,4178241.846,-1467.2 
541321.407,4178041.129,-1470.5 
541321.407,4177840.412,-1463 
541321.407,4177639.695,-1465.4 
541321.407,4177438.978,-1463.2 
541321.407,4177238.262,-1464.9 
541321.407,4177037.545,-1469.3 
541321.407,4176836.828,-1481.5 
541321.407,4176636.111,-1504.1 
541321.407,4176435.394,-1522.6 
541321.407,4176234.677,-1545 
541321.407,4176033.961,-1623.9 
541321.407,4175833.244,-1669.8 
541321.407,4175632.527,-1689.5 
541321.407,4175431.810,-1694.9 
541321.407,4175231.093,-1697.3 
541321.407,4175030.376,-1709.8 
541321.407,4174829.659,-1715 
541321.407,4174628.943,-1719.6 
541321.407,4174428.226,-1738.6 
541321.407,4174227.509,-1744.8 
541321.407,4174026.792,-1753.2 
541321.407,4173826.075,-1761.1 
541321.407,4173625.358,-1761.5 
541321.407,4173424.642,-1765.3 
541321.407,4173223.925,-1771.3 
541321.407,4173023.208,-1778.3 
541321.407,4172822.491,-1789.2 
541321.407,4172621.774,-1798.9 
541321.407,4172421.057,-1807.3 
541321.407,4172220.341,-1817.5 
541321.407,4172019.624,-1827.5 
541321.407,4171818.907,-1838.3 
541321.407,4171618.190,-1846.7 
541321.407,4171417.473,-1852.8 
541321.407,4171216.756,-1853 
541321.407,4171016.039,-1851.6 
541321.407,4170815.323,-1852.7 
541321.407,4170614.606,-1871.9 
541321.407,4170413.889,-1900.1 
541321.407,4170213.172,-1900.2 
541321.407,4170012.455,-1903.4 
541321.407,4169811.738,-1908.6 
541321.407,4169611.022,-1916.5 
541321.407,4169410.305,-1922.9 
541321.407,4169209.588,-1926.6 
541321.407,4169008.871,-1931.8 
541321.407,4168808.154,-1937.8 
541321.407,4168607.437,-1941 
541321.407,4168406.720,-1943.7 
541321.407,4168206.004,-1945 
541321.407,4168005.287,-1947.5 
541321.407,4167804.570,-1951 
541321.407,4167603.853,-1955.1 
541321.407,4167403.136,-1959.2 
541321.407,4167202.419,-1961.7 
541321.407,4167001.703,-1966 
541321.407,4166800.986,-1968.8 
541321.407,4166600.269,-1971.2 
541321.407,4166399.552,-1973.7 
541321.407,4166198.835,-1976.5 
541321.407,4165998.118,-1978.1 
541321.407,4165797.401,-1981.4 
541321.407,4165596.685,-1984 
541321.407,4165395.968,-1986 
541321.407,4165195.251,-1991.4 
541321.407,4164994.534,-1991.6 
541321.407,4164793.817,-1993.6 
541321.407,4164593.100,-1994.2 
541321.407,4164392.384,-1995.8 
541321.407,4164191.667,-1995.9 
541321.407,4163990.950,-1995.8 
541321.407,4163790.233,-1997.9 
541321.407,4163589.516,-1996.9 
541321.407,4163388.799,-1997.9 
541321.407,4163188.082,-2000.6 
541321.407,4162987.366,-2000.4 
541321.407,4162786.649,-2000.5 
541321.407,4162585.932,-1999.4 
541321.407,4162385.215,-1999.4 
541321.407,4162184.498,-1999.2 
541321.407,4161983.781,-2002.6 
541321.407,4161783.065,-2005.7 
541321.407,4161582.348,-2000.3 
541321.407,4161381.631,-1998.1 
541321.407,4161180.914,-1997.8 
541321.407,4160980.197,-1998.7 
541321.407,4160779.480,-1998.5 
541321.407,4160578.763,-2001.4 
541321.407,4160378.047,-2003.6 
541321.407,4160177.330,-2003.1 
541321.407,4159976.613,-2001.7 
541321.407,4159775.896,-2000.3 
541321.407,4159575.179,-2000.2 
541321.407,4159374.462,-1999.6 
541321.407,4159173.746,-2000.1 
541321.407,4158973.029,-2002.8 
541321.407,4158772.312,-2001.9 
541321.407,4158571.595,-2001.6 
541321.407,4158370.878,-2003.6 
541321.407,4158170.161,-2006 
541321.407,4157969.444,-2011.6 
541321.407,4157768.728,-2017.8 
541321.407,4157568.011,-2016.9 
541321.407,4157367.294,-2014.4 
541321.407,4157166.577,-2013.6 
541321.407,4156965.860,-2013.5 
541321.407,4156765.143,-2013.9 
541321.407,4156564.427,-2014.6 
541321.407,4156363.710,-2015.2 
541321.407,4156162.993,-2016.7 
541321.407,4155962.276,-2018.1 
541321.407,4155761.559,-2018.8 
541321.407,4155560.842,-2020.4 
541321.407,4155360.125,-2021.6 
541321.407,4155159.409,-2021.8 
541321.407,4154958.692,-2022.3 
541321.407,4154757.975,-2022.5 
541321.407,4154557.258,-2022.3 
541321.407,4154356.541,-2021 
541321.407,4154155.824,-2019.1 
541321.407,4153955.108,-2019.5 
541321.407,4153754.391,-2019.7 
541321.407,4153553.674,-2019.1 
541321.407,4153352.957,-2018.4 
541321.407,4153152.240,-2017 
541321.407,4152951.523,-2015 
541321.407,4152750.806,-2013.5 
541321.407,4152550.090,-2013.4 
541321.407,4152349.373,-2015 
541321.407,4152148.656,-2017 
541321.407,4151947.939,-2019.8 
541321.407,4151747.222,-2021.5 
541321.407,4151546.505,-2023.1 
541321.407,4151345.789,-2023.2 
541321.407,4151145.072,-2023 
541321.407,4150944.355,-2023.5 
541321.407,4150743.638,-2025.5 
541321.407,4150542.921,-2026.6 
541321.407,4150342.204,-2026.6 
541321.407,4150141.487,-2027.1 
541321.407,4149940.771,-2028.2 
541321.407,4149740.054,-2028.1 
541321.407,4149539.337,-2030.8 
541321.407,4149338.620,-2034.3 
541321.407,4149137.903,-2034.8 
541321.407,4148937.186,-2036.1 
541321.407,4148736.470,-2037.1 
541321.407,4148535.753,-2037.9 
541321.407,4148335.036,-2039.9 
541321.407,4148134.319,-2041.2 
541321.407,4147933.602,-2042.8 
541321.407,4147732.885,-2044.5 
541321.407,4147532.168,-2047 
541321.407,4147331.452,-2050.6 
541321.407,4147130.735,-2052.2 
541321.407,4146930.018,-2056.4 
541321.407,4146729.301,-2061.9 
541321.407,4146528.584,-2065.8 
541321.407,4146327.867,-2070.4 
541321.407,4146127.151,-2076.6 
541321.407,4145926.434,-2080.1 
541321.407,4145725.717,-2080.4 
541522.605,4201525.000,-1065.8 
541522.605,4201324.283,-1076.3 
541522.605,4201123.566,-1062.6 
541522.605,4200922.849,-1057.7 
541522.605,4200722.133,-1062.1 
541522.605,4200521.416,-1069.5 
541522.605,4200320.699,-1080.6 
541522.605,4200119.982,-1092 
541522.605,4199919.265,-1107.3 
541522.605,4199718.548,-1113.7 
541522.605,4199517.832,-1118.4 
541522.605,4199317.115,-1120 
541522.605,4199116.398,-1110.2 
541522.605,4198915.681,-1115.2 
541522.605,4198714.964,-1135.3 
541522.605,4198514.247,-1144 
541522.605,4198313.530,-1138.2 
541522.605,4198112.814,-1131.6 
541522.605,4197912.097,-1140.8 
541522.605,4197711.380,-1157.2 
541522.605,4197510.663,-1161.9 
541522.605,4197309.946,-1161.1 
541522.605,4197109.229,-1156.4 
541522.605,4196908.513,-1164 
541522.605,4196707.796,-1165.6 
541522.605,4196507.079,-1160 
541522.605,4196306.362,-1169.1 
541522.605,4196105.645,-1181.6 
541522.605,4195904.928,-1186.8 
541522.605,4195704.211,-1181.6 
541522.605,4195503.495,-1185 
541522.605,4195302.778,-1197.6 
541522.605,4195102.061,-1211.3 
541522.605,4194901.344,-1217.5 
541522.605,4194700.627,-1220.4 
541522.605,4194499.910,-1226.6 
541522.605,4194299.194,-1228.4 
541522.605,4194098.477,-1236.5 
541522.605,4193897.760,-1255 
541522.605,4193697.043,-1271.8 
541522.605,4193496.326,-1270.1 
541522.605,4193295.609,-1254 
541522.605,4193094.892,-1264.1 
541522.605,4192894.176,-1292.6 
541522.605,4192693.459,-1310.7 
541522.605,4192492.742,-1311 
541522.605,4192292.025,-1289.4 
541522.605,4192091.308,-1290 
541522.605,4191890.591,-1300.7 
541522.605,4191689.875,-1287.4 
541522.605,4191489.158,-1265.1 
541522.605,4191288.441,-1263.8 
541522.605,4191087.724,-1279.2 
541522.605,4190887.007,-1289.1 
541522.605,4190686.290,-1294.9 
541522.605,4190485.573,-1294.9 
541522.605,4190284.857,-1293.4 
541522.605,4190084.140,-1306.2 
541522.605,4189883.423,-1328.3 
541522.605,4189682.706,-1342.8 
541522.605,4189481.989,-1362.6 
541522.605,4189281.272,-1376.4 
541522.605,4189080.556,-1374.7 
541522.605,4188879.839,-1360.6 
541522.605,4188679.122,-1362.5 
541522.605,4188478.405,-1386.7 
541522.605,4188277.688,-1399.3 
541522.605,4188076.971,-1401.9 
541522.605,4187876.254,-1397.3 
541522.605,4187675.538,-1395.6 
541522.605,4187474.821,-1397.7 
541522.605,4187274.104,-1395.2 
541522.605,4187073.387,-1380.6 
541522.605,4186872.670,-1368.8 
541522.605,4186671.953,-1382.2 
541522.605,4186471.237,-1410.5 
541522.605,4186270.520,-1430.6 
541522.605,4186069.803,-1441.7 
541522.605,4185869.086,-1427.5 
541522.605,4185668.369,-1383.8 
541522.605,4185467.652,-1376.8 
541522.605,4185266.935,-1377.5 
541522.605,4185066.219,-1382.7 
541522.605,4184865.502,-1394.8 
541522.605,4184664.785,-1401.1 
541522.605,4184464.068,-1405.1 
541522.605,4184263.351,-1404.8 
541522.605,4184062.634,-1402.5 
541522.605,4183861.918,-1399.5 
541522.605,4183661.201,-1385.7 
541522.605,4183460.484,-1382.5 
541522.605,4183259.767,-1382.8 
541522.605,4183059.050,-1387.8 
541522.605,4182858.333,-1394.1 
541522.605,4182657.616,-1400 
541522.605,4182456.900,-1405.2 
541522.605,4182256.183,-1407.4 
541522.605,4182055.466,-1411.7 
541522.605,4181854.749,-1421.6 
541522.605,4181654.032,-1438.8 
541522.605,4181453.315,-1448 
541522.605,4181252.599,-1474.5 
541522.605,4181051.882,-1511.8 
541522.605,4180851.165,-1521.8 
541522.605,4180650.448,-1526.5 
541522.605,4180449.731,-1531.2 
541522.605,4180249.014,-1530.5 
541522.605,4180048.297,-1530.3 
541522.605,4179847.581,-1527.3 
541522.605,4179646.864,-1527.5 
541522.605,4179446.147,-1514.2 
541522.605,4179245.430,-1480.7 
541522.605,4179044.713,-1456.9 
541522.605,4178843.996,-1456.1 
541522.605,4178643.280,-1456.6 
541522.605,4178442.563,-1459.6 
541522.605,4178241.846,-1460.7 
541522.605,4178041.129,-1461.7 
541522.605,4177840.412,-1458 
541522.605,4177639.695,-1456.1 
541522.605,4177438.978,-1454.8 
541522.605,4177238.262,-1457.3 
541522.605,4177037.545,-1461.8 
541522.605,4176836.828,-1464.6 
541522.605,4176636.111,-1476.6 
541522.605,4176435.394,-1488.7 
541522.605,4176234.677,-1508.7 
541522.605,4176033.961,-1585.6 
541522.605,4175833.244,-1652.8 
541522.605,4175632.527,-1678.8 
541522.605,4175431.810,-1694.2 
541522.605,4175231.093,-1701.8 
541522.605,4175030.376,-1708.2 
541522.605,4174829.659,-1715.8 
541522.605,4174628.943,-1726.9 
541522.605,4174428.226,-1734.8 
541522.605,4174227.509,-1746 
541522.605,4174026.792,-1755.2 
541522.605,4173826.075,-1763.2 
541522.605,4173625.358,-1766.9 
541522.605,4173424.642,-1769.2 
541522.605,4173223.925,-1774 
541522.605,4173023.208,-1779.2 
541522.605,4172822.491,-1788.2 
541522.605,4172621.774,-1798 
541522.605,4172421.057,-1808.4 
541522.605,4172220.341,-1818.4 
541522.605,4172019.624,-1828.4 
541522.605,4171818.907,-1837.6 
541522.605,4171618.190,-1847.4 
541522.605,4171417.473,-1856.6 
541522.605,4171216.756,-1864.7 
541522.605,4171016.039,-1870.4 
541522.605,4170815.323,-1866.4 
541522.605,4170614.606,-1871.6 
541522.605,4170413.889,-1896.3 
541522.605,4170213.172,-1897.3 
541522.605,4170012.455,-1904.1 
541522.605,4169811.738,-1910.4 
541522.605,4169611.022,-1917.8 
541522.605,4169410.305,-1923.2 
541522.605,4169209.588,-1926.7 
541522.605,4169008.871,-1931 
541522.605,4168808.154,-1934.5 
541522.605,4168607.437,-1937 
541522.605,4168406.720,-1936.5 
541522.605,4168206.004,-1939.8 
541522.605,4168005.287,-1942.8 
541522.605,4167804.570,-1945 
541522.605,4167603.853,-1951.4 
541522.605,4167403.136,-1957 
541522.605,4167202.419,-1959.6 
541522.605,4167001.703,-1964.5 
541522.605,4166800.986,-1967 
541522.605,4166600.269,-1968.8 
541522.605,4166399.552,-1969.9 
541522.605,4166198.835,-1974.2 
541522.605,4165998.118,-1976 
541522.605,4165797.401,-1979.4 
541522.605,4165596.685,-1982.1 
541522.605,4165395.968,-1986.2 
541522.605,4165195.251,-1991 
541522.605,4164994.534,-1990.7 
541522.605,4164793.817,-1991.4 
541522.605,4164593.100,-1991.6 
541522.605,4164392.384,-1991.9 
541522.605,4164191.667,-1992.8 
541522.605,4163990.950,-1990.8 
541522.605,4163790.233,-1994.1 
541522.605,4163589.516,-1994 
541522.605,4163388.799,-1993.1 
541522.605,4163188.082,-1996 
541522.605,4162987.366,-1996.8 
541522.605,4162786.649,-1999.7 
541522.605,4162585.932,-1998.2 
541522.605,4162385.215,-1999 
541522.605,4162184.498,-2000.6 
541522.605,4161983.781,-2002.2 
541522.605,4161783.065,-2003.3 
541522.605,4161582.348,-2000.9 
541522.605,4161381.631,-1999.3 
541522.605,4161180.914,-1999.2 
541522.605,4160980.197,-1998.6 
541522.605,4160779.480,-1997.4 
541522.605,4160578.763,-2000.4 
541522.605,4160378.047,-2002.9 
541522.605,4160177.330,-2000 
541522.605,4159976.613,-1997.6 
541522.605,4159775.896,-1997.3 
541522.605,4159575.179,-1996.9 
541522.605,4159374.462,-1996.5 
541522.605,4159173.746,-1995.7 
541522.605,4158973.029,-1998.1 
541522.605,4158772.312,-1998 
541522.605,4158571.595,-1997.3 
541522.605,4158370.878,-1998.8 
541522.605,4158170.161,-2002.2 
541522.605,4157969.444,-2009 
541522.605,4157768.728,-2016.5 
541522.605,4157568.011,-2017.4 
