511730.067,4149678.626,-73 
511730.067,4149628.581,-72.4 
511730.067,4149578.536,-71.8 
511730.067,4149528.491,-71.7 
511730.067,4149478.447,-72 
511730.067,4149428.402,-72.1 
511730.067,4149378.357,-71.4 
511730.067,4149328.312,-70.6 
511730.067,4149278.268,-70.6 
511730.067,4149228.223,-70.5 
511730.067,4149178.178,-69.9 
511730.067,4149128.133,-69 
511730.067,4149078.089,-68.4 
511730.067,4149028.044,-67.6 
511730.067,4148977.999,-67 
511730.067,4148927.954,-66.8 
511730.067,4148877.910,-66.8 
511730.067,4148827.865,-66.9 
511730.067,4148777.820,-66.7 
511730.067,4148727.775,-66.6 
511730.067,4148677.731,-67 
511730.067,4148627.686,-67.2 
511730.067,4148577.641,-66.8 
511730.067,4148527.596,-66.4 
511730.067,4148477.551,-65.9 
511730.067,4148427.507,-65.6 
511730.067,4148377.462,-65.5 
511730.067,4148327.417,-65.4 
511730.067,4148277.372,-65.6 
511730.067,4148227.328,-65.6 
511730.067,4148177.283,-65.5 
511730.067,4148127.238,-65.2 
511730.067,4148077.193,-65.1 
511730.067,4148027.149,-64.8 
511730.067,4147977.104,-64.2 
511730.067,4147927.059,-63.8 
511730.067,4147877.014,-63.8 
511730.067,4147826.970,-64.1 
511730.067,4147776.925,-64.3 
511730.067,4147726.880,-64.5 
511730.067,4147676.835,-64.8 
511730.067,4147626.791,-65.4 
511730.067,4147576.746,-65.3 
511730.067,4147526.701,-64.6 
511730.067,4147476.656,-64 
511730.067,4147426.611,-63.3 
511730.067,4147376.567,-62.8 
511730.067,4147326.522,-62.5 
511730.067,4147276.477,-62 
511730.067,4147226.432,-61.4 
511730.067,4147176.388,-60.9 
511730.067,4147126.343,-60.6 
511730.067,4147076.298,-60.2 
511730.067,4147026.253,-60.1 
511730.067,4146976.209,-60.1 
511730.067,4146926.164,-60 
511730.067,4146876.119,-60 
511730.067,4146826.074,-59.9 
511730.067,4146776.030,-59.8 
511730.067,4146725.985,-59.5 
511730.067,4146675.940,-59.1 
511730.067,4146625.895,-58.6 
511730.067,4146575.850,-58.2 
511730.067,4146525.806,-57.8 
511730.067,4146475.761,-57.3 
511730.067,4146425.716,-57 
511730.067,4146375.671,-56.7 
511730.067,4146325.627,-56.4 
511730.067,4146275.582,-56 
511730.067,4146225.537,-55.7 
511730.067,4146175.492,-55.3 
511730.067,4146125.448,-54.9 
511730.067,4146075.403,-54.6 
511730.067,4146025.358,-54.3 
511730.067,4145975.313,-54.1 
511730.067,4145925.269,-53.8 
511730.067,4145875.224,-53.3 
511730.067,4145825.179,-52.8 
511730.067,4145775.134,-52.3 
511730.067,4145725.090,-51.6 
511780.142,4154683.102,-9.7 
511780.142,4154633.057,-23.8 
511780.142,4154583.013,-33 
511780.142,4154532.968,-34.5 
511780.142,4154482.923,-35.6 
511780.142,4154432.878,-39.7 
511780.142,4154382.833,-50.7 
511780.142,4154332.789,-67.2 
511780.142,4154282.744,-83.4 
511780.142,4154232.699,-94.5 
511780.142,4154182.654,-102.1 
511780.142,4154132.610,-104.5 
511780.142,4154082.565,-105.2 
511780.142,4154032.520,-105 
511780.142,4153982.475,-104.4 
511780.142,4153932.431,-104.2 
511780.142,4153882.386,-103 
511780.142,4153832.341,-100 
511780.142,4153782.296,-95.6 
511780.142,4153732.252,-90.3 
511780.142,4153682.207,-84.9 
511780.142,4153632.162,-81.5 
511780.142,4153582.117,-80.9 
511780.142,4153532.073,-82.3 
511780.142,4153482.028,-83.4 
511780.142,4153431.983,-84 
511780.142,4153381.938,-84.5 
511780.142,4153331.893,-84.7 
511780.142,4153281.849,-84.5 
511780.142,4153231.804,-84.6 
511780.142,4153181.759,-84.5 
511780.142,4153131.714,-84.4 
511780.142,4153081.670,-84.4 
511780.142,4153031.625,-84.4 
511780.142,4152981.580,-84.4 
511780.142,4152931.535,-84.3 
511780.142,4152881.491,-84.4 
511780.142,4152831.446,-84.6 
511780.142,4152781.401,-84.7 
511780.142,4152731.356,-84.8 
511780.142,4152681.312,-84.7 
511780.142,4152631.267,-84.5 
511780.142,4152581.222,-84.5 
511780.142,4152531.177,-84.5 
511780.142,4152481.132,-84.4 
511780.142,4152431.088,-84.1 
511780.142,4152381.043,-83.7 
511780.142,4152330.998,-83.4 
511780.142,4152280.953,-83 
511780.142,4152230.909,-82.5 
511780.142,4152180.864,-82.2 
511780.142,4152130.819,-81.8 
511780.142,4152080.774,-81.6 
511780.142,4152030.730,-81.3 
511780.142,4151980.685,-81 
511780.142,4151930.640,-81 
511780.142,4151880.595,-80.9 
511780.142,4151830.551,-80.5 
511780.142,4151780.506,-80.4 
511780.142,4151730.461,-80.2 
511780.142,4151680.416,-80 
511780.142,4151630.372,-79.8 
511780.142,4151580.327,-79.5 
511780.142,4151530.282,-79.6 
511780.142,4151480.237,-79.6 
511780.142,4151430.192,-79.4 
511780.142,4151380.148,-79.3 
511780.142,4151330.103,-79.4 
511780.142,4151280.058,-79.2 
511780.142,4151230.013,-78.9 
511780.142,4151179.969,-78.7 
511780.142,4151129.924,-78.8 
511780.142,4151079.879,-78.9 
511780.142,4151029.834,-78.9 
511780.142,4150979.790,-78.9 
511780.142,4150929.745,-78.8 
511780.142,4150879.700,-78.6 
511780.142,4150829.655,-78.4 
511780.142,4150779.611,-78.1 
511780.142,4150729.566,-77.9 
511780.142,4150679.521,-78 
511780.142,4150629.476,-77.6 
511780.142,4150579.432,-77.4 
511780.142,4150529.387,-77.7 
511780.142,4150479.342,-77.9 
511780.142,4150429.297,-77.7 
511780.142,4150379.252,-77.6 
511780.142,4150329.208,-77.4 
511780.142,4150279.163,-77.2 
511780.142,4150229.118,-77.3 
511780.142,4150179.073,-76.8 
511780.142,4150129.029,-75.7 
511780.142,4150078.984,-74.9 
511780.142,4150028.939,-74.7 
511780.142,4149978.894,-74.9 
511780.142,4149928.850,-75.9 
511780.142,4149878.805,-76.4 
511780.142,4149828.760,-75.6 
511780.142,4149778.715,-74.7 
511780.142,4149728.671,-74.5 
511780.142,4149678.626,-74.4 
511780.142,4149628.581,-73.5 
511780.142,4149578.536,-72.9 
511780.142,4149528.491,-73 
511780.142,4149478.447,-73.4 
511780.142,4149428.402,-73.5 
511780.142,4149378.357,-72.6 
511780.142,4149328.312,-71.8 
511780.142,4149278.268,-71.8 
511780.142,4149228.223,-71.6 
511780.142,4149178.178,-70.9 
511780.142,4149128.133,-70.1 
511780.142,4149078.089,-69.6 
511780.142,4149028.044,-69 
511780.142,4148977.999,-68.2 
511780.142,4148927.954,-67.8 
511780.142,4148877.910,-67.5 
511780.142,4148827.865,-67.4 
511780.142,4148777.820,-67.6 
511780.142,4148727.775,-67.6 
511780.142,4148677.731,-67.8 
511780.142,4148627.686,-68 
511780.142,4148577.641,-67.8 
511780.142,4148527.596,-67.5 
511780.142,4148477.551,-67 
511780.142,4148427.507,-66.6 
511780.142,4148377.462,-66.5 
511780.142,4148327.417,-66.5 
511780.142,4148277.372,-66.7 
511780.142,4148227.328,-66.8 
511780.142,4148177.283,-66.8 
511780.142,4148127.238,-66.4 
511780.142,4148077.193,-66 
511780.142,4148027.149,-65.6 
511780.142,4147977.104,-64.9 
511780.142,4147927.059,-64.5 
511780.142,4147877.014,-64.6 
511780.142,4147826.970,-64.9 
511780.142,4147776.925,-65.2 
511780.142,4147726.880,-65.6 
511780.142,4147676.835,-66.2 
511780.142,4147626.791,-66.9 
511780.142,4147576.746,-66.8 
511780.142,4147526.701,-66 
511780.142,4147476.656,-65.5 
511780.142,4147426.611,-64.6 
511780.142,4147376.567,-64 
511780.142,4147326.522,-63.7 
511780.142,4147276.477,-63.3 
511780.142,4147226.432,-62.6 
511780.142,4147176.388,-61.9 
511780.142,4147126.343,-61.5 
511780.142,4147076.298,-61.4 
511780.142,4147026.253,-61.4 
511780.142,4146976.209,-61.3 
511780.142,4146926.164,-61.3 
511780.142,4146876.119,-61.4 
511780.142,4146826.074,-61.5 
511780.142,4146776.030,-61.3 
511780.142,4146725.985,-61 
511780.142,4146675.940,-60.6 
511780.142,4146625.895,-60.1 
511780.142,4146575.850,-59.6 
511780.142,4146525.806,-59.1 
511780.142,4146475.761,-58.6 
511780.142,4146425.716,-58.2 
511780.142,4146375.671,-58.1 
511780.142,4146325.627,-57.9 
511780.142,4146275.582,-57.6 
511780.142,4146225.537,-57.5 
511780.142,4146175.492,-57.2 
511780.142,4146125.448,-56.7 
511780.142,4146075.403,-56.3 
511780.142,4146025.358,-55.9 
511780.142,4145975.313,-55.5 
511780.142,4145925.269,-55.2 
511780.142,4145875.224,-54.8 
511780.142,4145825.179,-54.3 
511780.142,4145775.134,-53.8 
511780.142,4145725.090,-53.1 
511830.216,4154683.102,-13.3 
511830.216,4154633.057,-28.9 
511830.216,4154583.013,-35.7 
511830.216,4154532.968,-37.7 
511830.216,4154482.923,-38.8 
511830.216,4154432.878,-43 
511830.216,4154382.833,-54.2 
511830.216,4154332.789,-71.3 
511830.216,4154282.744,-86.3 
511830.216,4154232.699,-96.9 
511830.216,4154182.654,-104.8 
511830.216,4154132.610,-107.8 
511830.216,4154082.565,-108.4 
511830.216,4154032.520,-108.4 
511830.216,4153982.475,-109.5 
511830.216,4153932.431,-109.4 
511830.216,4153882.386,-107.4 
511830.216,4153832.341,-103.6 
511830.216,4153782.296,-97.7 
511830.216,4153732.252,-91 
511830.216,4153682.207,-85.3 
511830.216,4153632.162,-82.4 
511830.216,4153582.117,-82.4 
511830.216,4153532.073,-84.1 
511830.216,4153482.028,-85.2 
511830.216,4153431.983,-85.7 
511830.216,4153381.938,-86.1 
511830.216,4153331.893,-86.3 
511830.216,4153281.849,-86 
511830.216,4153231.804,-86 
511830.216,4153181.759,-85.8 
511830.216,4153131.714,-85.7 
511830.216,4153081.670,-85.7 
511830.216,4153031.625,-85.6 
511830.216,4152981.580,-85.7 
511830.216,4152931.535,-85.8 
511830.216,4152881.491,-86 
511830.216,4152831.446,-86.2 
511830.216,4152781.401,-86.2 
511830.216,4152731.356,-86.4 
511830.216,4152681.312,-86.5 
511830.216,4152631.267,-86 
511830.216,4152581.222,-85.9 
511830.216,4152531.177,-85.8 
511830.216,4152481.132,-85.6 
511830.216,4152431.088,-85.2 
511830.216,4152381.043,-84.8 
511830.216,4152330.998,-84.5 
511830.216,4152280.953,-84 
511830.216,4152230.909,-83.6 
511830.216,4152180.864,-83.3 
511830.216,4152130.819,-83 
511830.216,4152080.774,-82.8 
511830.216,4152030.730,-82.4 
511830.216,4151980.685,-82.1 
511830.216,4151930.640,-82.2 
511830.216,4151880.595,-82.1 
511830.216,4151830.551,-81.6 
511830.216,4151780.506,-81.5 
511830.216,4151730.461,-81.3 
511830.216,4151680.416,-81.1 
511830.216,4151630.372,-81 
511830.216,4151580.327,-80.8 
511830.216,4151530.282,-81 
511830.216,4151480.237,-80.9 
511830.216,4151430.192,-80.8 
511830.216,4151380.148,-80.7 
511830.216,4151330.103,-80.6 
511830.216,4151280.058,-80.3 
511830.216,4151230.013,-79.8 
511830.216,4151179.969,-79.6 
511830.216,4151129.924,-79.8 
511830.216,4151079.879,-79.8 
511830.216,4151029.834,-79.7 
511830.216,4150979.790,-79.9 
511830.216,4150929.745,-79.9 
511830.216,4150879.700,-79.6 
511830.216,4150829.655,-79.5 
511830.216,4150779.611,-79.3 
511830.216,4150729.566,-79.1 
511830.216,4150679.521,-79.2 
511830.216,4150629.476,-78.9 
511830.216,4150579.432,-78.6 
511830.216,4150529.387,-78.9 
511830.216,4150479.342,-79.1 
511830.216,4150429.297,-78.8 
511830.216,4150379.252,-78.6 
511830.216,4150329.208,-78.4 
511830.216,4150279.163,-78.2 
511830.216,4150229.118,-78.4 
511830.216,4150179.073,-77.8 
511830.216,4150129.029,-76.8 
511830.216,4150078.984,-76.2 
511830.216,4150028.939,-76.1 
511830.216,4149978.894,-76.1 
511830.216,4149928.850,-76.7 
511830.216,4149878.805,-77.2 
511830.216,4149828.760,-76.3 
511830.216,4149778.715,-75.5 
511830.216,4149728.671,-75.7 
511830.216,4149678.626,-75.5 
511830.216,4149628.581,-74.7 
511830.216,4149578.536,-74.3 
511830.216,4149528.491,-74.1 
511830.216,4149478.447,-74.7 
511830.216,4149428.402,-74.9 
511830.216,4149378.357,-73.9 
511830.216,4149328.312,-73.2 
511830.216,4149278.268,-73.2 
511830.216,4149228.223,-72.8 
511830.216,4149178.178,-72 
511830.216,4149128.133,-71.5 
511830.216,4149078.089,-71 
511830.216,4149028.044,-70.3 
511830.216,4148977.999,-69.6 
511830.216,4148927.954,-69.1 
511830.216,4148877.910,-68.7 
511830.216,4148827.865,-68.6 
511830.216,4148777.820,-68.7 
511830.216,4148727.775,-68.7 
511830.216,4148677.731,-68.7 
511830.216,4148627.686,-68.8 
511830.216,4148577.641,-68.6 
511830.216,4148527.596,-68.2 
511830.216,4148477.551,-67.5 
511830.216,4148427.507,-67.3 
511830.216,4148377.462,-67.4 
511830.216,4148327.417,-67.4 
511830.216,4148277.372,-67.5 
511830.216,4148227.328,-67.8 
511830.216,4148177.283,-68.1 
511830.216,4148127.238,-67.7 
511830.216,4148077.193,-67.1 
511830.216,4148027.149,-66.7 
511830.216,4147977.104,-65.9 
511830.216,4147927.059,-65.2 
511830.216,4147877.014,-65.4 
511830.216,4147826.970,-65.9 
511830.216,4147776.925,-66.5 
511830.216,4147726.880,-67.1 
511830.216,4147676.835,-67.8 
511830.216,4147626.791,-68.5 
511830.216,4147576.746,-68.3 
511830.216,4147526.701,-67.6 
511830.216,4147476.656,-67 
511830.216,4147426.611,-66.1 
511830.216,4147376.567,-65.5 
511830.216,4147326.522,-65 
511830.216,4147276.477,-64.6 
511830.216,4147226.432,-64.1 
511830.216,4147176.388,-63.4 
511830.216,4147126.343,-62.9 
511830.216,4147076.298,-62.7 
511830.216,4147026.253,-62.6 
511830.216,4146976.209,-62.5 
511830.216,4146926.164,-62.5 
511830.216,4146876.119,-62.6 
511830.216,4146826.074,-62.8 
511830.216,4146776.030,-62.7 
511830.216,4146725.985,-62.4 
511830.216,4146675.940,-62.1 
511830.216,4146625.895,-61.7 
511830.216,4146575.850,-61.2 
511830.216,4146525.806,-60.5 
511830.216,4146475.761,-59.9 
511830.216,4146425.716,-59.5 
511830.216,4146375.671,-59.3 
511830.216,4146325.627,-59.1 
511830.216,4146275.582,-58.9 
511830.216,4146225.537,-58.7 
511830.216,4146175.492,-58.5 
511830.216,4146125.448,-58.2 
511830.216,4146075.403,-57.9 
511830.216,4146025.358,-57.6 
511830.216,4145975.313,-57.2 
511830.216,4145925.269,-56.8 
511830.216,4145875.224,-56.4 
511830.216,4145825.179,-56 
511830.216,4145775.134,-55.4 
511830.216,4145725.090,-54.6 
511880.291,4154733.147,-13 
511880.291,4154683.102,-23 
511880.291,4154633.057,-33.9 
511880.291,4154583.013,-38.1 
511880.291,4154532.968,-41.2 
511880.291,4154482.923,-42.4 
511880.291,4154432.878,-46.6 
511880.291,4154382.833,-56.7 
511880.291,4154332.789,-71.7 
511880.291,4154282.744,-85.6 
511880.291,4154232.699,-97.5 
511880.291,4154182.654,-106.5 
511880.291,4154132.610,-110.5 
511880.291,4154082.565,-111.9 
511880.291,4154032.520,-113.6 
511880.291,4153982.475,-116.1 
511880.291,4153932.431,-116.1 
511880.291,4153882.386,-112.3 
511880.291,4153832.341,-105.9 
511880.291,4153782.296,-98.2 
511880.291,4153732.252,-91.2 
511880.291,4153682.207,-86.2 
511880.291,4153632.162,-84.5 
511880.291,4153582.117,-84.9 
511880.291,4153532.073,-86.4 
511880.291,4153482.028,-87.5 
511880.291,4153431.983,-87.8 
511880.291,4153381.938,-88 
511880.291,4153331.893,-88.1 
511880.291,4153281.849,-87.7 
511880.291,4153231.804,-87.5 
511880.291,4153181.759,-87.4 
511880.291,4153131.714,-87.3 
511880.291,4153081.670,-87.2 
511880.291,4153031.625,-87.3 
511880.291,4152981.580,-87.5 
511880.291,4152931.535,-87.4 
511880.291,4152881.491,-87.5 
511880.291,4152831.446,-87.7 
511880.291,4152781.401,-87.7 
511880.291,4152731.356,-87.8 
511880.291,4152681.312,-87.8 
511880.291,4152631.267,-87.3 
511880.291,4152581.222,-87.2 
511880.291,4152531.177,-87.1 
511880.291,4152481.132,-86.7 
511880.291,4152431.088,-86.3 
511880.291,4152381.043,-85.9 
511880.291,4152330.998,-85.6 
511880.291,4152280.953,-85.1 
511880.291,4152230.909,-84.8 
511880.291,4152180.864,-84.6 
511880.291,4152130.819,-84.3 
511880.291,4152080.774,-84.1 
511880.291,4152030.730,-83.6 
511880.291,4151980.685,-83.4 
511880.291,4151930.640,-83.4 
511880.291,4151880.595,-83.3 
511880.291,4151830.551,-82.8 
511880.291,4151780.506,-82.7 
511880.291,4151730.461,-82.5 
511880.291,4151680.416,-82.4 
511880.291,4151630.372,-82.3 
511880.291,4151580.327,-82 
511880.291,4151530.282,-82 
511880.291,4151480.237,-82 
511880.291,4151430.192,-81.9 
511880.291,4151380.148,-81.8 
511880.291,4151330.103,-81.6 
511880.291,4151280.058,-81.3 
511880.291,4151230.013,-80.8 
511880.291,4151179.969,-80.7 
511880.291,4151129.924,-80.8 
511880.291,4151079.879,-80.6 
511880.291,4151029.834,-80.5 
511880.291,4150979.790,-80.9 
511880.291,4150929.745,-81 
511880.291,4150879.700,-80.5 
511880.291,4150829.655,-80.2 
511880.291,4150779.611,-80.1 
511880.291,4150729.566,-79.8 
511880.291,4150679.521,-79.9 
511880.291,4150629.476,-79.8 
511880.291,4150579.432,-79.5 
511880.291,4150529.387,-79.8 
511880.291,4150479.342,-80 
511880.291,4150429.297,-79.7 
511880.291,4150379.252,-79.5 
511880.291,4150329.208,-79.5 
511880.291,4150279.163,-79.7 
511880.291,4150229.118,-79.7 
511880.291,4150179.073,-79 
511880.291,4150129.029,-78.1 
511880.291,4150078.984,-77.2 
511880.291,4150028.939,-76.9 
511880.291,4149978.894,-76.9 
511880.291,4149928.850,-77.7 
511880.291,4149878.805,-78.4 
511880.291,4149828.760,-77.3 
511880.291,4149778.715,-76.6 
511880.291,4149728.671,-76.7 
511880.291,4149678.626,-76.4 
511880.291,4149628.581,-75.7 
511880.291,4149578.536,-75.3 
511880.291,4149528.491,-75.3 
511880.291,4149478.447,-76 
511880.291,4149428.402,-75.9 
511880.291,4149378.357,-74.7 
511880.291,4149328.312,-74.2 
511880.291,4149278.268,-74.4 
511880.291,4149228.223,-74 
511880.291,4149178.178,-73.1 
511880.291,4149128.133,-72.5 
511880.291,4149078.089,-71.9 
511880.291,4149028.044,-71.2 
511880.291,4148977.999,-70.6 
511880.291,4148927.954,-70.2 
511880.291,4148877.910,-70.1 
511880.291,4148827.865,-70.4 
511880.291,4148777.820,-70.2 
511880.291,4148727.775,-69.9 
511880.291,4148677.731,-69.8 
511880.291,4148627.686,-69.7 
511880.291,4148577.641,-69.5 
511880.291,4148527.596,-69.1 
511880.291,4148477.551,-68.5 
511880.291,4148427.507,-68.2 
511880.291,4148377.462,-68.2 
511880.291,4148327.417,-68.3 
511880.291,4148277.372,-68.6 
511880.291,4148227.328,-69.2 
511880.291,4148177.283,-69.4 
511880.291,4148127.238,-68.8 
511880.291,4148077.193,-68.3 
511880.291,4148027.149,-67.8 
511880.291,4147977.104,-67.2 
511880.291,4147927.059,-66.6 
511880.291,4147877.014,-66.7 
511880.291,4147826.970,-67.2 
511880.291,4147776.925,-68 
511880.291,4147726.880,-68.6 
511880.291,4147676.835,-69.2 
511880.291,4147626.791,-70 
511880.291,4147576.746,-69.8 
511880.291,4147526.701,-69.1 
511880.291,4147476.656,-68.4 
511880.291,4147426.611,-67.3 
511880.291,4147376.567,-67 
511880.291,4147326.522,-66.7 
511880.291,4147276.477,-66.2 
511880.291,4147226.432,-65.5 
511880.291,4147176.388,-64.9 
511880.291,4147126.343,-64.6 
511880.291,4147076.298,-64.4 
511880.291,4147026.253,-64.1 
511880.291,4146976.209,-63.9 
511880.291,4146926.164,-63.9 
511880.291,4146876.119,-64.1 
511880.291,4146826.074,-64.4 
511880.291,4146776.030,-64.2 
511880.291,4146725.985,-63.6 
511880.291,4146675.940,-63.4 
511880.291,4146625.895,-63.2 
511880.291,4146575.850,-62.8 
511880.291,4146525.806,-62 
511880.291,4146475.761,-61.2 
511880.291,4146425.716,-60.8 
511880.291,4146375.671,-60.4 
511880.291,4146325.627,-60.2 
511880.291,4146275.582,-60.1 
511880.291,4146225.537,-59.9 
511880.291,4146175.492,-59.6 
511880.291,4146125.448,-59.3 
511880.291,4146075.403,-59 
511880.291,4146025.358,-58.9 
511880.291,4145975.313,-58.9 
511880.291,4145925.269,-58.7 
511880.291,4145875.224,-58.3 
511880.291,4145825.179,-57.9 
511880.291,4145775.134,-57.2 
511880.291,4145725.090,-56.2 
511930.365,4154783.192,-10.2 
511930.365,4154733.147,-23.8 
511930.365,4154683.102,-34.6 
511930.365,4154633.057,-39.6 
511930.365,4154583.013,-42.1 
511930.365,4154532.968,-43.8 
511930.365,4154482.923,-44.7 
511930.365,4154432.878,-51.4 
511930.365,4154382.833,-60.9 
511930.365,4154332.789,-71.3 
511930.365,4154282.744,-82.7 
511930.365,4154232.699,-95.1 
511930.365,4154182.654,-107 
511930.365,4154132.610,-113.2 
511930.365,4154082.565,-116.6 
511930.365,4154032.520,-120.1 
511930.365,4153982.475,-123.1 
511930.365,4153932.431,-123.5 
511930.365,4153882.386,-117.7 
511930.365,4153832.341,-108.3 
511930.365,4153782.296,-99 
511930.365,4153732.252,-92.6 
511930.365,4153682.207,-88.7 
511930.365,4153632.162,-88.1 
511930.365,4153582.117,-89.1 
511930.365,4153532.073,-90.2 
511930.365,4153482.028,-90.7 
511930.365,4153431.983,-90.6 
511930.365,4153381.938,-90.4 
511930.365,4153331.893,-90.1 
511930.365,4153281.849,-89.5 
511930.365,4153231.804,-89.2 
511930.365,4153181.759,-89.1 
511930.365,4153131.714,-89.2 
511930.365,4153081.670,-89.1 
511930.365,4153031.625,-89.2 
511930.365,4152981.580,-89.2 
511930.365,4152931.535,-89.1 
511930.365,4152881.491,-89.2 
511930.365,4152831.446,-89.2 
511930.365,4152781.401,-89.2 
511930.365,4152731.356,-89.1 
511930.365,4152681.312,-89 
511930.365,4152631.267,-88.7 
511930.365,4152581.222,-88.6 
511930.365,4152531.177,-88.4 
511930.365,4152481.132,-87.8 
511930.365,4152431.088,-87.5 
511930.365,4152381.043,-87.2 
511930.365,4152330.998,-86.9 
511930.365,4152280.953,-86.5 
511930.365,4152230.909,-86.3 
511930.365,4152180.864,-86.1 
511930.365,4152130.819,-85.8 
511930.365,4152080.774,-85.5 
511930.365,4152030.730,-85 
511930.365,4151980.685,-84.6 
511930.365,4151930.640,-84.6 
511930.365,4151880.595,-84.4 
511930.365,4151830.551,-84.1 
511930.365,4151780.506,-84 
511930.365,4151730.461,-83.8 
511930.365,4151680.416,-83.4 
511930.365,4151630.372,-83.3 
511930.365,4151580.327,-83.2 
511930.365,4151530.282,-83.2 
511930.365,4151480.237,-83 
511930.365,4151430.192,-82.9 
511930.365,4151380.148,-82.6 
511930.365,4151330.103,-82.5 
511930.365,4151280.058,-82.3 
511930.365,4151230.013,-82.1 
511930.365,4151179.969,-82.1 
511930.365,4151129.924,-82.2 
511930.365,4151079.879,-81.9 
511930.365,4151029.834,-81.8 
511930.365,4150979.790,-82.1 
511930.365,4150929.745,-82.3 
511930.365,4150879.700,-81.9 
511930.365,4150829.655,-81.5 
511930.365,4150779.611,-81.2 
511930.365,4150729.566,-80.8 
511930.365,4150679.521,-80.7 
511930.365,4150629.476,-80.7 
511930.365,4150579.432,-80.6 
511930.365,4150529.387,-80.9 
511930.365,4150479.342,-81 
511930.365,4150429.297,-80.7 
511930.365,4150379.252,-80.6 
511930.365,4150329.208,-80.6 
511930.365,4150279.163,-80.9 
511930.365,4150229.118,-80.8 
511930.365,4150179.073,-80 
511930.365,4150129.029,-79.2 
511930.365,4150078.984,-78.6 
511930.365,4150028.939,-78.4 
511930.365,4149978.894,-78.6 
511930.365,4149928.850,-79.2 
511930.365,4149878.805,-79.8 
511930.365,4149828.760,-78.6 
511930.365,4149778.715,-77.7 
511930.365,4149728.671,-77.6 
511930.365,4149678.626,-77.2 
511930.365,4149628.581,-76.7 
511930.365,4149578.536,-76.3 
511930.365,4149528.491,-76.4 
511930.365,4149478.447,-77 
511930.365,4149428.402,-76.6 
511930.365,4149378.357,-75.3 
511930.365,4149328.312,-75.2 
511930.365,4149278.268,-75.4 
511930.365,4149228.223,-74.8 
511930.365,4149178.178,-73.8 
511930.365,4149128.133,-73.3 
511930.365,4149078.089,-72.7 
511930.365,4149028.044,-71.9 
511930.365,4148977.999,-71.3 
511930.365,4148927.954,-71 
511930.365,4148877.910,-71 
511930.365,4148827.865,-71.3 
511930.365,4148777.820,-71.2 
511930.365,4148727.775,-71 
511930.365,4148677.731,-71 
511930.365,4148627.686,-70.6 
511930.365,4148577.641,-70.2 
511930.365,4148527.596,-69.9 
511930.365,4148477.551,-69.4 
511930.365,4148427.507,-69.1 
511930.365,4148377.462,-69 
511930.365,4148327.417,-69.3 
511930.365,4148277.372,-69.8 
511930.365,4148227.328,-70.6 
511930.365,4148177.283,-70.8 
511930.365,4148127.238,-70.1 
511930.365,4148077.193,-69.4 
511930.365,4148027.149,-69.1 
511930.365,4147977.104,-68.8 
511930.365,4147927.059,-68.4 
511930.365,4147877.014,-68.1 
511930.365,4147826.970,-68.8 
511930.365,4147776.925,-69.7 
511930.365,4147726.880,-70.1 
511930.365,4147676.835,-70.6 
511930.365,4147626.791,-71.4 
511930.365,4147576.746,-71.3 
511930.365,4147526.701,-70.6 
511930.365,4147476.656,-69.7 
511930.365,4147426.611,-68.5 
511930.365,4147376.567,-68.1 
511930.365,4147326.522,-68 
511930.365,4147276.477,-67.6 
511930.365,4147226.432,-66.9 
511930.365,4147176.388,-66.4 
511930.365,4147126.343,-66 
511930.365,4147076.298,-65.7 
511930.365,4147026.253,-65.5 
511930.365,4146976.209,-65.4 
511930.365,4146926.164,-65.7 
511930.365,4146876.119,-66.2 
511930.365,4146826.074,-66.4 
511930.365,4146776.030,-65.8 
511930.365,4146725.985,-64.9 
511930.365,4146675.940,-64.6 
511930.365,4146625.895,-64.3 
511930.365,4146575.850,-64 
511930.365,4146525.806,-63.4 
511930.365,4146475.761,-62.8 
511930.365,4146425.716,-62.4 
511930.365,4146375.671,-62 
511930.365,4146325.627,-61.7 
511930.365,4146275.582,-61.5 
511930.365,4146225.537,-61.3 
511930.365,4146175.492,-61 
511930.365,4146125.448,-60.8 
511930.365,4146075.403,-60.6 
511930.365,4146025.358,-60.5 
511930.365,4145975.313,-60.6 
511930.365,4145925.269,-60.5 
511930.365,4145875.224,-60.1 
511930.365,4145825.179,-59.6 
511930.365,4145775.134,-58.8 
511930.365,4145725.090,-58 
511980.440,4154833.236,-6.5 
511980.440,4154783.192,-18.3 
511980.440,4154733.147,-34.7 
511980.440,4154683.102,-39.8 
511980.440,4154633.057,-43.5 
511980.440,4154583.013,-46.7 
511980.440,4154532.968,-47.9 
511980.440,4154482.923,-51.2 
511980.440,4154432.878,-61 
511980.440,4154382.833,-66.5 
511980.440,4154332.789,-70.9 
511980.440,4154282.744,-77.9 
511980.440,4154232.699,-87.3 
511980.440,4154182.654,-101 
511980.440,4154132.610,-113.5 
511980.440,4154082.565,-121.8 
511980.440,4154032.520,-127.5 
511980.440,4153982.475,-130.9 
511980.440,4153932.431,-130.6 
511980.440,4153882.386,-122.9 
511980.440,4153832.341,-112.1 
511980.440,4153782.296,-101.8 
511980.440,4153732.252,-96.2 
511980.440,4153682.207,-92.7 
511980.440,4153632.162,-92 
511980.440,4153582.117,-93.6 
511980.440,4153532.073,-95.1 
511980.440,4153482.028,-95.3 
511980.440,4153431.983,-94.7 
511980.440,4153381.938,-93.9 
511980.440,4153331.893,-92.9 
511980.440,4153281.849,-92 
511980.440,4153231.804,-91.4 
511980.440,4153181.759,-91.1 
511980.440,4153131.714,-91 
511980.440,4153081.670,-90.8 
511980.440,4153031.625,-90.6 
511980.440,4152981.580,-90.5 
511980.440,4152931.535,-90.7 
511980.440,4152881.491,-90.7 
511980.440,4152831.446,-90.5 
511980.440,4152781.401,-90.7 
511980.440,4152731.356,-90.4 
511980.440,4152681.312,-90.3 
511980.440,4152631.267,-90.1 
511980.440,4152581.222,-90 
511980.440,4152531.177,-89.8 
511980.440,4152481.132,-89.2 
511980.440,4152431.088,-88.8 
511980.440,4152381.043,-88.5 
511980.440,4152330.998,-88.2 
511980.440,4152280.953,-87.9 
511980.440,4152230.909,-87.8 
511980.440,4152180.864,-87.5 
511980.440,4152130.819,-87.3 
511980.440,4152080.774,-86.8 
511980.440,4152030.730,-86.2 
511980.440,4151980.685,-85.9 
511980.440,4151930.640,-85.9 
511980.440,4151880.595,-85.5 
511980.440,4151830.551,-85.3 
511980.440,4151780.506,-85.2 
511980.440,4151730.461,-84.9 
511980.440,4151680.416,-84.6 
511980.440,4151630.372,-84.2 
511980.440,4151580.327,-84.3 
511980.440,4151530.282,-84.3 
511980.440,4151480.237,-83.9 
511980.440,4151430.192,-83.8 
511980.440,4151380.148,-83.9 
511980.440,4151330.103,-83.8 
511980.440,4151280.058,-83.5 
511980.440,4151230.013,-83.5 
511980.440,4151179.969,-83.4 
511980.440,4151129.924,-83.5 
511980.440,4151079.879,-83.4 
511980.440,4151029.834,-83.2 
511980.440,4150979.790,-83.3 
511980.440,4150929.745,-83.4 
511980.440,4150879.700,-83 
511980.440,4150829.655,-82.8 
511980.440,4150779.611,-82.5 
511980.440,4150729.566,-82.2 
511980.440,4150679.521,-82.1 
511980.440,4150629.476,-81.8 
511980.440,4150579.432,-81.6 
511980.440,4150529.387,-81.9 
511980.440,4150479.342,-82.2 
511980.440,4150429.297,-81.8 
511980.440,4150379.252,-81.6 
511980.440,4150329.208,-81.6 
511980.440,4150279.163,-82 
511980.440,4150229.118,-81.8 
511980.440,4150179.073,-80.9 
511980.440,4150129.029,-80.2 
511980.440,4150078.984,-79.9 
511980.440,4150028.939,-79.9 
511980.440,4149978.894,-80 
511980.440,4149928.850,-80.6 
511980.440,4149878.805,-81 
511980.440,4149828.760,-80.1 
511980.440,4149778.715,-78.9 
511980.440,4149728.671,-78.6 
511980.440,4149678.626,-78.3 
511980.440,4149628.581,-77.8 
511980.440,4149578.536,-77.5 
511980.440,4149528.491,-77.8 
511980.440,4149478.447,-78.1 
511980.440,4149428.402,-77.3 
511980.440,4149378.357,-76.3 
511980.440,4149328.312,-76.3 
511980.440,4149278.268,-76.7 
511980.440,4149228.223,-76.1 
511980.440,4149178.178,-74.7 
511980.440,4149128.133,-74.3 
511980.440,4149078.089,-73.8 
511980.440,4149028.044,-73.2 
511980.440,4148977.999,-72.6 
511980.440,4148927.954,-72.3 
511980.440,4148877.910,-72.4 
511980.440,4148827.865,-72.2 
511980.440,4148777.820,-71.8 
511980.440,4148727.775,-71.9 
511980.440,4148677.731,-72 
511980.440,4148627.686,-71.6 
511980.440,4148577.641,-71.2 
511980.440,4148527.596,-70.8 
511980.440,4148477.551,-70.1 
511980.440,4148427.507,-69.9 
511980.440,4148377.462,-69.9 
511980.440,4148327.417,-70.3 
511980.440,4148277.372,-71.2 
511980.440,4148227.328,-72 
511980.440,4148177.283,-72.2 
511980.440,4148127.238,-71.2 
511980.440,4148077.193,-70.1 
511980.440,4148027.149,-69.9 
511980.440,4147977.104,-69.9 
511980.440,4147927.059,-69.8 
511980.440,4147877.014,-69.8 
511980.440,4147826.970,-70.4 
511980.440,4147776.925,-71.2 
511980.440,4147726.880,-71.6 
511980.440,4147676.835,-71.9 
511980.440,4147626.791,-72.7 
511980.440,4147576.746,-72.8 
511980.440,4147526.701,-72.3 
511980.440,4147476.656,-71.5 
511980.440,4147426.611,-70.1 
511980.440,4147376.567,-69.4 
511980.440,4147326.522,-69.2 
511980.440,4147276.477,-68.8 
511980.440,4147226.432,-68.1 
511980.440,4147176.388,-67.3 
511980.440,4147126.343,-66.8 
511980.440,4147076.298,-66.5 
511980.440,4147026.253,-66.4 
511980.440,4146976.209,-66.7 
511980.440,4146926.164,-67.3 
511980.440,4146876.119,-68.1 
511980.440,4146826.074,-68.5 
511980.440,4146776.030,-67.9 
511980.440,4146725.985,-67.1 
511980.440,4146675.940,-66.5 
511980.440,4146625.895,-65.9 
511980.440,4146575.850,-65.2 
511980.440,4146525.806,-64.5 
511980.440,4146475.761,-63.9 
511980.440,4146425.716,-63.6 
511980.440,4146375.671,-63.4 
511980.440,4146325.627,-63.2 
511980.440,4146275.582,-63.1 
511980.440,4146225.537,-63.1 
511980.440,4146175.492,-62.9 
511980.440,4146125.448,-62.6 
511980.440,4146075.403,-62.1 
511980.440,4146025.358,-62 
511980.440,4145975.313,-62.1 
511980.440,4145925.269,-62 
511980.440,4145875.224,-61.7 
511980.440,4145825.179,-61.2 
511980.440,4145775.134,-60.5 
511980.440,4145725.090,-59.6 
512030.514,4154833.236,-15.2 
512030.514,4154783.192,-30.7 
512030.514,4154733.147,-39 
512030.514,4154683.102,-43.1 
512030.514,4154633.057,-48.8 
512030.514,4154583.013,-52.4 
512030.514,4154532.968,-56.7 
512030.514,4154482.923,-66 
512030.514,4154432.878,-71.1 
512030.514,4154382.833,-72.4 
512030.514,4154332.789,-75.6 
512030.514,4154282.744,-82.6 
512030.514,4154232.699,-89.5 
512030.514,4154182.654,-98.7 
512030.514,4154132.610,-112.6 
512030.514,4154082.565,-125.8 
512030.514,4154032.520,-134.4 
512030.514,4153982.475,-139.3 
512030.514,4153932.431,-137.6 
512030.514,4153882.386,-127.8 
512030.514,4153832.341,-116 
512030.514,4153782.296,-104.7 
512030.514,4153732.252,-99.2 
512030.514,4153682.207,-96.8 
512030.514,4153632.162,-95.9 
512030.514,4153582.117,-97.9 
512030.514,4153532.073,-100.3 
512030.514,4153482.028,-100.3 
512030.514,4153431.983,-99.4 
512030.514,4153381.938,-97.8 
512030.514,4153331.893,-96 
512030.514,4153281.849,-94.6 
512030.514,4153231.804,-93.8 
512030.514,4153181.759,-93.2 
512030.514,4153131.714,-92.7 
512030.514,4153081.670,-92.4 
512030.514,4153031.625,-92.2 
512030.514,4152981.580,-92.1 
512030.514,4152931.535,-92.3 
512030.514,4152881.491,-92.3 
512030.514,4152831.446,-92.1 
512030.514,4152781.401,-92.1 
512030.514,4152731.356,-92 
512030.514,4152681.312,-91.8 
512030.514,4152631.267,-91.6 
512030.514,4152581.222,-91.5 
512030.514,4152531.177,-91.2 
512030.514,4152481.132,-90.6 
512030.514,4152431.088,-90.4 
512030.514,4152381.043,-90.2 
512030.514,4152330.998,-89.8 
512030.514,4152280.953,-89.5 
512030.514,4152230.909,-89.3 
512030.514,4152180.864,-88.9 
512030.514,4152130.819,-88.6 
512030.514,4152080.774,-88 
512030.514,4152030.730,-87.4 
512030.514,4151980.685,-87.3 
512030.514,4151930.640,-87.2 
512030.514,4151880.595,-86.6 
512030.514,4151830.551,-86.5 
512030.514,4151780.506,-86.5 
512030.514,4151730.461,-86 
512030.514,4151680.416,-85.7 
512030.514,4151630.372,-85.4 
512030.514,4151580.327,-85.4 
512030.514,4151530.282,-85.3 
512030.514,4151480.237,-84.9 
512030.514,4151430.192,-84.8 
512030.514,4151380.148,-84.9 
512030.514,4151330.103,-85 
512030.514,4151280.058,-84.7 
512030.514,4151230.013,-84.6 
512030.514,4151179.969,-84.5 
512030.514,4151129.924,-84.7 
512030.514,4151079.879,-84.6 
512030.514,4151029.834,-84.3 
512030.514,4150979.790,-84.4 
512030.514,4150929.745,-84.4 
512030.514,4150879.700,-83.9 
512030.514,4150829.655,-83.8 
512030.514,4150779.611,-83.6 
512030.514,4150729.566,-83.4 
512030.514,4150679.521,-83.4 
512030.514,4150629.476,-83.4 
512030.514,4150579.432,-83 
512030.514,4150529.387,-83 
512030.514,4150479.342,-83.2 
512030.514,4150429.297,-83.1 
512030.514,4150379.252,-83 
512030.514,4150329.208,-83 
512030.514,4150279.163,-83.2 
512030.514,4150229.118,-82.8 
512030.514,4150179.073,-82.1 
512030.514,4150129.029,-81.4 
512030.514,4150078.984,-81 
512030.514,4150028.939,-81 
512030.514,4149978.894,-81 
512030.514,4149928.850,-81.5 
512030.514,4149878.805,-82 
512030.514,4149828.760,-81.1 
512030.514,4149778.715,-79.9 
512030.514,4149728.671,-79.5 
512030.514,4149678.626,-79.1 
512030.514,4149628.581,-78.8 
512030.514,4149578.536,-78.7 
512030.514,4149528.491,-79.4 
512030.514,4149478.447,-79.5 
512030.514,4149428.402,-78.1 
512030.514,4149378.357,-77.5 
512030.514,4149328.312,-77.7 
512030.514,4149278.268,-78.1 
512030.514,4149228.223,-77.3 
512030.514,4149178.178,-76.1 
512030.514,4149128.133,-75.6 
512030.514,4149078.089,-75 
512030.514,4149028.044,-74.5 
512030.514,4148977.999,-74.1 
512030.514,4148927.954,-73.8 
512030.514,4148877.910,-73.8 
512030.514,4148827.865,-73.4 
512030.514,4148777.820,-73 
512030.514,4148727.775,-73 
512030.514,4148677.731,-72.9 
512030.514,4148627.686,-72.5 
512030.514,4148577.641,-71.9 
512030.514,4148527.596,-71.4 
512030.514,4148477.551,-71.1 
512030.514,4148427.507,-71 
512030.514,4148377.462,-70.9 
512030.514,4148327.417,-71.1 
512030.514,4148277.372,-71.9 
512030.514,4148227.328,-73 
512030.514,4148177.283,-73.3 
512030.514,4148127.238,-72.3 
512030.514,4148077.193,-71.3 
512030.514,4148027.149,-71 
512030.514,4147977.104,-70.9 
512030.514,4147927.059,-70.9 
512030.514,4147877.014,-71.3 
512030.514,4147826.970,-71.8 
512030.514,4147776.925,-72.3 
512030.514,4147726.880,-72.7 
512030.514,4147676.835,-73.3 
512030.514,4147626.791,-74.2 
512030.514,4147576.746,-74.5 
512030.514,4147526.701,-74 
512030.514,4147476.656,-73.3 
512030.514,4147426.611,-72 
512030.514,4147376.567,-71.5 
512030.514,4147326.522,-70.9 
512030.514,4147276.477,-70 
512030.514,4147226.432,-69.1 
512030.514,4147176.388,-68.4 
512030.514,4147126.343,-68 
512030.514,4147076.298,-67.7 
512030.514,4147026.253,-67.5 
512030.514,4146976.209,-67.8 
512030.514,4146926.164,-68.6 
512030.514,4146876.119,-69.7 
512030.514,4146826.074,-70.2 
512030.514,4146776.030,-69.8 
512030.514,4146725.985,-69.2 
512030.514,4146675.940,-68.7 
512030.514,4146625.895,-67.8 
512030.514,4146575.850,-66.7 
512030.514,4146525.806,-65.9 
512030.514,4146475.761,-65.3 
512030.514,4146425.716,-64.9 
512030.514,4146375.671,-64.6 
512030.514,4146325.627,-64.5 
512030.514,4146275.582,-64.6 
512030.514,4146225.537,-64.7 
512030.514,4146175.492,-64.7 
512030.514,4146125.448,-64.4 
512030.514,4146075.403,-63.9 
512030.514,4146025.358,-63.8 
512030.514,4145975.313,-63.7 
512030.514,4145925.269,-63.6 
512030.514,4145875.224,-63.4 
512030.514,4145825.179,-62.9 
512030.514,4145775.134,-62.1 
512030.514,4145725.090,-61.2 
512080.589,4154833.236,-20.7 
512080.589,4154783.192,-37.4 
512080.589,4154733.147,-40.8 
512080.589,4154683.102,-46.4 
512080.589,4154633.057,-54.4 
512080.589,4154583.013,-61.2 
512080.589,4154532.968,-69.5 
512080.589,4154482.923,-78.6 
512080.589,4154432.878,-81 
512080.589,4154382.833,-84.3 
512080.589,4154332.789,-90.7 
512080.589,4154282.744,-97.5 
512080.589,4154232.699,-103.9 
512080.589,4154182.654,-111.2 
512080.589,4154132.610,-120.7 
512080.589,4154082.565,-133.8 
512080.589,4154032.520,-145.4 
512080.589,4153982.475,-148.8 
512080.589,4153932.431,-145.7 
512080.589,4153882.386,-135 
512080.589,4153832.341,-122.2 
512080.589,4153782.296,-110.2 
512080.589,4153732.252,-105 
512080.589,4153682.207,-103.9 
512080.589,4153632.162,-103.5 
512080.589,4153582.117,-104.1 
512080.589,4153532.073,-105.1 
512080.589,4153482.028,-104.3 
512080.589,4153431.983,-103 
512080.589,4153381.938,-101.6 
512080.589,4153331.893,-99.6 
512080.589,4153281.849,-97.7 
512080.589,4153231.804,-96.4 
512080.589,4153181.759,-95.6 
512080.589,4153131.714,-94.9 
512080.589,4153081.670,-94.3 
512080.589,4153031.625,-94.1 
512080.589,4152981.580,-93.9 
512080.589,4152931.535,-93.9 
512080.589,4152881.491,-94 
512080.589,4152831.446,-93.8 
512080.589,4152781.401,-93.6 
512080.589,4152731.356,-93.6 
512080.589,4152681.312,-93.4 
512080.589,4152631.267,-93.2 
512080.589,4152581.222,-93 
512080.589,4152531.177,-92.7 
512080.589,4152481.132,-92.3 
512080.589,4152431.088,-92.1 
512080.589,4152381.043,-91.9 
512080.589,4152330.998,-91.5 
512080.589,4152280.953,-91.4 
512080.589,4152230.909,-91.2 
512080.589,4152180.864,-90.6 
512080.589,4152130.819,-90.1 
512080.589,4152080.774,-89.6 
512080.589,4152030.730,-89.1 
512080.589,4151980.685,-89 
512080.589,4151930.640,-88.6 
512080.589,4151880.595,-87.7 
512080.589,4151830.551,-87.6 
512080.589,4151780.506,-87.6 
512080.589,4151730.461,-87.1 
512080.589,4151680.416,-86.7 
512080.589,4151630.372,-86.4 
512080.589,4151580.327,-86.5 
512080.589,4151530.282,-86.4 
512080.589,4151480.237,-86 
512080.589,4151430.192,-85.8 
512080.589,4151380.148,-85.8 
512080.589,4151330.103,-86 
512080.589,4151280.058,-85.7 
512080.589,4151230.013,-85.5 
512080.589,4151179.969,-85.4 
512080.589,4151129.924,-85.6 
512080.589,4151079.879,-85.3 
512080.589,4151029.834,-85.2 
512080.589,4150979.790,-85.4 
512080.589,4150929.745,-85.5 
512080.589,4150879.700,-85 
512080.589,4150829.655,-84.8 
512080.589,4150779.611,-84.4 
512080.589,4150729.566,-84.1 
512080.589,4150679.521,-84.4 
512080.589,4150629.476,-84.6 
512080.589,4150579.432,-84.3 
512080.589,4150529.387,-84 
512080.589,4150479.342,-84 
512080.589,4150429.297,-84.1 
512080.589,4150379.252,-84.2 
512080.589,4150329.208,-84.4 
512080.589,4150279.163,-84.5 
512080.589,4150229.118,-83.7 
512080.589,4150179.073,-83.1 
512080.589,4150129.029,-82.7 
512080.589,4150078.984,-82.5 
512080.589,4150028.939,-82.4 
512080.589,4149978.894,-82.2 
512080.589,4149928.850,-82.4 
512080.589,4149878.805,-82.9 
512080.589,4149828.760,-82.1 
512080.589,4149778.715,-81 
512080.589,4149728.671,-80.5 
512080.589,4149678.626,-79.9 
512080.589,4149628.581,-79.7 
512080.589,4149578.536,-79.8 
512080.589,4149528.491,-80.9 
512080.589,4149478.447,-80.8 
512080.589,4149428.402,-78.9 
512080.589,4149378.357,-78.5 
512080.589,4149328.312,-79.2 
512080.589,4149278.268,-79.7 
512080.589,4149228.223,-78.9 
512080.589,4149178.178,-77.9 
512080.589,4149128.133,-77 
512080.589,4149078.089,-76.5 
512080.589,4149028.044,-76 
512080.589,4148977.999,-75.6 
512080.589,4148927.954,-75.5 
512080.589,4148877.910,-75.6 
512080.589,4148827.865,-75.2 
512080.589,4148777.820,-74.5 
512080.589,4148727.775,-74.1 
512080.589,4148677.731,-73.9 
512080.589,4148627.686,-74.1 
512080.589,4148577.641,-73.8 
512080.589,4148527.596,-72.9 
512080.589,4148477.551,-72.5 
512080.589,4148427.507,-72 
512080.589,4148377.462,-71.7 
512080.589,4148327.417,-71.8 
512080.589,4148277.372,-72.5 
512080.589,4148227.328,-73.7 
512080.589,4148177.283,-74.3 
512080.589,4148127.238,-73.6 
512080.589,4148077.193,-73 
512080.589,4148027.149,-72.8 
512080.589,4147977.104,-72.6 
512080.589,4147927.059,-72.5 
512080.589,4147877.014,-72.6 
512080.589,4147826.970,-73 
512080.589,4147776.925,-73.7 
512080.589,4147726.880,-74.4 
512080.589,4147676.835,-74.8 
512080.589,4147626.791,-76.1 
512080.589,4147576.746,-76.7 
512080.589,4147526.701,-75.8 
512080.589,4147476.656,-74.6 
512080.589,4147426.611,-73.3 
512080.589,4147376.567,-73 
512080.589,4147326.522,-72.4 
512080.589,4147276.477,-71.3 
512080.589,4147226.432,-70.3 
512080.589,4147176.388,-69.8 
512080.589,4147126.343,-69.6 
512080.589,4147076.298,-69.2 
512080.589,4147026.253,-68.8 
512080.589,4146976.209,-68.9 
512080.589,4146926.164,-69.7 
512080.589,4146876.119,-71 
512080.589,4146826.074,-71.6 
512080.589,4146776.030,-71.1 
512080.589,4146725.985,-70.6 
512080.589,4146675.940,-70.2 
512080.589,4146625.895,-69.4 
512080.589,4146575.850,-68.1 
512080.589,4146525.806,-67.3 
512080.589,4146475.761,-66.8 
512080.589,4146425.716,-66.7 
512080.589,4146375.671,-66.6 
512080.589,4146325.627,-66.3 
512080.589,4146275.582,-66.1 
512080.589,4146225.537,-66.1 
512080.589,4146175.492,-66.1 
512080.589,4146125.448,-65.9 
512080.589,4146075.403,-65.7 
512080.589,4146025.358,-65.7 
512080.589,4145975.313,-65.8 
512080.589,4145925.269,-65.8 
512080.589,4145875.224,-65.6 
512080.589,4145825.179,-64.9 
512080.589,4145775.134,-64 
512080.589,4145725.090,-62.9 
512130.663,4154883.281,-5.8 
512130.663,4154833.236,-20.2 
512130.663,4154783.192,-38.5 
512130.663,4154733.147,-41.9 
512130.663,4154683.102,-48.1 
512130.663,4154633.057,-58 
512130.663,4154583.013,-68 
512130.663,4154532.968,-79 
512130.663,4154482.923,-88.9 
512130.663,4154432.878,-95.5 
512130.663,4154382.833,-102 
512130.663,4154332.789,-110.1 
512130.663,4154282.744,-116 
512130.663,4154232.699,-120.6 
512130.663,4154182.654,-127 
512130.663,4154132.610,-135.4 
512130.663,4154082.565,-149.2 
512130.663,4154032.520,-158.5 
512130.663,4153982.475,-161.1 
512130.663,4153932.431,-156 
512130.663,4153882.386,-144.3 
512130.663,4153832.341,-129.9 
512130.663,4153782.296,-119.7 
512130.663,4153732.252,-114.9 
512130.663,4153682.207,-113.4 
512130.663,4153632.162,-112 
512130.663,4153582.117,-111 
512130.663,4153532.073,-109.8 
512130.663,4153482.028,-107.6 
512130.663,4153431.983,-106.2 
512130.663,4153381.938,-105.5 
512130.663,4153331.893,-104.1 
512130.663,4153281.849,-101.5 
512130.663,4153231.804,-99.3 
512130.663,4153181.759,-98.1 
512130.663,4153131.714,-97.1 
512130.663,4153081.670,-96.3 
512130.663,4153031.625,-96 
512130.663,4152981.580,-95.8 
512130.663,4152931.535,-95.5 
512130.663,4152881.491,-95.6 
512130.663,4152831.446,-95.5 
512130.663,4152781.401,-95.3 
512130.663,4152731.356,-95.1 
512130.663,4152681.312,-95.1 
512130.663,4152631.267,-94.9 
512130.663,4152581.222,-94.7 
512130.663,4152531.177,-94.6 
512130.663,4152481.132,-94.3 
512130.663,4152431.088,-94.1 
512130.663,4152381.043,-94 
512130.663,4152330.998,-93.6 
512130.663,4152280.953,-93.4 
512130.663,4152230.909,-93.1 
512130.663,4152180.864,-92.5 
512130.663,4152130.819,-91.8 
512130.663,4152080.774,-91 
512130.663,4152030.730,-90.7 
512130.663,4151980.685,-90.5 
512130.663,4151930.640,-89.8 
512130.663,4151880.595,-89 
512130.663,4151830.551,-89 
512130.663,4151780.506,-88.8 
512130.663,4151730.461,-88.5 
512130.663,4151680.416,-88.1 
512130.663,4151630.372,-87.6 
512130.663,4151580.327,-87.6 
512130.663,4151530.282,-87.5 
512130.663,4151480.237,-87.1 
512130.663,4151430.192,-86.9 
512130.663,4151380.148,-86.9 
512130.663,4151330.103,-87 
512130.663,4151280.058,-86.8 
512130.663,4151230.013,-86.7 
512130.663,4151179.969,-86.6 
512130.663,4151129.924,-86.6 
512130.663,4151079.879,-86.3 
512130.663,4151029.834,-86.1 
512130.663,4150979.790,-86.4 
512130.663,4150929.745,-86.6 
512130.663,4150879.700,-86.3 
512130.663,4150829.655,-86.1 
512130.663,4150779.611,-85.4 
512130.663,4150729.566,-85.1 
512130.663,4150679.521,-85.4 
512130.663,4150629.476,-85.5 
512130.663,4150579.432,-85.1 
512130.663,4150529.387,-84.8 
512130.663,4150479.342,-84.9 
512130.663,4150429.297,-85.1 
512130.663,4150379.252,-85.3 
512130.663,4150329.208,-85.6 
512130.663,4150279.163,-85.7 
512130.663,4150229.118,-84.6 
512130.663,4150179.073,-84 
512130.663,4150129.029,-83.7 
512130.663,4150078.984,-83.5 
512130.663,4150028.939,-83.4 
512130.663,4149978.894,-83.4 
512130.663,4149928.850,-83.5 
512130.663,4149878.805,-83.9 
512130.663,4149828.760,-83.3 
512130.663,4149778.715,-82.4 
512130.663,4149728.671,-81.9 
512130.663,4149678.626,-81.1 
512130.663,4149628.581,-80.9 
512130.663,4149578.536,-81.2 
512130.663,4149528.491,-82.1 
512130.663,4149478.447,-81.7 
512130.663,4149428.402,-80.1 
512130.663,4149378.357,-79.8 
512130.663,4149328.312,-80.6 
512130.663,4149278.268,-81 
512130.663,4149228.223,-80.1 
512130.663,4149178.178,-79.2 
512130.663,4149128.133,-78.6 
512130.663,4149078.089,-78 
512130.663,4149028.044,-77.3 
512130.663,4148977.999,-77.2 
512130.663,4148927.954,-77.4 
512130.663,4148877.910,-77.1 
512130.663,4148827.865,-76.4 
512130.663,4148777.820,-75.3 
512130.663,4148727.775,-74.8 
512130.663,4148677.731,-74.6 
512130.663,4148627.686,-74.8 
512130.663,4148577.641,-74.8 
512130.663,4148527.596,-74.2 
512130.663,4148477.551,-73.7 
512130.663,4148427.507,-73.1 
512130.663,4148377.462,-72.9 
512130.663,4148327.417,-73.2 
512130.663,4148277.372,-73.8 
512130.663,4148227.328,-74.6 
512130.663,4148177.283,-75 
512130.663,4148127.238,-74.8 
512130.663,4148077.193,-74.6 
512130.663,4148027.149,-74.4 
512130.663,4147977.104,-74.2 
512130.663,4147927.059,-74 
512130.663,4147877.014,-74.1 
512130.663,4147826.970,-74.7 
512130.663,4147776.925,-75.4 
512130.663,4147726.880,-76 
512130.663,4147676.835,-76.2 
512130.663,4147626.791,-77.7 
512130.663,4147576.746,-78.7 
512130.663,4147526.701,-77.5 
512130.663,4147476.656,-75.8 
512130.663,4147426.611,-74.5 
512130.663,4147376.567,-74.4 
512130.663,4147326.522,-73.7 
512130.663,4147276.477,-72.5 
512130.663,4147226.432,-71.7 
512130.663,4147176.388,-71.2 
512130.663,4147126.343,-71 
512130.663,4147076.298,-70.4 
512130.663,4147026.253,-69.8 
512130.663,4146976.209,-69.8 
512130.663,4146926.164,-70.8 
512130.663,4146876.119,-72.3 
512130.663,4146826.074,-73 
512130.663,4146776.030,-72.6 
512130.663,4146725.985,-72.1 
512130.663,4146675.940,-71.8 
512130.663,4146625.895,-71 
512130.663,4146575.850,-69.5 
512130.663,4146525.806,-68.5 
512130.663,4146475.761,-68.1 
512130.663,4146425.716,-68 
512130.663,4146375.671,-68.1 
512130.663,4146325.627,-67.9 
512130.663,4146275.582,-67.7 
512130.663,4146225.537,-67.5 
512130.663,4146175.492,-67.3 
512130.663,4146125.448,-67.1 
512130.663,4146075.403,-67 
512130.663,4146025.358,-67.4 
512130.663,4145975.313,-67.9 
512130.663,4145925.269,-68.2 
512130.663,4145875.224,-68 
512130.663,4145825.179,-67.1 
512130.663,4145775.134,-66.1 
512130.663,4145725.090,-65.1 
512180.738,4154883.281,-6.7 
512180.738,4154833.236,-18.2 
512180.738,4154783.192,-35.1 
512180.738,4154733.147,-40.4 
512180.738,4154683.102,-47.5 
512180.738,4154633.057,-59.5 
512180.738,4154583.013,-70.1 
512180.738,4154532.968,-82.9 
512180.738,4154482.923,-97.2 
512180.738,4154432.878,-108 
512180.738,4154382.833,-117.1 
512180.738,4154332.789,-126.3 
512180.738,4154282.744,-131.6 
512180.738,4154232.699,-133.8 
512180.738,4154182.654,-134.3 
512180.738,4154132.610,-141.5 
512180.738,4154082.565,-157 
512180.738,4154032.520,-165.2 
512180.738,4153982.475,-169.3 
512180.738,4153932.431,-166 
