532417.751,4242661.001,-652.208
532417.751,4242561.001,-643.669
532417.751,4242461.001,-635.386
532417.751,4242361.001,-626.086
532417.751,4242261.001,-614.902
532417.751,4242161.001,-607.330
532417.751,4242061.001,-600.301
532417.751,4241961.001,-591.502
532417.751,4241861.001,-580.148
532417.751,4241761.001,-577.628
532417.751,4241661.001,-574.365
532417.751,4241561.001,-567.030
532417.751,4241461.001,-559.508
532417.751,4241361.001,-554.524
532417.751,4241261.001,-548.681
532417.751,4241161.001,-547.104
532417.751,4241061.001,-551.324
532417.751,4240961.001,-548.683
532417.751,4240861.001,-546.629
532417.751,4240761.001,-548.327
532417.751,4240661.001,-557.733
532417.751,4240561.001,-577.908
532417.751,4240461.001,-595.278
532417.751,4240361.001,-591.421
532417.751,4240261.001,-595.956
532417.751,4240161.001,-601.351
532417.751,4240061.001,-602.422
532417.751,4239961.001,-605.806
532417.751,4239861.001,-628.105
532417.751,4239761.001,-669.191
532417.751,4239661.001,-676.782
532417.751,4239561.001,-679.487
532417.751,4239461.001,-671.691
532417.751,4239361.001,-660.208
532417.751,4239261.001,-630.883
532417.751,4239161.001,-579.972
532417.751,4239061.001,-534.335
532417.751,4238961.001,-519.719
532417.751,4238861.001,-509.814
532417.751,4238761.001,-487.175
532417.751,4238661.001,-479.617
532417.751,4238561.001,-474.944
532417.751,4238461.001,-473.881
532417.751,4238361.001,-472.136
532417.751,4238261.001,-468.501
532417.751,4238161.001,-475.647
532417.751,4238061.001,-479.415
532417.751,4237961.001,-477.999
532417.751,4237861.001,-471.050
532417.751,4237761.001,-468.944
532417.751,4237661.001,-467.175
532417.751,4237561.001,-465.335
532417.751,4237461.001,-460.609
532417.751,4237361.001,-454.257
532417.751,4237261.001,-446.225
532417.751,4237161.001,-438.899
532417.751,4237061.001,-429.531
532417.751,4236961.001,-414.823
532417.751,4236861.001,-398.017
532417.751,4236761.001,-377.210
532417.751,4236661.001,-360.037
532417.751,4236561.001,-349.033
532417.751,4236461.001,-337.208
532417.751,4236361.001,-327.616
532417.751,4236261.001,-316.827
532417.751,4236161.001,-301.727
532417.751,4236061.001,-289.196
532417.751,4235961.001,-278.210
532417.751,4235861.001,-272.251
532417.751,4235761.001,-260.090
532417.751,4235661.001,-245.219
532417.751,4235561.001,-229.869
532417.751,4235461.001,-214.876
532417.751,4235361.001,-200.137
532417.751,4235261.001,-185.274
532417.751,4235161.001,-169.874
532417.751,4235061.001,-154.532
532417.751,4234961.001,-138.082
532417.751,4234861.001,-124.101
532517.751,4244161.001,-797.677
532517.751,4244061.001,-792.516
532517.751,4243961.001,-786.902
532517.751,4243861.001,-781.373
532517.751,4243761.001,-774.133
532517.751,4243661.001,-768.524
532517.751,4243561.001,-761.905
532517.751,4243461.001,-754.964
532517.751,4243361.001,-747.429
532517.751,4243261.001,-737.972
532517.751,4243161.001,-731.196
532517.751,4243061.001,-724.675
532517.751,4242961.001,-717.881
532517.751,4242861.001,-695.729
532517.751,4242761.001,-672.209
532517.751,4242661.001,-653.539
532517.751,4242561.001,-645.779
532517.751,4242461.001,-636.083
532517.751,4242361.001,-626.650
532517.751,4242261.001,-616.669
532517.751,4242161.001,-607.023
532517.751,4242061.001,-598.682
532517.751,4241961.001,-589.983
532517.751,4241861.001,-584.880
532517.751,4241761.001,-582.584
532517.751,4241661.001,-579.529
532517.751,4241561.001,-571.989
532517.751,4241461.001,-563.419
532517.751,4241361.001,-556.841
532517.751,4241261.001,-547.402
532517.751,4241161.001,-542.311
532517.751,4241061.001,-546.109
532517.751,4240961.001,-546.787
532517.751,4240861.001,-544.564
532517.751,4240761.001,-543.049
532517.751,4240661.001,-541.674
532517.751,4240561.001,-551.956
532517.751,4240461.001,-564.743
532517.751,4240361.001,-574.441
532517.751,4240261.001,-581.407
532517.751,4240161.001,-583.850
532517.751,4240061.001,-585.918
532517.751,4239961.001,-594.275
532517.751,4239861.001,-617.558
532517.751,4239761.001,-661.104
532517.751,4239661.001,-672.939
532517.751,4239561.001,-676.016
532517.751,4239461.001,-669.675
532517.751,4239361.001,-655.394
532517.751,4239261.001,-636.230
532517.751,4239161.001,-593.038
532517.751,4239061.001,-549.566
532517.751,4238961.001,-525.789
532517.751,4238861.001,-507.306
532517.751,4238761.001,-478.919
532517.751,4238661.001,-474.074
532517.751,4238561.001,-466.929
532517.751,4238461.001,-465.205
532517.751,4238361.001,-466.254
532517.751,4238261.001,-464.607
532517.751,4238161.001,-474.513
532517.751,4238061.001,-475.748
532517.751,4237961.001,-476.330
532517.751,4237861.001,-473.346
532517.751,4237761.001,-468.231
532517.751,4237661.001,-463.841
532517.751,4237561.001,-461.350
532517.751,4237461.001,-458.598
532517.751,4237361.001,-448.013
532517.751,4237261.001,-446.059
532517.751,4237161.001,-441.225
532517.751,4237061.001,-435.175
532517.751,4236961.001,-426.498
532517.751,4236861.001,-416.774
532517.751,4236761.001,-396.089
532517.751,4236661.001,-375.012
532517.751,4236561.001,-353.762
532517.751,4236461.001,-336.257
532517.751,4236361.001,-322.382
532517.751,4236261.001,-309.071
532517.751,4236161.001,-296.466
532517.751,4236061.001,-285.291
532517.751,4235961.001,-282.993
532517.751,4235861.001,-272.309
532517.751,4235761.001,-258.991
532517.751,4235661.001,-244.004
532517.751,4235561.001,-229.117
532517.751,4235461.001,-213.927
532517.751,4235361.001,-198.964
532517.751,4235261.001,-183.949
532517.751,4235161.001,-168.847
532517.751,4235061.001,-154.129
532517.751,4234961.001,-136.574
532517.751,4234861.001,-122.237
532617.751,4244161.001,-795.380
532617.751,4244061.001,-789.463
532617.751,4243961.001,-783.672
532617.751,4243861.001,-777.465
532617.751,4243761.001,-770.812
532617.751,4243661.001,-764.907
532617.751,4243561.001,-759.055
532617.751,4243461.001,-753.420
532617.751,4243361.001,-745.141
532617.751,4243261.001,-736.500
532617.751,4243161.001,-730.753
532617.751,4243061.001,-724.872
532617.751,4242961.001,-719.122
532617.751,4242861.001,-710.252
532617.751,4242761.001,-693.842
532617.751,4242661.001,-669.657
532617.751,4242561.001,-661.878
532617.751,4242461.001,-645.540
532617.751,4242361.001,-626.917
532617.751,4242261.001,-617.749
532617.751,4242161.001,-609.547
532617.751,4242061.001,-601.860
532617.751,4241961.001,-594.408
532617.751,4241861.001,-587.978
532617.751,4241761.001,-583.945
532617.751,4241661.001,-580.408
532617.751,4241561.001,-574.862
532617.751,4241461.001,-566.970
532617.751,4241361.001,-558.915
532617.751,4241261.001,-543.688
532617.751,4241161.001,-538.763
532617.751,4241061.001,-541.973
532617.751,4240961.001,-545.269
532617.751,4240861.001,-543.083
532617.751,4240761.001,-540.946
532617.751,4240661.001,-539.963
532617.751,4240561.001,-538.663
532617.751,4240461.001,-537.567
532617.751,4240361.001,-554.948
532617.751,4240261.001,-571.598
532617.751,4240161.001,-576.175
532617.751,4240061.001,-577.449
532617.751,4239961.001,-584.723
532617.751,4239861.001,-599.002
532617.751,4239761.001,-645.902
532617.751,4239661.001,-669.125
532617.751,4239561.001,-672.390
532617.751,4239461.001,-667.081
532617.751,4239361.001,-646.833
532617.751,4239261.001,-632.882
532617.751,4239161.001,-598.507
532617.751,4239061.001,-545.477
532617.751,4238961.001,-524.932
532617.751,4238861.001,-509.163
532617.751,4238761.001,-484.630
532617.751,4238661.001,-472.033
532617.751,4238561.001,-465.220
532617.751,4238461.001,-461.180
532617.751,4238361.001,-457.828
532617.751,4238261.001,-463.663
532617.751,4238161.001,-472.927
532617.751,4238061.001,-473.987
532617.751,4237961.001,-474.372
532617.751,4237861.001,-473.658
532617.751,4237761.001,-467.025
532617.751,4237661.001,-460.227
532617.751,4237561.001,-449.355
532617.751,4237461.001,-441.132
532617.751,4237361.001,-427.421
532617.751,4237261.001,-428.115
532617.751,4237161.001,-430.218
532617.751,4237061.001,-429.818
532617.751,4236961.001,-424.700
532617.751,4236861.001,-420.522
532617.751,4236761.001,-415.177
532617.751,4236661.001,-399.985
532617.751,4236561.001,-379.624
532617.751,4236461.001,-350.939
532617.751,4236361.001,-329.478
532617.751,4236261.001,-311.633
532617.751,4236161.001,-300.845
532617.751,4236061.001,-297.060
532617.751,4235961.001,-285.918
532617.751,4235861.001,-272.993
532617.751,4235761.001,-258.078
532617.751,4235661.001,-243.211
532617.751,4235561.001,-228.654
532617.751,4235461.001,-213.488
532617.751,4235361.001,-198.804
532617.751,4235261.001,-183.918
532617.751,4235161.001,-168.915
532617.751,4235061.001,-153.912
532617.751,4234961.001,-135.573
532717.751,4244261.001,-799.308
532717.751,4244161.001,-792.719
532717.751,4244061.001,-786.244
532717.751,4243961.001,-780.913
532717.751,4243861.001,-773.313
532717.751,4243761.001,-766.323
532717.751,4243661.001,-760.972
532717.751,4243561.001,-756.999
532717.751,4243461.001,-751.699
532717.751,4243361.001,-744.341
532717.751,4243261.001,-736.654
532717.751,4243161.001,-728.941
532717.751,4243061.001,-723.473
532717.751,4242961.001,-718.384
532717.751,4242861.001,-716.439
532717.751,4242761.001,-699.383
532717.751,4242661.001,-687.391
532717.751,4242561.001,-672.377
532717.751,4242461.001,-650.013
532717.751,4242361.001,-631.427
532717.751,4242261.001,-618.379
532717.751,4242161.001,-609.840
532717.751,4242061.001,-603.022
532717.751,4241961.001,-596.340
532717.751,4241861.001,-589.883
532717.751,4241761.001,-586.384
532717.751,4241661.001,-582.143
532717.751,4241561.001,-576.799
532717.751,4241461.001,-569.120
532717.751,4241361.001,-558.749
532717.751,4241261.001,-539.004
532717.751,4241161.001,-535.318
532717.751,4241061.001,-535.985
532717.751,4240961.001,-541.872
532717.751,4240861.001,-542.317
532717.751,4240761.001,-540.992
532717.751,4240661.001,-539.546
532717.751,4240561.001,-537.277
532717.751,4240461.001,-535.264
532717.751,4240361.001,-539.513
532717.751,4240261.001,-547.938
532717.751,4240161.001,-561.920
532717.751,4240061.001,-570.638
532717.751,4239961.001,-576.168
532717.751,4239861.001,-584.658
532717.751,4239761.001,-635.407
532717.751,4239661.001,-666.163
532717.751,4239561.001,-668.481
532717.751,4239461.001,-661.324
532717.751,4239361.001,-645.195
532717.751,4239261.001,-632.787
532717.751,4239161.001,-603.919
532717.751,4239061.001,-558.510
532717.751,4238961.001,-531.074
532717.751,4238861.001,-523.031
532717.751,4238761.001,-508.808
532717.751,4238661.001,-473.593
532717.751,4238561.001,-465.322
532717.751,4238461.001,-463.093
532717.751,4238361.001,-458.537
532717.751,4238261.001,-459.098
532717.751,4238161.001,-471.764
532717.751,4238061.001,-472.128
532717.751,4237961.001,-472.331
532717.751,4237861.001,-471.166
532717.751,4237761.001,-467.482
532717.751,4237661.001,-458.073
532717.751,4237561.001,-447.898
532717.751,4237461.001,-437.922
532717.751,4237361.001,-423.267
532717.751,4237261.001,-408.905
532717.751,4237161.001,-407.523
532717.751,4237061.001,-417.136
532717.751,4236961.001,-415.008
532717.751,4236861.001,-410.300
532717.751,4236761.001,-405.311
532717.751,4236661.001,-402.803
532717.751,4236561.001,-396.196
532717.751,4236461.001,-380.725
532717.751,4236361.001,-351.054
532717.751,4236261.001,-320.828
532717.751,4236161.001,-309.087
532717.751,4236061.001,-298.052
532717.751,4235961.001,-285.461
532717.751,4235861.001,-273.334
532717.751,4235761.001,-258.478
532717.751,4235661.001,-243.800
532717.751,4235561.001,-229.400
532717.751,4235461.001,-214.730
532717.751,4235361.001,-200.467
532717.751,4235261.001,-185.468
532717.751,4235161.001,-170.496
532717.751,4235061.001,-155.111
532717.751,4234961.001,-135.288
532817.751,4244261.001,-799.138
532817.751,4244161.001,-791.227
532817.751,4244061.001,-784.095
532817.751,4243961.001,-777.346
532817.751,4243861.001,-770.859
532817.751,4243761.001,-764.582
532817.751,4243661.001,-760.815
532817.751,4243561.001,-756.352
532817.751,4243461.001,-752.133
532817.751,4243361.001,-746.309
532817.751,4243261.001,-740.093
532817.751,4243161.001,-733.908
532817.751,4243061.001,-726.479
532817.751,4242961.001,-720.883
532817.751,4242861.001,-713.788
532817.751,4242761.001,-702.692
532817.751,4242661.001,-687.078
532817.751,4242561.001,-668.314
532817.751,4242461.001,-659.953
532817.751,4242361.001,-644.901
532817.751,4242261.001,-629.551
532817.751,4242161.001,-611.479
532817.751,4242061.001,-602.669
532817.751,4241961.001,-596.527
532817.751,4241861.001,-592.977
532817.751,4241761.001,-588.715
532817.751,4241661.001,-584.222
532817.751,4241561.001,-577.331
532817.751,4241461.001,-565.693
532817.751,4241361.001,-550.255
532817.751,4241261.001,-534.236
532817.751,4241161.001,-533.542
532817.751,4241061.001,-533.503
532817.751,4240961.001,-535.465
532817.751,4240861.001,-540.543
532817.751,4240761.001,-541.378
532817.751,4240661.001,-539.383
532817.751,4240561.001,-536.622
532817.751,4240461.001,-533.711
532817.751,4240361.001,-532.371
532817.751,4240261.001,-531.653
532817.751,4240161.001,-542.718
532817.751,4240061.001,-560.487
532817.751,4239961.001,-568.074
532817.751,4239861.001,-579.107
532817.751,4239761.001,-631.286
532817.751,4239661.001,-663.412
532817.751,4239561.001,-664.982
532817.751,4239461.001,-655.409
532817.751,4239361.001,-647.549
532817.751,4239261.001,-636.873
532817.751,4239161.001,-616.209
532817.751,4239061.001,-569.637
532817.751,4238961.001,-543.566
532817.751,4238861.001,-529.655
532817.751,4238761.001,-506.367
532817.751,4238661.001,-485.358
532817.751,4238561.001,-472.451
532817.751,4238461.001,-466.197
532817.751,4238361.001,-461.694
532817.751,4238261.001,-456.760
532817.751,4238161.001,-464.996
532817.751,4238061.001,-468.908
532817.751,4237961.001,-467.797
532817.751,4237861.001,-465.108
532817.751,4237761.001,-462.833
532817.751,4237661.001,-456.349
532817.751,4237561.001,-447.152
532817.751,4237461.001,-435.180
532817.751,4237361.001,-420.552
532817.751,4237261.001,-409.292
532817.751,4237161.001,-402.670
532817.751,4237061.001,-405.087
532817.751,4236961.001,-403.731
532817.751,4236861.001,-399.100
532817.751,4236761.001,-396.209
532817.751,4236661.001,-393.823
532817.751,4236561.001,-389.850
532817.751,4236461.001,-386.120
532817.751,4236361.001,-373.676
532817.751,4236261.001,-347.607
532817.751,4236161.001,-323.068
532817.751,4236061.001,-301.514
532817.751,4235961.001,-284.566
532817.751,4235861.001,-270.925
532817.751,4235761.001,-256.171
532817.751,4235661.001,-241.826
532817.751,4235561.001,-227.633
532817.751,4235461.001,-212.967
532817.751,4235361.001,-198.642
532817.751,4235261.001,-183.460
532817.751,4235161.001,-168.179
532817.751,4235061.001,-153.086
532817.751,4234961.001,-134.358
532817.751,4234861.001,-121.739
532917.751,4244161.001,-792.432
532917.751,4244061.001,-784.624
532917.751,4243961.001,-777.037
532917.751,4243861.001,-769.930
532917.751,4243761.001,-762.974
532917.751,4243661.001,-759.832
532917.751,4243561.001,-755.960
532917.751,4243461.001,-750.179
532917.751,4243361.001,-746.038
532917.751,4243261.001,-738.813
532917.751,4243161.001,-732.928
532917.751,4243061.001,-725.575
532917.751,4242961.001,-718.833
532917.751,4242861.001,-711.956
532917.751,4242761.001,-703.728
532917.751,4242661.001,-692.347
532917.751,4242561.001,-680.535
532917.751,4242461.001,-664.461
532917.751,4242361.001,-650.080
532917.751,4242261.001,-642.160
532917.751,4242161.001,-618.761
532917.751,4242061.001,-607.557
532917.751,4241961.001,-601.177
532917.751,4241861.001,-593.972
532917.751,4241761.001,-587.813
532917.751,4241661.001,-579.744
532917.751,4241561.001,-568.810
532917.751,4241461.001,-556.030
532917.751,4241361.001,-539.518
532917.751,4241261.001,-532.557
532917.751,4241161.001,-532.307
532917.751,4241061.001,-532.758
532917.751,4240961.001,-532.422
532917.751,4240861.001,-532.408
532917.751,4240761.001,-535.357
532917.751,4240661.001,-537.202
532917.751,4240561.001,-535.890
532917.751,4240461.001,-532.531
532917.751,4240361.001,-529.045
532917.751,4240261.001,-525.770
532917.751,4240161.001,-534.252
532917.751,4240061.001,-552.101
532917.751,4239961.001,-559.260
532917.751,4239861.001,-570.235
532917.751,4239761.001,-628.063
532917.751,4239661.001,-660.030
532917.751,4239561.001,-661.402
532917.751,4239461.001,-651.677
532917.751,4239361.001,-646.150
532917.751,4239261.001,-636.427
532917.751,4239161.001,-625.298
532917.751,4239061.001,-575.722
532917.751,4238961.001,-552.659
532917.751,4238861.001,-530.159
532917.751,4238761.001,-513.645
532917.751,4238661.001,-494.436
532917.751,4238561.001,-479.903
532917.751,4238461.001,-469.342
532917.751,4238361.001,-461.757
532917.751,4238261.001,-456.182
532917.751,4238161.001,-452.265
532917.751,4238061.001,-463.737
532917.751,4237961.001,-462.625
532917.751,4237861.001,-459.555
532917.751,4237761.001,-456.405
532917.751,4237661.001,-450.311
532917.751,4237561.001,-444.057
532917.751,4237461.001,-436.659
532917.751,4237361.001,-420.587
532917.751,4237261.001,-408.238
532917.751,4237161.001,-398.532
532917.751,4237061.001,-389.730
532917.751,4236961.001,-388.365
532917.751,4236861.001,-386.200
532917.751,4236761.001,-389.390
532917.751,4236661.001,-389.420
532917.751,4236561.001,-378.957
532917.751,4236461.001,-375.345
532917.751,4236361.001,-374.720
532917.751,4236261.001,-353.993
532917.751,4236161.001,-334.150
532917.751,4236061.001,-314.742
532917.751,4235961.001,-298.433
532917.751,4235861.001,-281.236
532917.751,4235761.001,-260.197
532917.751,4235661.001,-237.123
532917.751,4235561.001,-221.778
532917.751,4235461.001,-206.042
532917.751,4235361.001,-190.611
532917.751,4235261.001,-175.551
532917.751,4235161.001,-160.262
532917.751,4235061.001,-143.533
532917.751,4234961.001,-128.132
532917.751,4234861.001,-121.865
533017.751,4244161.001,-793.487
533017.751,4244061.001,-786.647
533017.751,4243961.001,-780.325
533017.751,4243861.001,-772.579
533017.751,4243761.001,-764.133
533017.751,4243661.001,-758.344
533017.751,4243561.001,-754.328
533017.751,4243461.001,-748.438
533017.751,4243361.001,-743.467
533017.751,4243261.001,-737.996
533017.751,4243161.001,-731.549
533017.751,4243061.001,-724.324
533017.751,4242961.001,-717.458
533017.751,4242861.001,-711.448
533017.751,4242761.001,-705.369
533017.751,4242661.001,-696.048
533017.751,4242561.001,-684.990
533017.751,4242461.001,-669.290
533017.751,4242361.001,-654.980
533017.751,4242261.001,-644.751
533017.751,4242161.001,-620.663
533017.751,4242061.001,-610.571
533017.751,4241961.001,-602.823
533017.751,4241861.001,-594.154
533017.751,4241761.001,-585.292
533017.751,4241661.001,-576.736
533017.751,4241561.001,-568.060
533017.751,4241461.001,-556.844
533017.751,4241361.001,-542.501
533017.751,4241261.001,-531.739
533017.751,4241161.001,-531.997
533017.751,4241061.001,-532.139
533017.751,4240961.001,-531.535
533017.751,4240861.001,-529.468
533017.751,4240761.001,-528.227
533017.751,4240661.001,-528.919
533017.751,4240561.001,-531.163
533017.751,4240461.001,-531.135
533017.751,4240361.001,-527.841
533017.751,4240261.001,-523.411
533017.751,4240161.001,-520.568
533017.751,4240061.001,-534.015
533017.751,4239961.001,-545.836
533017.751,4239861.001,-556.982
533017.751,4239761.001,-610.668
533017.751,4239661.001,-653.353
533017.751,4239561.001,-655.138
533017.751,4239461.001,-647.739
533017.751,4239361.001,-641.674
533017.751,4239261.001,-635.257
533017.751,4239161.001,-622.437
533017.751,4239061.001,-570.302
533017.751,4238961.001,-539.386
533017.751,4238861.001,-517.198
533017.751,4238761.001,-509.534
533017.751,4238661.001,-502.234
533017.751,4238561.001,-485.698
533017.751,4238461.001,-468.530
533017.751,4238361.001,-452.609
533017.751,4238261.001,-444.273
533017.751,4238161.001,-435.479
533017.751,4238061.001,-440.239
533017.751,4237961.001,-455.589
533017.751,4237861.001,-454.828
533017.751,4237761.001,-450.289
533017.751,4237661.001,-444.258
533017.751,4237561.001,-436.830
533017.751,4237461.001,-430.381
533017.751,4237361.001,-423.167
533017.751,4237261.001,-407.224
533017.751,4237161.001,-394.806
533017.751,4237061.001,-385.948
533017.751,4236961.001,-376.697
533017.751,4236861.001,-368.496
533017.751,4236761.001,-370.806
533017.751,4236661.001,-370.247
533017.751,4236561.001,-366.127
533017.751,4236461.001,-360.184
533017.751,4236361.001,-366.777
533017.751,4236261.001,-360.755
533017.751,4236161.001,-325.685
533017.751,4236061.001,-309.843
533017.751,4235961.001,-298.947
533017.751,4235861.001,-281.597
533017.751,4235761.001,-254.411
533017.751,4235661.001,-232.580
533017.751,4235561.001,-216.407
533017.751,4235461.001,-198.193
533017.751,4235361.001,-183.544
533017.751,4235261.001,-171.629
533017.751,4235161.001,-157.410
533017.751,4235061.001,-142.496
533017.751,4234961.001,-129.248
533017.751,4234861.001,-122.533
533117.751,4244161.001,-793.958
533117.751,4244061.001,-788.064
533117.751,4243961.001,-781.160
533117.751,4243861.001,-774.626
533117.751,4243761.001,-766.683
533117.751,4243661.001,-760.534
533117.751,4243561.001,-754.427
533117.751,4243461.001,-748.424
533117.751,4243361.001,-742.282
533117.751,4243261.001,-737.938
533117.751,4243161.001,-731.634
533117.751,4243061.001,-725.473
533117.751,4242961.001,-718.467
533117.751,4242861.001,-711.996
533117.751,4242761.001,-706.764
533117.751,4242661.001,-698.666
533117.751,4242561.001,-689.837
533117.751,4242461.001,-676.367
533117.751,4242361.001,-655.796
533117.751,4242261.001,-643.235
533117.751,4242161.001,-626.070
533117.751,4242061.001,-611.537
533117.751,4241961.001,-602.061
533117.751,4241861.001,-594.538
533117.751,4241761.001,-586.152
533117.751,4241661.001,-577.553
533117.751,4241561.001,-569.490
533117.751,4241461.001,-559.276
533117.751,4241361.001,-547.834
533117.751,4241261.001,-531.486
533117.751,4241161.001,-529.032
533117.751,4241061.001,-530.116
533117.751,4240961.001,-529.893
533117.751,4240861.001,-529.602
533117.751,4240761.001,-528.124
533117.751,4240661.001,-525.024
533117.751,4240561.001,-522.651
533117.751,4240461.001,-523.146
533117.751,4240361.001,-524.650
533117.751,4240261.001,-521.582
533117.751,4240161.001,-517.456
533117.751,4240061.001,-512.582
533117.751,4239961.001,-514.868
533117.751,4239861.001,-531.005
533117.751,4239761.001,-586.784
533117.751,4239661.001,-649.030
533117.751,4239561.001,-649.293
533117.751,4239461.001,-643.553
533117.751,4239361.001,-635.922
533117.751,4239261.001,-630.323
533117.751,4239161.001,-609.293
533117.751,4239061.001,-563.522
533117.751,4238961.001,-524.468
533117.751,4238861.001,-507.085
533117.751,4238761.001,-496.009
533117.751,4238661.001,-489.772
533117.751,4238561.001,-480.209
533117.751,4238461.001,-466.956
533117.751,4238361.001,-448.581
533117.751,4238261.001,-431.645
533117.751,4238161.001,-425.245
533117.751,4238061.001,-419.049
533117.751,4237961.001,-414.551
533117.751,4237861.001,-426.809
533117.751,4237761.001,-442.831
533117.751,4237661.001,-437.613
533117.751,4237561.001,-430.038
533117.751,4237461.001,-422.492
533117.751,4237361.001,-416.125
533117.751,4237261.001,-408.668
533117.751,4237161.001,-390.382
533117.751,4237061.001,-381.092
533117.751,4236961.001,-373.292
533117.751,4236861.001,-363.442
533117.751,4236761.001,-352.106
533117.751,4236661.001,-350.548
533117.751,4236561.001,-348.395
533117.751,4236461.001,-342.351
533117.751,4236361.001,-349.323
533117.751,4236261.001,-356.797
533117.751,4236161.001,-341.603
533117.751,4236061.001,-309.843
533117.751,4235961.001,-289.079
533117.751,4235861.001,-269.677
533117.751,4235761.001,-251.537
533117.751,4235661.001,-240.708
533117.751,4235561.001,-221.891
533117.751,4235461.001,-204.935
533117.751,4235361.001,-191.621
533117.751,4235261.001,-176.464
533117.751,4235161.001,-165.817
533117.751,4235061.001,-159.605
533117.751,4234961.001,-151.462
533117.751,4234861.001,-136.659
533217.751,4244261.001,-798.209
533217.751,4244161.001,-793.313
533217.751,4244061.001,-787.991
533217.751,4243961.001,-782.314
533217.751,4243861.001,-776.112
533217.751,4243761.001,-769.281
533217.751,4243661.001,-763.183
533217.751,4243561.001,-757.142
533217.751,4243461.001,-751.073
533217.751,4243361.001,-743.545
533217.751,4243261.001,-736.638
533217.751,4243161.001,-732.523
533217.751,4243061.001,-730.656
533217.751,4242961.001,-724.818
533217.751,4242861.001,-718.409
533217.751,4242761.001,-711.516
533217.751,4242661.001,-703.222
533217.751,4242561.001,-694.505
533217.751,4242461.001,-681.050
533217.751,4242361.001,-662.640
533217.751,4242261.001,-646.864
533217.751,4242161.001,-630.147
533217.751,4242061.001,-616.350
533217.751,4241961.001,-606.905
533217.751,4241861.001,-596.680
533217.751,4241761.001,-588.410
533217.751,4241661.001,-578.722
533217.751,4241561.001,-567.222
533217.751,4241461.001,-554.398
533217.751,4241361.001,-542.590
533217.751,4241261.001,-532.295
533217.751,4241161.001,-526.208
533217.751,4241061.001,-524.303
533217.751,4240961.001,-524.636
533217.751,4240861.001,-525.463
533217.751,4240761.001,-525.431
533217.751,4240661.001,-523.958
533217.751,4240561.001,-520.335
533217.751,4240461.001,-516.750
533217.751,4240361.001,-514.801
533217.751,4240261.001,-514.807
533217.751,4240161.001,-514.104
533217.751,4240061.001,-509.850
533217.751,4239961.001,-503.440
533217.751,4239861.001,-515.413
533217.751,4239761.001,-589.922
533217.751,4239661.001,-648.705
533217.751,4239561.001,-643.748
533217.751,4239461.001,-639.243
533217.751,4239361.001,-633.218
533217.751,4239261.001,-626.405
533217.751,4239161.001,-614.460
533217.751,4239061.001,-573.895
533217.751,4238961.001,-534.378
533217.751,4238861.001,-511.106
533217.751,4238761.001,-494.057
533217.751,4238661.001,-485.829
533217.751,4238561.001,-478.650
533217.751,4238461.001,-468.628
533217.751,4238361.001,-456.967
533217.751,4238261.001,-438.022
533217.751,4238161.001,-428.462
533217.751,4238061.001,-412.562
533217.751,4237961.001,-403.964
533217.751,4237861.001,-402.060
533217.751,4237761.001,-421.360
533217.751,4237661.001,-426.773
533217.751,4237561.001,-421.682
533217.751,4237461.001,-414.576
533217.751,4237361.001,-406.739
533217.751,4237261.001,-401.310
533217.751,4237161.001,-388.762
533217.751,4237061.001,-375.202
533217.751,4236961.001,-367.190
533217.751,4236861.001,-357.948
533217.751,4236761.001,-348.080
533217.751,4236661.001,-337.842
533217.751,4236561.001,-331.914
533217.751,4236461.001,-329.945
533217.751,4236361.001,-332.800
533217.751,4236261.001,-339.287
533217.751,4236161.001,-348.908
533217.751,4236061.001,-326.388
533217.751,4235961.001,-297.083
533217.751,4235861.001,-279.607
533217.751,4235761.001,-265.470
533217.751,4235661.001,-250.731
533217.751,4235561.001,-235.119
533217.751,4235461.001,-220.208
533217.751,4235361.001,-206.810
533217.751,4235261.001,-198.686
533217.751,4235161.001,-193.990
533217.751,4235061.001,-189.659
533217.751,4234961.001,-176.281
533217.751,4234861.001,-156.582
533217.751,4234761.001,-130.846
533317.751,4244061.001,-794.180
533317.751,4243961.001,-788.530
533317.751,4243861.001,-783.182
533317.751,4243761.001,-776.550
533317.751,4243661.001,-769.904
533317.751,4243561.001,-764.384
533317.751,4243461.001,-757.420
533317.751,4243361.001,-749.723
533317.751,4243261.001,-746.466
533317.751,4243161.001,-740.134
533317.751,4243061.001,-733.821
533317.751,4242961.001,-727.253
533317.751,4242861.001,-717.770
533317.751,4242761.001,-709.700
533317.751,4242661.001,-702.057
533317.751,4242561.001,-690.979
533317.751,4242461.001,-681.688
533317.751,4242361.001,-672.402
533317.751,4242261.001,-656.376
533317.751,4242161.001,-636.236
533317.751,4242061.001,-624.535
533317.751,4241961.001,-613.451
533317.751,4241861.001,-599.858
533317.751,4241761.001,-589.584
533317.751,4241661.001,-579.186
533317.751,4241561.001,-566.222
533317.751,4241461.001,-553.443
533317.751,4241361.001,-541.984
533317.751,4241261.001,-533.735
533317.751,4241161.001,-527.378
533317.751,4241061.001,-523.466
533317.751,4240961.001,-522.626
533317.751,4240861.001,-522.605
533317.751,4240761.001,-521.693
533317.751,4240661.001,-521.200
533317.751,4240561.001,-518.753
533317.751,4240461.001,-515.556
533317.751,4240361.001,-511.166
533317.751,4240261.001,-506.672
533317.751,4240161.001,-504.455
533317.751,4240061.001,-504.543
533317.751,4239961.001,-500.573
533317.751,4239861.001,-523.198
533317.751,4239761.001,-591.832
533317.751,4239661.001,-646.755
533317.751,4239561.001,-643.650
533317.751,4239461.001,-637.288
533317.751,4239361.001,-632.041
533317.751,4239261.001,-623.966
533317.751,4239161.001,-612.163
533317.751,4239061.001,-586.599
533317.751,4238961.001,-545.732
533317.751,4238861.001,-521.033
533317.751,4238761.001,-503.231
533317.751,4238661.001,-493.125
533317.751,4238561.001,-482.096
533317.751,4238461.001,-471.076
533317.751,4238361.001,-463.618
533317.751,4238261.001,-451.001
533317.751,4238161.001,-441.380
533317.751,4238061.001,-425.141
533317.751,4237961.001,-407.971
533317.751,4237861.001,-396.889
533317.751,4237761.001,-387.885
533317.751,4237661.001,-400.981
533317.751,4237561.001,-409.344
533317.751,4237461.001,-408.296
533317.751,4237361.001,-401.282
533317.751,4237261.001,-393.201
533317.751,4237161.001,-379.998
533317.751,4237061.001,-369.333
533317.751,4236961.001,-361.268
533317.751,4236861.001,-351.241
533317.751,4236761.001,-341.577
533317.751,4236661.001,-333.207
533317.751,4236561.001,-323.738
533317.751,4236461.001,-315.030
533317.751,4236361.001,-314.912
533317.751,4236261.001,-317.716
533317.751,4236161.001,-323.141
533317.751,4236061.001,-336.434
533317.751,4235961.001,-312.815
533317.751,4235861.001,-289.683
533317.751,4235761.001,-274.768
533317.751,4235661.001,-261.602
533317.751,4235561.001,-248.465
533317.751,4235461.001,-236.991
533317.751,4235361.001,-229.833
533317.751,4235261.001,-229.503
533317.751,4235161.001,-225.271
533317.751,4235061.001,-213.247
533317.751,4234961.001,-192.553
533317.751,4234861.001,-170.997
533317.751,4234761.001,-147.038
533317.751,4234661.001,-122.050
533417.751,4244061.001,-797.471
533417.751,4243961.001,-791.476
533417.751,4243861.001,-786.259
533417.751,4243761.001,-779.644
533417.751,4243661.001,-774.234
533417.751,4243561.001,-767.585
533417.751,4243461.001,-759.116
533417.751,4243361.001,-754.201
533417.751,4243261.001,-750.198
533417.751,4243161.001,-742.729
533417.751,4243061.001,-734.162
533417.751,4242961.001,-726.860
533417.751,4242861.001,-719.269
533417.751,4242761.001,-712.240
533417.751,4242661.001,-703.927
533417.751,4242561.001,-693.271
533417.751,4242461.001,-684.461
533417.751,4242361.001,-676.242
533417.751,4242261.001,-666.899
533417.751,4242161.001,-647.448
533417.751,4242061.001,-633.582
533417.751,4241961.001,-620.047
533417.751,4241861.001,-605.476
533417.751,4241761.001,-591.877
533417.751,4241661.001,-582.141
533417.751,4241561.001,-569.876
533417.751,4241461.001,-555.539
533417.751,4241361.001,-544.126
533417.751,4241261.001,-535.382
533417.751,4241161.001,-528.708
533417.751,4241061.001,-523.999
533417.751,4240961.001,-521.617
533417.751,4240861.001,-521.820
533417.751,4240761.001,-521.022
533417.751,4240661.001,-519.979
533417.751,4240561.001,-517.950
533417.751,4240461.001,-514.610
533417.751,4240361.001,-510.128
533417.751,4240261.001,-505.875
533417.751,4240161.001,-500.139
533417.751,4240061.001,-495.254
533417.751,4239961.001,-492.830
533417.751,4239861.001,-526.609
533417.751,4239761.001,-584.094
533417.751,4239661.001,-635.289
533417.751,4239561.001,-643.834
533417.751,4239461.001,-636.374
533417.751,4239361.001,-631.450
533417.751,4239261.001,-622.448
533417.751,4239161.001,-613.013
533417.751,4239061.001,-590.926
533417.751,4238961.001,-560.874
533417.751,4238861.001,-534.206
533417.751,4238761.001,-508.429
533417.751,4238661.001,-490.728
533417.751,4238561.001,-476.148
533417.751,4238461.001,-465.751
533417.751,4238361.001,-460.669
533417.751,4238261.001,-453.737
533417.751,4238161.001,-445.988
533417.751,4238061.001,-439.406
533417.751,4237961.001,-432.017
533417.751,4237861.001,-418.942
533417.751,4237761.001,-404.477
533417.751,4237661.001,-382.959
533417.751,4237561.001,-373.386
533417.751,4237461.001,-388.151
533417.751,4237361.001,-394.876
533417.751,4237261.001,-387.775
533417.751,4237161.001,-370.509
533417.751,4237061.001,-363.234
533417.751,4236961.001,-355.413
533417.751,4236861.001,-346.300
533417.751,4236761.001,-336.264
533417.751,4236661.001,-326.873
533417.751,4236561.001,-318.005
533417.751,4236461.001,-309.211
533417.751,4236361.001,-298.962
533417.751,4236261.001,-290.799
533417.751,4236161.001,-288.827
533417.751,4236061.001,-312.854
533417.751,4235961.001,-322.164
533417.751,4235861.001,-309.935
533417.751,4235761.001,-296.302
533417.751,4235661.001,-287.305
533417.751,4235561.001,-277.431
533417.751,4235461.001,-267.849
533417.751,4235361.001,-259.518
533417.751,4235261.001,-248.393
533417.751,4235161.001,-235.005
533417.751,4235061.001,-222.186
533417.751,4234961.001,-203.234
533417.751,4234861.001,-171.255
533417.751,4234761.001,-151.037
533417.751,4234661.001,-131.863
533417.751,4234561.001,-129.326
533417.751,4234461.001,-122.370
533517.751,4243961.001,-795.448
533517.751,4243861.001,-788.505
533517.751,4243761.001,-783.019
533517.751,4243661.001,-777.050
533517.751,4243561.001,-768.448
533517.751,4243461.001,-762.067
533517.751,4243361.001,-757.182
533517.751,4243261.001,-751.510
533517.751,4243161.001,-744.683
533517.751,4243061.001,-738.888
533517.751,4242961.001,-730.340
533517.751,4242861.001,-721.997
533517.751,4242761.001,-714.417
533517.751,4242661.001,-706.273
533517.751,4242561.001,-696.475
533517.751,4242461.001,-689.280
533517.751,4242361.001,-682.700
533517.751,4242261.001,-672.543
533517.751,4242161.001,-658.439
533517.751,4242061.001,-647.742
533517.751,4241961.001,-633.455
533517.751,4241861.001,-612.982
533517.751,4241761.001,-599.735
533517.751,4241661.001,-587.033
533517.751,4241561.001,-574.978
533517.751,4241461.001,-566.682
533517.751,4241361.001,-560.913
533517.751,4241261.001,-553.198
533517.751,4241161.001,-544.440
533517.751,4241061.001,-526.317
533517.751,4240961.001,-521.957
533517.751,4240861.001,-521.975
533517.751,4240761.001,-520.982
533517.751,4240661.001,-520.018
533517.751,4240561.001,-517.378
533517.751,4240461.001,-513.643
533517.751,4240361.001,-510.447
533517.751,4240261.001,-506.772
533517.751,4240161.001,-501.499
533517.751,4240061.001,-495.044
533517.751,4239961.001,-489.148
533517.751,4239861.001,-525.621
533517.751,4239761.001,-568.662
533517.751,4239661.001,-618.297
533517.751,4239561.001,-641.538
533517.751,4239461.001,-637.311
533517.751,4239361.001,-630.463
533517.751,4239261.001,-621.736
533517.751,4239161.001,-613.968
533517.751,4239061.001,-605.217
533517.751,4238961.001,-581.544
533517.751,4238861.001,-538.017
533517.751,4238761.001,-510.598
533517.751,4238661.001,-493.503
533517.751,4238561.001,-475.137
533517.751,4238461.001,-459.565
533517.751,4238361.001,-451.009
533517.751,4238261.001,-446.076
533517.751,4238161.001,-442.510
533517.751,4238061.001,-436.613
533517.751,4237961.001,-429.527
533517.751,4237861.001,-420.765
533517.751,4237761.001,-411.530
533517.751,4237661.001,-401.887
533517.751,4237561.001,-373.172
533517.751,4237461.001,-355.083
533517.751,4237361.001,-374.299
533517.751,4237261.001,-369.068
533517.751,4237161.001,-363.953
533517.751,4237061.001,-357.325
533517.751,4236961.001,-348.888
533517.751,4236861.001,-340.772
533517.751,4236761.001,-332.048
533517.751,4236661.001,-322.182
533517.751,4236561.001,-312.204
533517.751,4236461.001,-303.444
533517.751,4236361.001,-293.730
533517.751,4236261.001,-281.777
533517.751,4236161.001,-266.668
533517.751,4236061.001,-281.765
533517.751,4235961.001,-294.187
533517.751,4235861.001,-300.812
533517.751,4235761.001,-294.078
533517.751,4235661.001,-282.964
533517.751,4235561.001,-272.784
533517.751,4235461.001,-262.480
533517.751,4235361.001,-251.109
533517.751,4235261.001,-235.727
533517.751,4235161.001,-218.247
533517.751,4235061.001,-214.326
533517.751,4234961.001,-202.683
533517.751,4234861.001,-185.025
533517.751,4234761.001,-173.711
533517.751,4234661.001,-158.265
533517.751,4234561.001,-144.613
533617.751,4243861.001,-794.995
533617.751,4243761.001,-786.590
533617.751,4243661.001,-778.753
533617.751,4243561.001,-771.501
533617.751,4243461.001,-765.833
533617.751,4243361.001,-762.180
533617.751,4243261.001,-754.453
533617.751,4243161.001,-748.188
533617.751,4243061.001,-740.772
533617.751,4242961.001,-734.316
533617.751,4242861.001,-726.170
533617.751,4242761.001,-717.520
533617.751,4242661.001,-709.530
533617.751,4242561.001,-702.133
533617.751,4242461.001,-694.551
533617.751,4242361.001,-687.083
533617.751,4242261.001,-674.978
533617.751,4242161.001,-666.118
533617.751,4242061.001,-657.946
533617.751,4241961.001,-650.296
533617.751,4241861.001,-623.437
533617.751,4241761.001,-598.572
533617.751,4241661.001,-586.786
533617.751,4241561.001,-578.024
533617.751,4241461.001,-571.982
533617.751,4241361.001,-572.232
533617.751,4241261.001,-563.164
533617.751,4241161.001,-552.042
533617.751,4241061.001,-534.249
533617.751,4240961.001,-522.876
533617.751,4240861.001,-521.791
533617.751,4240761.001,-520.286
533617.751,4240661.001,-519.060
533617.751,4240561.001,-517.003
533617.751,4240461.001,-514.287
533617.751,4240361.001,-511.534
533617.751,4240261.001,-508.008
533617.751,4240161.001,-503.950
533617.751,4240061.001,-498.462
533617.751,4239961.001,-490.811
533617.751,4239861.001,-519.966
533617.751,4239761.001,-553.951
533617.751,4239661.001,-602.030
533617.751,4239561.001,-633.559
533617.751,4239461.001,-637.079
533617.751,4239361.001,-631.378
533617.751,4239261.001,-623.437
533617.751,4239161.001,-614.162
533617.751,4239061.001,-608.684
533617.751,4238961.001,-597.974
533617.751,4238861.001,-552.754
533617.751,4238761.001,-517.383
533617.751,4238661.001,-503.378
533617.751,4238561.001,-486.585
533617.751,4238461.001,-476.337
533617.751,4238361.001,-457.937
533617.751,4238261.001,-443.331
533617.751,4238161.001,-437.369
533617.751,4238061.001,-430.775
533617.751,4237961.001,-422.131
533617.751,4237861.001,-410.228
533617.751,4237761.001,-401.326
533617.751,4237661.001,-391.416
533617.751,4237561.001,-376.879
533617.751,4237461.001,-353.683
533617.751,4237361.001,-337.357
533617.751,4237261.001,-350.649
533617.751,4237161.001,-353.917
533617.751,4237061.001,-352.161
533617.751,4236961.001,-344.650
533617.751,4236861.001,-335.309
533617.751,4236761.001,-327.190
533617.751,4236661.001,-319.930
533617.751,4236561.001,-308.626
533617.751,4236461.001,-298.107
533617.751,4236361.001,-287.040
533617.751,4236261.001,-275.879
533617.751,4236161.001,-264.366
533617.751,4236061.001,-261.505
533617.751,4235961.001,-269.056
533617.751,4235861.001,-267.939
533617.751,4235761.001,-262.370
533617.751,4235661.001,-252.798
533617.751,4235561.001,-244.456
533617.751,4235461.001,-231.208
533617.751,4235361.001,-218.659
533617.751,4235261.001,-206.851
533617.751,4235161.001,-193.202
533617.751,4235061.001,-189.967
533617.751,4234961.001,-194.699
533617.751,4234861.001,-183.584
533617.751,4234761.001,-167.350
533617.751,4234661.001,-151.498
533617.751,4234561.001,-133.805
533717.751,4243761.001,-797.340
533717.751,4243661.001,-785.305
533717.751,4243561.001,-777.503
533717.751,4243461.001,-771.504
533717.751,4243361.001,-765.437
533717.751,4243261.001,-758.544
533717.751,4243161.001,-750.561
533717.751,4243061.001,-743.118
533717.751,4242961.001,-737.574
533717.751,4242861.001,-729.803
533717.751,4242761.001,-722.101
533717.751,4242661.001,-714.856
533717.751,4242561.001,-707.195
533717.751,4242461.001,-698.228
533717.751,4242361.001,-686.823
533717.751,4242261.001,-676.494
533717.751,4242161.001,-670.029
533717.751,4242061.001,-662.491
533717.751,4241961.001,-651.350
533717.751,4241861.001,-628.300
533717.751,4241761.001,-602.410
533717.751,4241661.001,-589.386
533717.751,4241561.001,-584.533
533717.751,4241461.001,-584.797
533717.751,4241361.001,-576.876
533717.751,4241261.001,-569.320
533717.751,4241161.001,-559.094
533717.751,4241061.001,-536.190
533717.751,4240961.001,-521.189
533717.751,4240861.001,-520.912
533717.751,4240761.001,-519.809
533717.751,4240661.001,-518.593
533717.751,4240561.001,-516.031
533717.751,4240461.001,-513.733
533717.751,4240361.001,-511.440
533717.751,4240261.001,-508.413
533717.751,4240161.001,-504.764
533717.751,4240061.001,-500.753
533717.751,4239961.001,-495.190
533717.751,4239861.001,-519.060
533717.751,4239761.001,-542.366
533717.751,4239661.001,-575.270
533717.751,4239561.001,-617.671
533717.751,4239461.001,-633.709
533717.751,4239361.001,-632.426
533717.751,4239261.001,-625.846
533717.751,4239161.001,-616.634
533717.751,4239061.001,-608.704
533717.751,4238961.001,-602.512
533717.751,4238861.001,-585.176
533717.751,4238761.001,-545.861
533717.751,4238661.001,-523.027
533717.751,4238561.001,-519.711
533717.751,4238461.001,-514.119
533717.751,4238361.001,-496.865
533717.751,4238261.001,-452.514
533717.751,4238161.001,-432.441
533717.751,4238061.001,-424.651
533717.751,4237961.001,-417.477
533717.751,4237861.001,-409.084
533717.751,4237761.001,-395.562
533717.751,4237661.001,-385.944
533717.751,4237561.001,-376.167
533717.751,4237461.001,-360.468
533717.751,4237361.001,-323.216
533717.751,4237261.001,-326.520
533717.751,4237161.001,-332.687
533717.751,4237061.001,-341.948
533717.751,4236961.001,-340.631
533717.751,4236861.001,-331.725
533717.751,4236761.001,-321.625
533717.751,4236661.001,-315.187
533717.751,4236561.001,-307.409
533717.751,4236461.001,-295.203
533717.751,4236361.001,-282.456
533717.751,4236261.001,-270.922
533717.751,4236161.001,-259.449
533717.751,4236061.001,-245.639
533717.751,4235961.001,-251.814
533717.751,4235861.001,-255.226
533717.751,4235761.001,-245.973
533717.751,4235661.001,-232.064
533717.751,4235561.001,-228.447
533717.751,4235461.001,-208.009
533717.751,4235361.001,-198.754
533717.751,4235261.001,-193.069
533717.751,4235161.001,-181.210
533717.751,4235061.001,-164.440
533717.751,4234961.001,-157.772
533717.751,4234861.001,-152.747
533717.751,4234761.001,-138.284
533717.751,4234661.001,-127.414
533817.751,4243661.001,-794.956
533817.751,4243561.001,-783.450
533817.751,4243461.001,-776.372
533817.751,4243361.001,-770.568
533817.751,4243261.001,-761.962
533817.751,4243161.001,-752.785
533817.751,4243061.001,-745.481
533817.751,4242961.001,-739.638
533817.751,4242861.001,-732.740
533817.751,4242761.001,-725.138
533817.751,4242661.001,-717.980
533817.751,4242561.001,-710.947
533817.751,4242461.001,-701.878
533817.751,4242361.001,-691.787
533817.751,4242261.001,-681.839
533817.751,4242161.001,-675.622
533817.751,4242061.001,-669.875
533817.751,4241961.001,-660.878
533817.751,4241861.001,-641.049
533817.751,4241761.001,-615.667
533817.751,4241661.001,-601.939
533817.751,4241561.001,-602.829
533817.751,4241461.001,-594.290
533817.751,4241361.001,-579.336
533817.751,4241261.001,-566.406
533817.751,4241161.001,-562.898
533817.751,4241061.001,-549.123
533817.751,4240961.001,-530.541
533817.751,4240861.001,-519.782
533817.751,4240761.001,-519.712
533817.751,4240661.001,-517.931
533817.751,4240561.001,-515.655
533817.751,4240461.001,-513.287
533817.751,4240361.001,-511.351
533817.751,4240261.001,-507.038
533817.751,4240161.001,-504.212
533817.751,4240061.001,-500.577
533817.751,4239961.001,-496.120
533817.751,4239861.001,-503.555
533817.751,4239761.001,-532.677
533817.751,4239661.001,-554.020
533817.751,4239561.001,-596.327
533817.751,4239461.001,-624.688
533817.751,4239361.001,-629.583
533817.751,4239261.001,-627.547
533817.751,4239161.001,-620.303
533817.751,4239061.001,-610.462
533817.751,4238961.001,-603.509
533817.751,4238861.001,-595.838
533817.751,4238761.001,-579.810
533817.751,4238661.001,-541.511
533817.751,4238561.001,-527.518
533817.751,4238461.001,-519.505
533817.751,4238361.001,-511.319
533817.751,4238261.001,-487.748
533817.751,4238161.001,-438.760
533817.751,4238061.001,-423.402
533817.751,4237961.001,-414.075
533817.751,4237861.001,-402.527
533817.751,4237761.001,-390.026
533817.751,4237661.001,-381.853
533817.751,4237561.001,-367.617
533817.751,4237461.001,-361.144
533817.751,4237361.001,-322.728
533817.751,4237261.001,-308.345
533817.751,4237161.001,-315.269
533817.751,4237061.001,-326.263
533817.751,4236961.001,-333.663
533817.751,4236861.001,-327.913
533817.751,4236761.001,-319.379
533817.751,4236661.001,-309.758
533817.751,4236561.001,-302.340
533817.751,4236461.001,-292.866
533817.751,4236361.001,-279.740
533817.751,4236261.001,-267.430
533817.751,4236161.001,-255.097
533817.751,4236061.001,-240.210
533817.751,4235961.001,-226.907
533817.751,4235861.001,-227.619
533817.751,4235761.001,-223.535
533817.751,4235661.001,-198.922
533817.751,4235561.001,-195.482
533817.751,4235461.001,-189.538
533817.751,4235361.001,-182.837
533817.751,4235261.001,-176.394
533817.751,4235161.001,-164.643
533817.751,4235061.001,-145.829
533817.751,4234961.001,-126.337
533817.751,4234861.001,-122.462
533917.751,4243561.001,-791.737
533917.751,4243461.001,-783.765
533917.751,4243361.001,-782.574
533917.751,4243261.001,-779.049
533917.751,4243161.001,-769.592
533917.751,4243061.001,-757.554
533917.751,4242961.001,-745.489
533917.751,4242861.001,-736.172
533917.751,4242761.001,-729.903
533917.751,4242661.001,-720.675
533917.751,4242561.001,-712.751
533917.751,4242461.001,-703.177
533917.751,4242361.001,-694.028
533917.751,4242261.001,-685.050
533917.751,4242161.001,-678.191
533917.751,4242061.001,-672.196
533917.751,4241961.001,-664.948
533917.751,4241861.001,-649.294
533917.751,4241761.001,-627.456
533917.751,4241661.001,-620.964
533917.751,4241561.001,-613.162
533917.751,4241461.001,-619.047
533917.751,4241361.001,-610.200
533917.751,4241261.001,-589.829
533917.751,4241161.001,-587.809
533917.751,4241061.001,-572.509
533917.751,4240961.001,-555.794
533917.751,4240861.001,-528.616
533917.751,4240761.001,-519.193
533917.751,4240661.001,-517.974
533917.751,4240561.001,-516.095
533917.751,4240461.001,-513.800
533917.751,4240361.001,-511.490
533917.751,4240261.001,-507.790
533917.751,4240161.001,-505.047
533917.751,4240061.001,-500.781
533917.751,4239961.001,-495.779
533917.751,4239861.001,-492.783
533917.751,4239761.001,-516.562
533917.751,4239661.001,-531.197
533917.751,4239561.001,-552.216
533917.751,4239461.001,-594.294
533917.751,4239361.001,-621.249
533917.751,4239261.001,-625.280
533917.751,4239161.001,-621.812
533917.751,4239061.001,-614.537
533917.751,4238961.001,-605.888
533917.751,4238861.001,-597.410
533917.751,4238761.001,-588.677
533917.751,4238661.001,-568.926
533917.751,4238561.001,-542.462
533917.751,4238461.001,-521.217
533917.751,4238361.001,-509.968
533917.751,4238261.001,-496.749
533917.751,4238161.001,-449.941
533917.751,4238061.001,-433.800
533917.751,4237961.001,-417.346
533917.751,4237861.001,-398.484
533917.751,4237761.001,-385.075
