512267.751,4236911.001,-896.270
512267.751,4236711.001,-892.088
512267.751,4236511.001,-838.904
512267.751,4236311.001,-805.537
512267.751,4236111.001,-758.729
512267.751,4235911.001,-722.729
512267.751,4235711.001,-689.421
512267.751,4235511.001,-658.115
512267.751,4235311.001,-623.477
512267.751,4235111.001,-598.394
512267.751,4234911.001,-571.756
512467.751,4270911.001,-572.330
512467.751,4270711.001,-596.895
512467.751,4270511.001,-631.128
512467.751,4270311.001,-661.604
512467.751,4270111.001,-696.226
512467.751,4269911.001,-724.614
512467.751,4269711.001,-751.534
512467.751,4269511.001,-780.572
512467.751,4269311.001,-806.945
512467.751,4269111.001,-831.806
512467.751,4268911.001,-855.712
512467.751,4268711.001,-878.279
512467.751,4268511.001,-898.029
512467.751,4268311.001,-913.833
512467.751,4268111.001,-944.013
512467.751,4267911.001,-965.056
512467.751,4267711.001,-978.918
512467.751,4267511.001,-1004.604
512467.751,4267311.001,-1039.159
512467.751,4267111.001,-1060.007
512467.751,4266911.001,-1075.837
512467.751,4266711.001,-1099.410
512467.751,4266511.001,-1121.062
512467.751,4266311.001,-1140.659
512467.751,4266111.001,-1146.399
512467.751,4265911.001,-1151.909
512467.751,4265711.001,-1159.292
512467.751,4265511.001,-1162.588
512467.751,4265311.001,-1165.501
512467.751,4265111.001,-1165.185
512467.751,4264911.001,-1163.899
512467.751,4264711.001,-1162.113
512467.751,4264511.001,-1162.168
512467.751,4264311.001,-1162.696
512467.751,4264111.001,-1163.802
512467.751,4263911.001,-1162.696
512467.751,4263711.001,-1159.255
512467.751,4263511.001,-1156.153
512467.751,4263311.001,-1156.214
512467.751,4263111.001,-1155.986
512467.751,4262911.001,-1153.942
512467.751,4262711.001,-1159.510
512467.751,4262511.001,-1167.762
512467.751,4262311.001,-1168.141
512467.751,4262111.001,-1174.402
512467.751,4261911.001,-1174.173
512467.751,4261711.001,-1173.932
512467.751,4261511.001,-1175.717
512467.751,4261311.001,-1166.165
512467.751,4261111.001,-1168.355
512467.751,4260911.001,-1167.396
512467.751,4260711.001,-1171.008
512467.751,4260511.001,-1171.196
512467.751,4260311.001,-1175.625
512467.751,4260111.001,-1173.740
512467.751,4259911.001,-1183.343
512467.751,4259711.001,-1178.783
512467.751,4259511.001,-1175.485
512467.751,4259311.001,-1177.252
512467.751,4259111.001,-1179.306
512467.751,4258911.001,-1183.865
512467.751,4258711.001,-1189.153
512467.751,4258511.001,-1193.643
512467.751,4258311.001,-1206.208
512467.751,4258111.001,-1196.179
512467.751,4257911.001,-1160.523
512467.751,4257711.001,-1144.514
512467.751,4257511.001,-1144.670
512467.751,4257311.001,-1142.601
512467.751,4257111.001,-1155.978
512467.751,4256911.001,-1195.548
512467.751,4256711.001,-1215.240
512467.751,4256511.001,-1234.335
512467.751,4256311.001,-1255.461
512467.751,4256111.001,-1270.036
512467.751,4255911.001,-1282.658
512467.751,4255711.001,-1280.904
512467.751,4255511.001,-1277.389
512467.751,4255311.001,-1278.472
512467.751,4255111.001,-1272.407
512467.751,4254911.001,-1258.206
512467.751,4254711.001,-1228.392
512467.751,4254511.001,-1204.679
512467.751,4254311.001,-1181.338
512467.751,4254111.001,-1173.378
512467.751,4253911.001,-1170.063
512467.751,4253711.001,-1165.113
512467.751,4253511.001,-1164.098
512467.751,4253311.001,-1170.847
512467.751,4253111.001,-1168.781
512467.751,4252911.001,-1160.333
512467.751,4252711.001,-1152.443
512467.751,4252511.001,-1152.013
512467.751,4252311.001,-1149.101
512467.751,4252111.001,-1150.315
512467.751,4251911.001,-1148.347
512467.751,4251711.001,-1141.300
512467.751,4251511.001,-1132.869
512467.751,4251311.001,-1127.759
512467.751,4251111.001,-1123.284
512467.751,4250911.001,-1118.369
512467.751,4250711.001,-1114.050
512467.751,4250511.001,-1107.185
512467.751,4250311.001,-1099.764
512467.751,4250111.001,-1094.902
512467.751,4249911.001,-1090.107
512467.751,4249711.001,-1084.148
512467.751,4249511.001,-1073.556
512467.751,4249311.001,-1055.485
512467.751,4249111.001,-1047.734
512467.751,4248911.001,-1042.563
512467.751,4248711.001,-1038.954
512467.751,4248511.001,-1031.632
512467.751,4248311.001,-1032.889
512467.751,4248111.001,-1046.971
512467.751,4247911.001,-1062.784
512467.751,4247711.001,-1079.872
512467.751,4247511.001,-1079.909
512467.751,4247311.001,-1072.954
512467.751,4247111.001,-1065.150
512467.751,4246911.001,-1065.967
512467.751,4246711.001,-1057.020
512467.751,4246511.001,-1050.470
512467.751,4246311.001,-1046.150
512467.751,4246111.001,-1038.943
512467.751,4245911.001,-1032.749
512467.751,4245711.001,-1027.859
512467.751,4245511.001,-1023.617
512467.751,4245311.001,-1019.542
512467.751,4245111.001,-1013.369
512467.751,4244911.001,-1005.461
512467.751,4244711.001,-1001.458
512467.751,4244511.001,-987.807
512467.751,4244311.001,-984.153
512467.751,4244111.001,-982.561
512467.751,4243911.001,-976.139
512467.751,4243711.001,-971.116
512467.751,4243511.001,-964.488
512467.751,4243311.001,-957.074
512467.751,4243111.001,-954.968
512467.751,4242911.001,-950.994
512467.751,4242711.001,-947.131
512467.751,4242511.001,-942.202
512467.751,4242311.001,-944.155
512467.751,4242111.001,-933.239
512467.751,4241911.001,-915.452
512467.751,4241711.001,-911.082
512467.751,4241511.001,-906.862
512467.751,4241311.001,-902.107
512467.751,4241111.001,-895.563
512467.751,4240911.001,-892.716
512467.751,4240711.001,-882.235
512467.751,4240511.001,-873.883
512467.751,4240311.001,-863.722
512467.751,4240111.001,-850.122
512467.751,4239911.001,-837.837
512467.751,4239711.001,-824.616
512467.751,4239511.001,-815.262
512467.751,4239311.001,-800.886
512467.751,4239111.001,-788.289
512467.751,4238911.001,-774.575
512467.751,4238711.001,-748.814
512467.751,4238511.001,-728.564
512467.751,4238311.001,-777.263
512467.751,4238111.001,-796.646
512467.751,4237911.001,-843.911
512467.751,4237711.001,-877.559
512467.751,4237511.001,-903.593
512467.751,4237311.001,-900.587
512467.751,4237111.001,-897.719
512467.751,4236911.001,-894.138
512467.751,4236711.001,-889.927
512467.751,4236511.001,-881.662
512467.751,4236311.001,-833.828
512467.751,4236111.001,-771.391
512467.751,4235911.001,-725.307
512467.751,4235711.001,-694.811
512467.751,4235511.001,-668.859
512467.751,4235311.001,-637.665
512467.751,4235111.001,-610.921
512467.751,4234911.001,-577.494
512667.751,4271311.001,-576.595
512667.751,4271111.001,-591.249
512667.751,4270911.001,-597.135
512667.751,4270711.001,-618.492
512667.751,4270511.001,-639.719
512667.751,4270311.001,-667.517
512667.751,4270111.001,-697.270
512667.751,4269911.001,-728.515
512667.751,4269711.001,-762.582
512667.751,4269511.001,-788.345
512667.751,4269311.001,-816.200
512667.751,4269111.001,-844.004
512667.751,4268911.001,-869.755
512667.751,4268711.001,-894.931
512667.751,4268511.001,-916.989
512667.751,4268311.001,-936.965
512667.751,4268111.001,-953.526
512667.751,4267911.001,-965.947
512667.751,4267711.001,-987.460
512667.751,4267511.001,-1018.096
512667.751,4267311.001,-1043.876
512667.751,4267111.001,-1058.358
512667.751,4266911.001,-1078.956
512667.751,4266711.001,-1104.362
512667.751,4266511.001,-1127.458
512667.751,4266311.001,-1141.022
512667.751,4266111.001,-1150.179
512667.751,4265911.001,-1156.205
512667.751,4265711.001,-1161.214
512667.751,4265511.001,-1166.368
512667.751,4265311.001,-1165.382
512667.751,4265111.001,-1166.123
512667.751,4264911.001,-1166.348
512667.751,4264711.001,-1163.550
512667.751,4264511.001,-1164.784
512667.751,4264311.001,-1164.640
512667.751,4264111.001,-1164.713
512667.751,4263911.001,-1164.112
512667.751,4263711.001,-1159.811
512667.751,4263511.001,-1159.998
512667.751,4263311.001,-1159.171
512667.751,4263111.001,-1157.823
512667.751,4262911.001,-1158.338
512667.751,4262711.001,-1161.920
512667.751,4262511.001,-1168.767
512667.751,4262311.001,-1171.003
512667.751,4262111.001,-1173.154
512667.751,4261911.001,-1173.571
512667.751,4261711.001,-1174.230
512667.751,4261511.001,-1173.685
512667.751,4261311.001,-1171.414
512667.751,4261111.001,-1168.743
512667.751,4260911.001,-1170.958
512667.751,4260711.001,-1172.359
512667.751,4260511.001,-1178.790
512667.751,4260311.001,-1187.483
512667.751,4260111.001,-1187.050
512667.751,4259911.001,-1186.725
512667.751,4259711.001,-1181.386
512667.751,4259511.001,-1183.042
512667.751,4259311.001,-1185.185
512667.751,4259111.001,-1186.853
512667.751,4258911.001,-1191.455
512667.751,4258711.001,-1195.448
512667.751,4258511.001,-1201.681
512667.751,4258311.001,-1210.082
512667.751,4258111.001,-1209.613
512667.751,4257911.001,-1173.843
512667.751,4257711.001,-1162.472
512667.751,4257511.001,-1163.293
512667.751,4257311.001,-1157.521
512667.751,4257111.001,-1157.349
512667.751,4256911.001,-1195.945
512667.751,4256711.001,-1232.085
512667.751,4256511.001,-1251.867
512667.751,4256311.001,-1282.338
512667.751,4256111.001,-1297.150
512667.751,4255911.001,-1286.177
512667.751,4255711.001,-1280.010
512667.751,4255511.001,-1281.132
512667.751,4255311.001,-1273.130
512667.751,4255111.001,-1243.525
512667.751,4254911.001,-1202.103
512667.751,4254711.001,-1175.074
512667.751,4254511.001,-1159.335
512667.751,4254311.001,-1160.417
512667.751,4254111.001,-1162.791
512667.751,4253911.001,-1162.610
512667.751,4253711.001,-1158.874
512667.751,4253511.001,-1162.284
512667.751,4253311.001,-1166.343
512667.751,4253111.001,-1171.391
512667.751,4252911.001,-1178.407
512667.751,4252711.001,-1163.037
512667.751,4252511.001,-1161.025
512667.751,4252311.001,-1153.741
512667.751,4252111.001,-1149.685
512667.751,4251911.001,-1147.196
512667.751,4251711.001,-1139.310
512667.751,4251511.001,-1130.542
512667.751,4251311.001,-1125.815
512667.751,4251111.001,-1119.958
512667.751,4250911.001,-1115.588
512667.751,4250711.001,-1107.182
512667.751,4250511.001,-1101.931
512667.751,4250311.001,-1095.800
512667.751,4250111.001,-1082.571
512667.751,4249911.001,-1070.818
512667.751,4249711.001,-1055.367
512667.751,4249511.001,-1053.053
512667.751,4249311.001,-1046.771
512667.751,4249111.001,-1037.848
512667.751,4248911.001,-1040.048
512667.751,4248711.001,-1029.125
512667.751,4248511.001,-1024.395
512667.751,4248311.001,-1027.817
512667.751,4248111.001,-1035.767
512667.751,4247911.001,-1052.700
512667.751,4247711.001,-1070.767
512667.751,4247511.001,-1078.643
512667.751,4247311.001,-1075.343
512667.751,4247111.001,-1068.054
512667.751,4246911.001,-1063.982
512667.751,4246711.001,-1053.748
512667.751,4246511.001,-1047.907
512667.751,4246311.001,-1044.136
512667.751,4246111.001,-1039.125
512667.751,4245911.001,-1034.282
512667.751,4245711.001,-1030.502
512667.751,4245511.001,-1027.450
512667.751,4245311.001,-1023.638
512667.751,4245111.001,-1015.107
512667.751,4244911.001,-1010.115
512667.751,4244711.001,-1001.006
512667.751,4244511.001,-992.475
512667.751,4244311.001,-987.775
512667.751,4244111.001,-984.500
512667.751,4243911.001,-977.849
512667.751,4243711.001,-974.190
512667.751,4243511.001,-971.112
512667.751,4243311.001,-965.579
512667.751,4243111.001,-964.153
512667.751,4242911.001,-960.786
512667.751,4242711.001,-956.484
512667.751,4242511.001,-951.583
512667.751,4242311.001,-949.418
512667.751,4242111.001,-947.715
512667.751,4241911.001,-931.210
512667.751,4241711.001,-920.004
512667.751,4241511.001,-916.035
512667.751,4241311.001,-911.830
512667.751,4241111.001,-906.769
512667.751,4240911.001,-901.835
512667.751,4240711.001,-894.598
512667.751,4240511.001,-884.253
512667.751,4240311.001,-874.327
512667.751,4240111.001,-859.723
512667.751,4239911.001,-845.731
512667.751,4239711.001,-832.388
512667.751,4239511.001,-819.915
512667.751,4239311.001,-809.145
512667.751,4239111.001,-796.339
512667.751,4238911.001,-781.565
512667.751,4238711.001,-760.402
512667.751,4238511.001,-726.032
512667.751,4238311.001,-761.360
512667.751,4238111.001,-786.801
512667.751,4237911.001,-815.859
512667.751,4237711.001,-842.212
512667.751,4237511.001,-881.418
512667.751,4237311.001,-896.817
512667.751,4237111.001,-896.045
512667.751,4236911.001,-892.802
512667.751,4236711.001,-890.083
512667.751,4236511.001,-887.370
512667.751,4236311.001,-858.923
512667.751,4236111.001,-822.844
512667.751,4235911.001,-778.405
512667.751,4235711.001,-708.112
512667.751,4235511.001,-684.796
512667.751,4235311.001,-662.362
512667.751,4235111.001,-625.508
512667.751,4234911.001,-588.727
512667.751,4231111.001,-583.768
512667.751,4230911.001,-592.959
512667.751,4230711.001,-586.448
512867.751,4275311.001,-578.240
512867.751,4275111.001,-583.638
512867.751,4271511.001,-590.076
512867.751,4271311.001,-603.305
512867.751,4271111.001,-622.096
512867.751,4270911.001,-630.386
512867.751,4270711.001,-638.185
512867.751,4270511.001,-660.970
512867.751,4270311.001,-678.960
512867.751,4270111.001,-708.918
512867.751,4269911.001,-736.032
512867.751,4269711.001,-759.901
512867.751,4269511.001,-785.380
512867.751,4269311.001,-811.916
512867.751,4269111.001,-841.518
512867.751,4268911.001,-872.180
512867.751,4268711.001,-899.665
512867.751,4268511.001,-924.860
512867.751,4268311.001,-942.708
512867.751,4268111.001,-965.605
512867.751,4267911.001,-989.899
512867.751,4267711.001,-1004.992
512867.751,4267511.001,-1025.474
512867.751,4267311.001,-1048.050
512867.751,4267111.001,-1073.666
512867.751,4266911.001,-1094.814
512867.751,4266711.001,-1109.843
512867.751,4266511.001,-1128.183
512867.751,4266311.001,-1144.063
512867.751,4266111.001,-1156.143
512867.751,4265911.001,-1159.765
512867.751,4265711.001,-1162.760
512867.751,4265511.001,-1165.154
512867.751,4265311.001,-1167.525
512867.751,4265111.001,-1168.556
512867.751,4264911.001,-1168.160
512867.751,4264711.001,-1167.132
512867.751,4264511.001,-1167.355
512867.751,4264311.001,-1169.521
512867.751,4264111.001,-1168.427
512867.751,4263911.001,-1167.688
512867.751,4263711.001,-1163.863
512867.751,4263511.001,-1162.328
512867.751,4263311.001,-1159.993
512867.751,4263111.001,-1158.965
512867.751,4262911.001,-1162.158
512867.751,4262711.001,-1165.298
512867.751,4262511.001,-1169.546
512867.751,4262311.001,-1174.471
512867.751,4262111.001,-1175.706
512867.751,4261911.001,-1179.661
512867.751,4261711.001,-1183.945
512867.751,4261511.001,-1182.758
512867.751,4261311.001,-1173.916
512867.751,4261111.001,-1174.529
512867.751,4260911.001,-1179.554
512867.751,4260711.001,-1182.455
512867.751,4260511.001,-1187.388
512867.751,4260311.001,-1187.722
512867.751,4260111.001,-1186.665
512867.751,4259911.001,-1181.117
512867.751,4259711.001,-1185.351
512867.751,4259511.001,-1196.424
512867.751,4259311.001,-1193.892
512867.751,4259111.001,-1193.238
512867.751,4258911.001,-1193.469
512867.751,4258711.001,-1193.618
512867.751,4258511.001,-1201.217
512867.751,4258311.001,-1211.503
512867.751,4258111.001,-1222.853
512867.751,4257911.001,-1223.901
512867.751,4257711.001,-1214.043
512867.751,4257511.001,-1206.842
512867.751,4257311.001,-1166.041
512867.751,4257111.001,-1183.150
512867.751,4256911.001,-1195.497
512867.751,4256711.001,-1244.499
512867.751,4256511.001,-1272.171
512867.751,4256311.001,-1305.947
512867.751,4256111.001,-1291.754
512867.751,4255911.001,-1289.563
512867.751,4255711.001,-1282.819
512867.751,4255511.001,-1271.374
512867.751,4255311.001,-1224.189
512867.751,4255111.001,-1176.204
512867.751,4254911.001,-1165.149
512867.751,4254711.001,-1156.507
512867.751,4254511.001,-1158.122
512867.751,4254311.001,-1161.911
512867.751,4254111.001,-1166.801
512867.751,4253911.001,-1168.806
512867.751,4253711.001,-1171.197
512867.751,4253511.001,-1171.690
512867.751,4253311.001,-1170.760
512867.751,4253111.001,-1167.796
512867.751,4252911.001,-1171.405
512867.751,4252711.001,-1168.775
512867.751,4252511.001,-1164.880
512867.751,4252311.001,-1157.880
512867.751,4252111.001,-1153.634
512867.751,4251911.001,-1143.973
512867.751,4251711.001,-1135.529
512867.751,4251511.001,-1130.255
512867.751,4251311.001,-1120.773
512867.751,4251111.001,-1111.551
512867.751,4250911.001,-1104.518
512867.751,4250711.001,-1102.092
512867.751,4250511.001,-1085.513
512867.751,4250311.001,-1071.086
512867.751,4250111.001,-1059.774
512867.751,4249911.001,-1048.501
512867.751,4249711.001,-1041.213
512867.751,4249511.001,-1047.864
512867.751,4249311.001,-1031.949
512867.751,4249111.001,-1033.337
512867.751,4248911.001,-1033.088
512867.751,4248711.001,-1022.518
512867.751,4248511.001,-1019.769
512867.751,4248311.001,-1021.121
512867.751,4248111.001,-1030.486
512867.751,4247911.001,-1049.065
512867.751,4247711.001,-1063.135
512867.751,4247511.001,-1076.318
512867.751,4247311.001,-1074.139
512867.751,4247111.001,-1067.645
512867.751,4246911.001,-1063.211
512867.751,4246711.001,-1055.211
512867.751,4246511.001,-1048.609
512867.751,4246311.001,-1044.809
512867.751,4246111.001,-1038.252
512867.751,4245911.001,-1034.372
512867.751,4245711.001,-1032.790
512867.751,4245511.001,-1030.091
512867.751,4245311.001,-1024.834
512867.751,4245111.001,-1019.566
512867.751,4244911.001,-1012.625
512867.751,4244711.001,-1005.429
512867.751,4244511.001,-995.333
512867.751,4244311.001,-991.043
512867.751,4244111.001,-988.938
512867.751,4243911.001,-982.812
512867.751,4243711.001,-978.951
512867.751,4243511.001,-975.455
512867.751,4243311.001,-972.184
512867.751,4243111.001,-968.633
512867.751,4242911.001,-966.681
512867.751,4242711.001,-961.894
512867.751,4242511.001,-964.167
512867.751,4242311.001,-960.539
512867.751,4242111.001,-956.099
512867.751,4241911.001,-941.266
512867.751,4241711.001,-931.470
512867.751,4241511.001,-926.942
512867.751,4241311.001,-921.823
512867.751,4241111.001,-920.834
512867.751,4240911.001,-915.128
512867.751,4240711.001,-911.583
512867.751,4240511.001,-898.800
512867.751,4240311.001,-880.794
512867.751,4240111.001,-862.982
512867.751,4239911.001,-846.654
512867.751,4239711.001,-835.521
512867.751,4239511.001,-823.560
512867.751,4239311.001,-810.122
512867.751,4239111.001,-792.694
512867.751,4238911.001,-776.490
512867.751,4238711.001,-762.853
512867.751,4238511.001,-725.763
512867.751,4238311.001,-726.153
512867.751,4238111.001,-744.485
512867.751,4237911.001,-767.711
512867.751,4237711.001,-805.087
512867.751,4237511.001,-848.629
512867.751,4237311.001,-888.772
512867.751,4237111.001,-889.465
512867.751,4236911.001,-889.289
512867.751,4236711.001,-889.431
512867.751,4236511.001,-884.531
512867.751,4236311.001,-866.949
512867.751,4236111.001,-858.644
512867.751,4235911.001,-787.573
512867.751,4235711.001,-725.663
512867.751,4235511.001,-698.155
512867.751,4235311.001,-674.368
512867.751,4235111.001,-655.004
512867.751,4234911.001,-624.122
512867.751,4231511.001,-589.192
512867.751,4231311.001,-625.604
512867.751,4231111.001,-603.580
512867.751,4230911.001,-607.852
512867.751,4230711.001,-619.932
512867.751,4230511.001,-611.575
512867.751,4230311.001,-603.317
512867.751,4230111.001,-584.665
513067.751,4276311.001,-628.376
513067.751,4276111.001,-616.631
513067.751,4275911.001,-590.574
513067.751,4275711.001,-619.538
513067.751,4275511.001,-592.934
513067.751,4275311.001,-625.001
513067.751,4275111.001,-624.084
513067.751,4274911.001,-604.837
513067.751,4274711.001,-595.329
513067.751,4274511.001,-587.859
513067.751,4274311.001,-590.297
513067.751,4271911.001,-570.670
513067.751,4271711.001,-593.160
513067.751,4271511.001,-613.547
513067.751,4271311.001,-631.047
513067.751,4271111.001,-647.449
513067.751,4270911.001,-665.960
513067.751,4270711.001,-673.245
513067.751,4270511.001,-684.679
513067.751,4270311.001,-710.494
513067.751,4270111.001,-716.698
513067.751,4269911.001,-749.830
513067.751,4269711.001,-773.572
513067.751,4269511.001,-794.057
513067.751,4269311.001,-816.337
513067.751,4269111.001,-842.738
513067.751,4268911.001,-868.507
513067.751,4268711.001,-891.190
513067.751,4268511.001,-922.911
513067.751,4268311.001,-943.366
513067.751,4268111.001,-961.096
513067.751,4267911.001,-991.941
513067.751,4267711.001,-1017.497
513067.751,4267511.001,-1038.247
513067.751,4267311.001,-1070.158
513067.751,4267111.001,-1091.218
513067.751,4266911.001,-1102.074
513067.751,4266711.001,-1121.626
513067.751,4266511.001,-1140.749
513067.751,4266311.001,-1152.356
513067.751,4266111.001,-1157.662
513067.751,4265911.001,-1159.199
513067.751,4265711.001,-1158.893
513067.751,4265511.001,-1162.299
513067.751,4265311.001,-1169.317
513067.751,4265111.001,-1172.443
513067.751,4264911.001,-1172.424
513067.751,4264711.001,-1170.085
513067.751,4264511.001,-1169.791
513067.751,4264311.001,-1170.868
513067.751,4264111.001,-1171.365
513067.751,4263911.001,-1170.906
513067.751,4263711.001,-1169.956
513067.751,4263511.001,-1165.321
513067.751,4263311.001,-1159.938
513067.751,4263111.001,-1162.662
513067.751,4262911.001,-1164.998
513067.751,4262711.001,-1165.490
513067.751,4262511.001,-1167.121
513067.751,4262311.001,-1174.532
513067.751,4262111.001,-1185.049
513067.751,4261911.001,-1190.247
513067.751,4261711.001,-1189.772
513067.751,4261511.001,-1185.138
513067.751,4261311.001,-1182.141
513067.751,4261111.001,-1182.111
513067.751,4260911.001,-1187.014
513067.751,4260711.001,-1189.981
513067.751,4260511.001,-1189.527
513067.751,4260311.001,-1192.790
513067.751,4260111.001,-1193.854
513067.751,4259911.001,-1194.184
513067.751,4259711.001,-1195.589
513067.751,4259511.001,-1193.003
513067.751,4259311.001,-1193.382
513067.751,4259111.001,-1192.943
513067.751,4258911.001,-1195.977
513067.751,4258711.001,-1194.155
513067.751,4258511.001,-1199.597
513067.751,4258311.001,-1208.198
513067.751,4258111.001,-1211.313
513067.751,4257911.001,-1223.325
513067.751,4257711.001,-1230.732
513067.751,4257511.001,-1232.496
513067.751,4257311.001,-1226.706
513067.751,4257111.001,-1215.041
513067.751,4256911.001,-1233.163
513067.751,4256711.001,-1269.424
513067.751,4256511.001,-1309.809
513067.751,4256311.001,-1303.367
513067.751,4256111.001,-1290.036
513067.751,4255911.001,-1276.343
513067.751,4255711.001,-1226.680
513067.751,4255511.001,-1191.365
513067.751,4255311.001,-1179.092
513067.751,4255111.001,-1166.465
513067.751,4254911.001,-1166.704
513067.751,4254711.001,-1168.000
513067.751,4254511.001,-1171.212
513067.751,4254311.001,-1175.626
513067.751,4254111.001,-1182.411
513067.751,4253911.001,-1184.688
513067.751,4253711.001,-1182.169
513067.751,4253511.001,-1177.613
513067.751,4253311.001,-1174.689
513067.751,4253111.001,-1173.229
513067.751,4252911.001,-1169.401
513067.751,4252711.001,-1165.876
513067.751,4252511.001,-1163.394
513067.751,4252311.001,-1159.769
513067.751,4252111.001,-1149.610
513067.751,4251911.001,-1135.267
513067.751,4251711.001,-1122.489
513067.751,4251511.001,-1116.167
513067.751,4251311.001,-1112.214
513067.751,4251111.001,-1092.813
513067.751,4250911.001,-1080.610
513067.751,4250711.001,-1069.270
513067.751,4250511.001,-1053.012
513067.751,4250311.001,-1043.359
513067.751,4250111.001,-1055.203
513067.751,4249911.001,-1037.245
513067.751,4249711.001,-1034.323
513067.751,4249511.001,-1041.871
513067.751,4249311.001,-1027.971
513067.751,4249111.001,-1028.727
513067.751,4248911.001,-1027.965
513067.751,4248711.001,-1020.111
513067.751,4248511.001,-1017.130
513067.751,4248311.001,-1022.909
513067.751,4248111.001,-1021.569
513067.751,4247911.001,-1030.009
513067.751,4247711.001,-1051.849
513067.751,4247511.001,-1072.076
513067.751,4247311.001,-1074.476
513067.751,4247111.001,-1068.375
513067.751,4246911.001,-1061.760
513067.751,4246711.001,-1055.714
513067.751,4246511.001,-1048.980
513067.751,4246311.001,-1046.251
513067.751,4246111.001,-1038.086
513067.751,4245911.001,-1035.777
513067.751,4245711.001,-1033.547
513067.751,4245511.001,-1029.948
513067.751,4245311.001,-1025.048
513067.751,4245111.001,-1021.470
513067.751,4244911.001,-1019.776
513067.751,4244711.001,-1015.280
513067.751,4244511.001,-1001.404
513067.751,4244311.001,-996.466
513067.751,4244111.001,-994.564
513067.751,4243911.001,-989.635
513067.751,4243711.001,-985.288
513067.751,4243511.001,-982.861
513067.751,4243311.001,-979.649
513067.751,4243111.001,-976.604
513067.751,4242911.001,-973.333
513067.751,4242711.001,-969.412
513067.751,4242511.001,-970.773
513067.751,4242311.001,-969.174
513067.751,4242111.001,-952.586
513067.751,4241911.001,-946.907
513067.751,4241711.001,-944.066
513067.751,4241511.001,-942.049
513067.751,4241311.001,-938.509
513067.751,4241111.001,-939.622
513067.751,4240911.001,-933.170
513067.751,4240711.001,-924.982
513067.751,4240511.001,-904.250
513067.751,4240311.001,-881.153
513067.751,4240111.001,-864.883
513067.751,4239911.001,-849.245
513067.751,4239711.001,-836.174
513067.751,4239511.001,-824.058
513067.751,4239311.001,-812.391
513067.751,4239111.001,-801.189
513067.751,4238911.001,-786.982
513067.751,4238711.001,-762.213
513067.751,4238511.001,-732.956
513067.751,4238311.001,-697.123
513067.751,4238111.001,-723.042
513067.751,4237911.001,-762.443
513067.751,4237711.001,-781.515
513067.751,4237511.001,-807.214
513067.751,4237311.001,-850.844
513067.751,4237111.001,-872.553
513067.751,4236911.001,-882.448
513067.751,4236711.001,-883.421
513067.751,4236511.001,-883.377
513067.751,4236311.001,-874.350
513067.751,4236111.001,-867.842
513067.751,4235911.001,-827.684
513067.751,4235711.001,-753.072
513067.751,4235511.001,-715.724
513067.751,4235311.001,-705.523
513067.751,4235111.001,-680.409
513067.751,4234911.001,-641.289
513067.751,4234711.001,-586.827
513067.751,4231711.001,-587.847
513067.751,4231511.001,-628.171
513067.751,4231311.001,-631.296
513067.751,4231111.001,-635.460
513067.751,4230911.001,-628.916
513067.751,4230711.001,-600.592
513067.751,4230511.001,-598.330
513067.751,4230311.001,-594.057
513067.751,4230111.001,-591.622
513067.751,4229911.001,-574.753
513267.751,4276311.001,-688.711
513267.751,4276111.001,-683.188
513267.751,4275911.001,-665.448
513267.751,4275711.001,-677.433
513267.751,4275511.001,-647.987
513267.751,4275311.001,-669.304
513267.751,4275111.001,-671.047
513267.751,4274911.001,-644.227
513267.751,4274711.001,-636.800
513267.751,4274511.001,-623.118
513267.751,4274311.001,-621.750
513267.751,4274111.001,-604.954
513267.751,4273911.001,-602.719
513267.751,4273711.001,-597.440
513267.751,4273511.001,-580.704
513267.751,4273311.001,-572.878
513267.751,4271911.001,-600.807
513267.751,4271711.001,-619.299
513267.751,4271511.001,-641.678
513267.751,4271311.001,-655.125
513267.751,4271111.001,-672.221
513267.751,4270911.001,-687.315
513267.751,4270711.001,-703.040
513267.751,4270511.001,-714.386
513267.751,4270311.001,-727.032
513267.751,4270111.001,-741.638
513267.751,4269911.001,-758.181
513267.751,4269711.001,-785.848
513267.751,4269511.001,-808.225
513267.751,4269311.001,-828.479
513267.751,4269111.001,-851.551
513267.751,4268911.001,-878.100
513267.751,4268711.001,-904.222
513267.751,4268511.001,-923.186
513267.751,4268311.001,-949.422
513267.751,4268111.001,-969.310
513267.751,4267911.001,-990.668
513267.751,4267711.001,-1018.040
513267.751,4267511.001,-1036.998
513267.751,4267311.001,-1061.909
513267.751,4267111.001,-1088.525
513267.751,4266911.001,-1111.973
513267.751,4266711.001,-1134.027
513267.751,4266511.001,-1148.455
513267.751,4266311.001,-1152.811
513267.751,4266111.001,-1153.063
513267.751,4265911.001,-1156.325
513267.751,4265711.001,-1159.927
513267.751,4265511.001,-1163.096
513267.751,4265311.001,-1171.982
513267.751,4265111.001,-1175.917
513267.751,4264911.001,-1173.897
513267.751,4264711.001,-1173.200
513267.751,4264511.001,-1170.504
513267.751,4264311.001,-1171.824
513267.751,4264111.001,-1173.728
513267.751,4263911.001,-1173.990
513267.751,4263711.001,-1170.275
513267.751,4263511.001,-1171.992
513267.751,4263311.001,-1170.814
513267.751,4263111.001,-1172.932
513267.751,4262911.001,-1171.955
513267.751,4262711.001,-1169.824
513267.751,4262511.001,-1171.397
513267.751,4262311.001,-1179.480
513267.751,4262111.001,-1184.427
513267.751,4261911.001,-1192.039
513267.751,4261711.001,-1189.583
513267.751,4261511.001,-1189.407
513267.751,4261311.001,-1187.978
513267.751,4261111.001,-1190.115
513267.751,4260911.001,-1191.445
513267.751,4260711.001,-1197.299
513267.751,4260511.001,-1195.945
513267.751,4260311.001,-1194.688
513267.751,4260111.001,-1197.887
513267.751,4259911.001,-1195.843
513267.751,4259711.001,-1196.053
513267.751,4259511.001,-1196.897
513267.751,4259311.001,-1199.215
513267.751,4259111.001,-1200.935
513267.751,4258911.001,-1198.110
513267.751,4258711.001,-1199.268
513267.751,4258511.001,-1201.483
513267.751,4258311.001,-1210.152
513267.751,4258111.001,-1215.905
513267.751,4257911.001,-1213.588
513267.751,4257711.001,-1211.358
513267.751,4257511.001,-1231.953
513267.751,4257311.001,-1261.915
513267.751,4257111.001,-1271.775
513267.751,4256911.001,-1289.820
513267.751,4256711.001,-1311.930
513267.751,4256511.001,-1309.381
513267.751,4256311.001,-1297.140
513267.751,4256111.001,-1286.874
513267.751,4255911.001,-1237.988
513267.751,4255711.001,-1201.145
513267.751,4255511.001,-1187.894
513267.751,4255311.001,-1187.084
513267.751,4255111.001,-1176.135
513267.751,4254911.001,-1176.126
513267.751,4254711.001,-1183.682
513267.751,4254511.001,-1190.600
513267.751,4254311.001,-1197.858
513267.751,4254111.001,-1193.965
513267.751,4253911.001,-1193.325
513267.751,4253711.001,-1188.353
513267.751,4253511.001,-1182.404
513267.751,4253311.001,-1177.930
513267.751,4253111.001,-1174.169
513267.751,4252911.001,-1171.699
513267.751,4252711.001,-1165.953
513267.751,4252511.001,-1157.310
513267.751,4252311.001,-1148.545
513267.751,4252111.001,-1131.010
513267.751,4251911.001,-1123.497
513267.751,4251711.001,-1101.630
513267.751,4251511.001,-1092.680
513267.751,4251311.001,-1066.731
513267.751,4251111.001,-1067.600
513267.751,4250911.001,-1066.938
513267.751,4250711.001,-1055.436
513267.751,4250511.001,-1046.570
513267.751,4250311.001,-1043.573
513267.751,4250111.001,-1045.834
513267.751,4249911.001,-1037.542
513267.751,4249711.001,-1033.348
513267.751,4249511.001,-1038.728
513267.751,4249311.001,-1028.498
513267.751,4249111.001,-1027.645
513267.751,4248911.001,-1026.478
513267.751,4248711.001,-1020.592
513267.751,4248511.001,-1019.227
513267.751,4248311.001,-1020.013
513267.751,4248111.001,-1022.128
513267.751,4247911.001,-1041.295
513267.751,4247711.001,-1052.613
513267.751,4247511.001,-1066.887
513267.751,4247311.001,-1073.142
513267.751,4247111.001,-1068.169
513267.751,4246911.001,-1060.571
513267.751,4246711.001,-1054.823
513267.751,4246511.001,-1051.297
513267.751,4246311.001,-1047.579
513267.751,4246111.001,-1040.200
513267.751,4245911.001,-1037.174
513267.751,4245711.001,-1035.133
513267.751,4245511.001,-1032.145
513267.751,4245311.001,-1029.145
513267.751,4245111.001,-1027.436
513267.751,4244911.001,-1023.705
513267.751,4244711.001,-1019.644
513267.751,4244511.001,-1013.083
513267.751,4244311.001,-1004.015
513267.751,4244111.001,-1000.982
513267.751,4243911.001,-997.333
513267.751,4243711.001,-993.098
513267.751,4243511.001,-990.772
513267.751,4243311.001,-989.200
513267.751,4243111.001,-984.893
513267.751,4242911.001,-980.060
513267.751,4242711.001,-977.491
513267.751,4242511.001,-975.595
513267.751,4242311.001,-966.102
513267.751,4242111.001,-954.868
513267.751,4241911.001,-955.925
513267.751,4241711.001,-954.910
513267.751,4241511.001,-953.661
513267.751,4241311.001,-955.568
513267.751,4241111.001,-949.592
513267.751,4240911.001,-942.028
513267.751,4240711.001,-930.523
513267.751,4240511.001,-916.758
513267.751,4240311.001,-898.194
513267.751,4240111.001,-882.040
513267.751,4239911.001,-865.058
513267.751,4239711.001,-842.709
513267.751,4239511.001,-826.528
513267.751,4239311.001,-808.974
513267.751,4239111.001,-790.893
513267.751,4238911.001,-773.845
513267.751,4238711.001,-755.437
513267.751,4238511.001,-733.972
513267.751,4238311.001,-692.587
513267.751,4238111.001,-681.333
513267.751,4237911.001,-717.083
513267.751,4237711.001,-763.328
513267.751,4237511.001,-780.438
513267.751,4237311.001,-813.524
513267.751,4237111.001,-844.497
513267.751,4236911.001,-871.108
513267.751,4236711.001,-878.124
513267.751,4236511.001,-878.513
513267.751,4236311.001,-877.880
513267.751,4236111.001,-871.795
513267.751,4235911.001,-864.625
513267.751,4235711.001,-813.867
513267.751,4235511.001,-744.097
513267.751,4235311.001,-721.198
513267.751,4235111.001,-687.235
513267.751,4234911.001,-657.485
513267.751,4234711.001,-601.600
513267.751,4234511.001,-573.716
513267.751,4231711.001,-630.042
513267.751,4231511.001,-655.042
513267.751,4231311.001,-648.241
513267.751,4231111.001,-596.117
513267.751,4230911.001,-575.987
513267.751,4230311.001,-573.833
513267.751,4230111.001,-578.186
513267.751,4229911.001,-580.390
513467.751,4276311.001,-739.345
513467.751,4276111.001,-736.533
513467.751,4275911.001,-730.489
513467.751,4275711.001,-725.800
513467.751,4275511.001,-716.677
513467.751,4275311.001,-718.308
513467.751,4275111.001,-712.006
513467.751,4274911.001,-697.003
513467.751,4274711.001,-677.972
513467.751,4274511.001,-662.313
513467.751,4274311.001,-651.673
513467.751,4274111.001,-634.666
513467.751,4273911.001,-629.229
513467.751,4273711.001,-613.638
513467.751,4273511.001,-610.006
513467.751,4273311.001,-595.106
513467.751,4272911.001,-579.149
513467.751,4272711.001,-594.573
513467.751,4272511.001,-578.499
513467.751,4272111.001,-579.218
513467.751,4271911.001,-620.763
513467.751,4271711.001,-656.313
513467.751,4271511.001,-669.853
513467.751,4271311.001,-688.258
513467.751,4271111.001,-693.696
513467.751,4270911.001,-708.309
513467.751,4270711.001,-726.743
513467.751,4270511.001,-738.341
513467.751,4270311.001,-754.013
513467.751,4270111.001,-762.642
513467.751,4269911.001,-781.875
513467.751,4269711.001,-797.162
513467.751,4269511.001,-818.633
513467.751,4269311.001,-837.544
513467.751,4269111.001,-858.479
513467.751,4268911.001,-880.873
513467.751,4268711.001,-909.895
513467.751,4268511.001,-936.289
513467.751,4268311.001,-960.250
513467.751,4268111.001,-978.359
513467.751,4267911.001,-1000.960
513467.751,4267711.001,-1018.140
513467.751,4267511.001,-1035.939
513467.751,4267311.001,-1062.463
513467.751,4267111.001,-1086.773
513467.751,4266911.001,-1106.784
513467.751,4266711.001,-1127.034
513467.751,4266511.001,-1141.663
513467.751,4266311.001,-1148.703
513467.751,4266111.001,-1153.012
513467.751,4265911.001,-1155.693
513467.751,4265711.001,-1158.970
513467.751,4265511.001,-1167.553
513467.751,4265311.001,-1174.273
513467.751,4265111.001,-1179.917
513467.751,4264911.001,-1176.686
513467.751,4264711.001,-1176.540
513467.751,4264511.001,-1176.728
513467.751,4264311.001,-1176.372
513467.751,4264111.001,-1176.978
513467.751,4263911.001,-1177.809
513467.751,4263711.001,-1175.069
513467.751,4263511.001,-1174.772
513467.751,4263311.001,-1175.116
513467.751,4263111.001,-1174.032
513467.751,4262911.001,-1171.290
513467.751,4262711.001,-1176.071
513467.751,4262511.001,-1175.933
513467.751,4262311.001,-1177.759
513467.751,4262111.001,-1182.769
513467.751,4261911.001,-1192.922
513467.751,4261711.001,-1196.498
513467.751,4261511.001,-1194.379
513467.751,4261311.001,-1195.458
513467.751,4261111.001,-1196.280
513467.751,4260911.001,-1200.769
513467.751,4260711.001,-1203.581
513467.751,4260511.001,-1201.183
513467.751,4260311.001,-1197.126
513467.751,4260111.001,-1198.375
513467.751,4259911.001,-1199.731
513467.751,4259711.001,-1199.010
513467.751,4259511.001,-1203.074
513467.751,4259311.001,-1205.192
513467.751,4259111.001,-1201.654
513467.751,4258911.001,-1202.230
513467.751,4258711.001,-1204.106
513467.751,4258511.001,-1205.428
513467.751,4258311.001,-1208.738
513467.751,4258111.001,-1213.225
513467.751,4257911.001,-1216.281
513467.751,4257711.001,-1221.476
513467.751,4257511.001,-1208.622
513467.751,4257311.001,-1239.376
513467.751,4257111.001,-1287.919
513467.751,4256911.001,-1312.647
513467.751,4256711.001,-1314.009
513467.751,4256511.001,-1307.438
513467.751,4256311.001,-1295.664
513467.751,4256111.001,-1249.721
513467.751,4255911.001,-1214.615
513467.751,4255711.001,-1220.708
513467.751,4255511.001,-1193.189
513467.751,4255311.001,-1192.217
513467.751,4255111.001,-1202.624
513467.751,4254911.001,-1203.630
513467.751,4254711.001,-1206.857
513467.751,4254511.001,-1207.590
513467.751,4254311.001,-1206.164
513467.751,4254111.001,-1200.141
513467.751,4253911.001,-1195.740
513467.751,4253711.001,-1193.570
513467.751,4253511.001,-1187.180
513467.751,4253311.001,-1169.085
513467.751,4253111.001,-1154.938
513467.751,4252911.001,-1151.148
513467.751,4252711.001,-1138.685
513467.751,4252511.001,-1128.168
513467.751,4252311.001,-1121.299
513467.751,4252111.001,-1104.409
513467.751,4251911.001,-1100.837
513467.751,4251711.001,-1085.874
513467.751,4251511.001,-1077.777
513467.751,4251311.001,-1061.220
513467.751,4251111.001,-1060.147
513467.751,4250911.001,-1064.167
513467.751,4250711.001,-1053.963
513467.751,4250511.001,-1047.898
513467.751,4250311.001,-1047.062
513467.751,4250111.001,-1045.562
513467.751,4249911.001,-1038.280
513467.751,4249711.001,-1034.101
513467.751,4249511.001,-1035.362
513467.751,4249311.001,-1030.963
513467.751,4249111.001,-1029.294
513467.751,4248911.001,-1025.458
513467.751,4248711.001,-1021.674
513467.751,4248511.001,-1019.833
513467.751,4248311.001,-1021.099
513467.751,4248111.001,-1030.216
513467.751,4247911.001,-1040.568
513467.751,4247711.001,-1039.716
513467.751,4247511.001,-1047.999
513467.751,4247311.001,-1068.987
513467.751,4247111.001,-1068.234
513467.751,4246911.001,-1060.622
513467.751,4246711.001,-1053.807
513467.751,4246511.001,-1053.890
513467.751,4246311.001,-1047.718
513467.751,4246111.001,-1044.711
513467.751,4245911.001,-1042.236
513467.751,4245711.001,-1039.363
513467.751,4245511.001,-1036.432
513467.751,4245311.001,-1033.426
513467.751,4245111.001,-1029.393
513467.751,4244911.001,-1025.236
513467.751,4244711.001,-1022.552
513467.751,4244511.001,-1019.040
513467.751,4244311.001,-1014.065
513467.751,4244111.001,-1011.116
513467.751,4243911.001,-1007.231
513467.751,4243711.001,-1001.209
513467.751,4243511.001,-999.234
513467.751,4243311.001,-995.263
513467.751,4243111.001,-990.977
513467.751,4242911.001,-986.160
513467.751,4242711.001,-983.249
513467.751,4242511.001,-979.600
513467.751,4242311.001,-968.638
513467.751,4242111.001,-964.535
513467.751,4241911.001,-965.286
513467.751,4241711.001,-965.485
513467.751,4241511.001,-962.870
513467.751,4241311.001,-957.574
513467.751,4241111.001,-953.379
513467.751,4240911.001,-945.681
513467.751,4240711.001,-935.822
513467.751,4240511.001,-922.119
513467.751,4240311.001,-907.839
513467.751,4240111.001,-894.634
513467.751,4239911.001,-874.405
513467.751,4239711.001,-854.436
513467.751,4239511.001,-838.797
513467.751,4239311.001,-823.680
513467.751,4239111.001,-804.520
513467.751,4238911.001,-771.702
513467.751,4238711.001,-744.007
513467.751,4238511.001,-707.226
513467.751,4238311.001,-680.308
513467.751,4238111.001,-655.265
513467.751,4237911.001,-667.913
513467.751,4237711.001,-709.689
513467.751,4237511.001,-752.172
513467.751,4237311.001,-772.920
513467.751,4237111.001,-813.976
513467.751,4236911.001,-839.894
513467.751,4236711.001,-867.502
513467.751,4236511.001,-871.333
513467.751,4236311.001,-876.081
513467.751,4236111.001,-872.376
513467.751,4235911.001,-866.508
513467.751,4235711.001,-848.239
513467.751,4235511.001,-781.987
513467.751,4235311.001,-734.150
513467.751,4235111.001,-704.304
513467.751,4234911.001,-653.887
513467.751,4234711.001,-635.851
513467.751,4234511.001,-612.450
513467.751,4234311.001,-583.029
513467.751,4232111.001,-580.391
513467.751,4231911.001,-605.821
513467.751,4231711.001,-664.521
513467.751,4231511.001,-654.500
513467.751,4231311.001,-615.856
513467.751,4231111.001,-598.249
513467.751,4230911.001,-586.311
513467.751,4230711.001,-572.557
513667.751,4276311.001,-786.561
513667.751,4276111.001,-776.232
513667.751,4275911.001,-772.916
513667.751,4275711.001,-754.477
513667.751,4275511.001,-762.670
513667.751,4275311.001,-753.131
513667.751,4275111.001,-743.822
513667.751,4274911.001,-728.888
513667.751,4274711.001,-709.330
513667.751,4274511.001,-691.982
513667.751,4274311.001,-677.437
513667.751,4274111.001,-669.097
513667.751,4273911.001,-658.989
513667.751,4273711.001,-638.631
513667.751,4273511.001,-637.713
513667.751,4273311.001,-615.779
513667.751,4273111.001,-613.688
513667.751,4272911.001,-601.767
513667.751,4272711.001,-625.686
513667.751,4272511.001,-616.704
513667.751,4272311.001,-593.124
513667.751,4272111.001,-611.066
513667.751,4271911.001,-653.135
513667.751,4271711.001,-677.937
513667.751,4271511.001,-697.402
513667.751,4271311.001,-715.249
513667.751,4271111.001,-730.067
513667.751,4270911.001,-729.314
513667.751,4270711.001,-745.502
513667.751,4270511.001,-760.231
513667.751,4270311.001,-775.159
513667.751,4270111.001,-788.108
513667.751,4269911.001,-801.451
513667.751,4269711.001,-819.219
513667.751,4269511.001,-834.622
513667.751,4269311.001,-850.744
513667.751,4269111.001,-866.079
513667.751,4268911.001,-883.275
513667.751,4268711.001,-912.545
513667.751,4268511.001,-938.329
513667.751,4268311.001,-965.412
513667.751,4268111.001,-988.437
513667.751,4267911.001,-1006.657
513667.751,4267711.001,-1026.897
513667.751,4267511.001,-1044.570
513667.751,4267311.001,-1067.331
513667.751,4267111.001,-1081.515
513667.751,4266911.001,-1103.806
513667.751,4266711.001,-1122.426
513667.751,4266511.001,-1140.078
513667.751,4266311.001,-1145.259
513667.751,4266111.001,-1152.015
513667.751,4265911.001,-1155.444
513667.751,4265711.001,-1161.035
513667.751,4265511.001,-1168.419
513667.751,4265311.001,-1174.313
513667.751,4265111.001,-1180.272
513667.751,4264911.001,-1179.632
513667.751,4264711.001,-1181.563
513667.751,4264511.001,-1177.237
513667.751,4264311.001,-1177.139
513667.751,4264111.001,-1180.227
513667.751,4263911.001,-1181.266
513667.751,4263711.001,-1178.924
513667.751,4263511.001,-1177.153
513667.751,4263311.001,-1176.999
513667.751,4263111.001,-1176.175
513667.751,4262911.001,-1181.030
513667.751,4262711.001,-1180.694
513667.751,4262511.001,-1179.101
513667.751,4262311.001,-1183.745
513667.751,4262111.001,-1187.732
513667.751,4261911.001,-1200.545
513667.751,4261711.001,-1205.742
513667.751,4261511.001,-1204.068
513667.751,4261311.001,-1202.055
513667.751,4261111.001,-1206.238
513667.751,4260911.001,-1207.790
513667.751,4260711.001,-1208.044
513667.751,4260511.001,-1207.119
513667.751,4260311.001,-1202.631
513667.751,4260111.001,-1203.077
513667.751,4259911.001,-1206.438
513667.751,4259711.001,-1201.610
513667.751,4259511.001,-1203.204
513667.751,4259311.001,-1207.366
513667.751,4259111.001,-1207.829
513667.751,4258911.001,-1210.024
513667.751,4258711.001,-1212.507
513667.751,4258511.001,-1210.957
513667.751,4258311.001,-1206.512
513667.751,4258111.001,-1208.186
513667.751,4257911.001,-1217.720
513667.751,4257711.001,-1226.276
513667.751,4257511.001,-1229.695
513667.751,4257311.001,-1229.539
513667.751,4257111.001,-1299.798
513667.751,4256911.001,-1313.232
513667.751,4256711.001,-1309.261
513667.751,4256511.001,-1305.349
513667.751,4256311.001,-1280.877
513667.751,4256111.001,-1227.652
513667.751,4255911.001,-1208.212
513667.751,4255711.001,-1208.579
513667.751,4255511.001,-1209.461
513667.751,4255311.001,-1224.296
513667.751,4255111.001,-1225.513
513667.751,4254911.001,-1222.553
513667.751,4254711.001,-1222.497
513667.751,4254511.001,-1215.583
513667.751,4254311.001,-1211.505
513667.751,4254111.001,-1203.289
513667.751,4253911.001,-1177.482
513667.751,4253711.001,-1158.375
513667.751,4253511.001,-1145.528
513667.751,4253311.001,-1132.692
513667.751,4253111.001,-1123.357
513667.751,4252911.001,-1126.061
513667.751,4252711.001,-1119.819
513667.751,4252511.001,-1106.718
513667.751,4252311.001,-1103.460
513667.751,4252111.001,-1091.820
513667.751,4251911.001,-1084.940
513667.751,4251711.001,-1077.298
513667.751,4251511.001,-1075.173
513667.751,4251311.001,-1065.168
513667.751,4251111.001,-1061.960
513667.751,4250911.001,-1062.053
513667.751,4250711.001,-1053.196
513667.751,4250511.001,-1048.296
513667.751,4250311.001,-1052.526
513667.751,4250111.001,-1048.494
513667.751,4249911.001,-1038.229
513667.751,4249711.001,-1035.251
513667.751,4249511.001,-1035.165
513667.751,4249311.001,-1032.932
513667.751,4249111.001,-1031.208
513667.751,4248911.001,-1026.136
513667.751,4248711.001,-1023.809
513667.751,4248511.001,-1022.136
513667.751,4248311.001,-1026.093
513667.751,4248111.001,-1031.073
513667.751,4247911.001,-1025.489
513667.751,4247711.001,-1023.711
513667.751,4247511.001,-1040.274
513667.751,4247311.001,-1065.407
513667.751,4247111.001,-1067.904
513667.751,4246911.001,-1060.940
513667.751,4246711.001,-1056.362
513667.751,4246511.001,-1054.117
513667.751,4246311.001,-1048.429
513667.751,4246111.001,-1045.842
513667.751,4245911.001,-1042.647
513667.751,4245711.001,-1039.824
513667.751,4245511.001,-1037.422
513667.751,4245311.001,-1034.600
513667.751,4245111.001,-1030.424
513667.751,4244911.001,-1027.866
513667.751,4244711.001,-1024.832
513667.751,4244511.001,-1020.566
513667.751,4244311.001,-1016.658
513667.751,4244111.001,-1012.943
513667.751,4243911.001,-1011.071
513667.751,4243711.001,-1008.425
513667.751,4243511.001,-1004.684
513667.751,4243311.001,-1002.644
513667.751,4243111.001,-995.464
513667.751,4242911.001,-989.722
513667.751,4242711.001,-987.770
513667.751,4242511.001,-981.420
513667.751,4242311.001,-975.350
513667.751,4242111.001,-975.318
513667.751,4241911.001,-971.789
513667.751,4241711.001,-969.997
513667.751,4241511.001,-964.023
513667.751,4241311.001,-959.917
513667.751,4241111.001,-956.708
513667.751,4240911.001,-949.680
513667.751,4240711.001,-936.570
513667.751,4240511.001,-924.975
513667.751,4240311.001,-913.403
513667.751,4240111.001,-899.366
513667.751,4239911.001,-887.118
513667.751,4239711.001,-868.533
513667.751,4239511.001,-853.628
513667.751,4239311.001,-842.652
513667.751,4239111.001,-835.414
513667.751,4238911.001,-807.898
513667.751,4238711.001,-770.032
513667.751,4238511.001,-730.174
513667.751,4238311.001,-702.658
513667.751,4238111.001,-655.061
513667.751,4237911.001,-637.388
513667.751,4237711.001,-665.214
513667.751,4237511.001,-682.373
513667.751,4237311.001,-739.253
513667.751,4237111.001,-774.495
513667.751,4236911.001,-773.233
513667.751,4236711.001,-826.886
513667.751,4236511.001,-860.992
513667.751,4236311.001,-866.184
513667.751,4236111.001,-846.337
513667.751,4235911.001,-863.462
513667.751,4235711.001,-860.149
513667.751,4235511.001,-843.032
513667.751,4235311.001,-775.343
513667.751,4235111.001,-742.115
513667.751,4234911.001,-711.119
513667.751,4234711.001,-676.039
513667.751,4234511.001,-635.742
513667.751,4234311.001,-596.783
513667.751,4234111.001,-575.826
513667.751,4233311.001,-574.914
513667.751,4232711.001,-598.094
513667.751,4232511.001,-611.401
513667.751,4232311.001,-627.174
513667.751,4232111.001,-638.711
513667.751,4231911.001,-651.474
513667.751,4231711.001,-670.367
513667.751,4231511.001,-650.723
