523842.751,4229686.001,-50.630
523892.751,4232336.001,-241.316
523892.751,4232286.001,-231.358
523892.751,4232236.001,-219.187
523892.751,4232186.001,-210.376
523892.751,4232136.001,-215.656
523892.751,4232086.001,-224.620
523892.751,4232036.001,-227.800
523892.751,4231986.001,-228.488
523892.751,4231936.001,-226.900
523892.751,4231886.001,-223.079
523892.751,4231836.001,-221.421
523892.751,4231786.001,-222.463
523892.751,4231736.001,-222.632
523892.751,4231686.001,-219.503
523892.751,4231636.001,-212.013
523892.751,4231586.001,-201.612
523892.751,4231536.001,-189.706
523892.751,4231486.001,-178.783
523892.751,4231436.001,-169.981
523892.751,4231386.001,-160.892
523892.751,4231336.001,-154.350
523892.751,4231286.001,-159.202
523892.751,4231236.001,-166.852
523892.751,4231186.001,-169.550
523892.751,4231136.001,-164.044
523892.751,4231086.001,-157.943
523892.751,4231036.001,-159.490
523892.751,4230986.001,-163.623
523892.751,4230936.001,-172.253
523892.751,4230886.001,-176.757
523892.751,4230836.001,-176.791
523892.751,4230786.001,-178.602
523892.751,4230736.001,-178.383
523892.751,4230686.001,-174.280
523892.751,4230636.001,-168.278
523892.751,4230586.001,-160.250
523892.751,4230536.001,-150.833
523892.751,4230486.001,-144.627
523892.751,4230436.001,-139.537
523892.751,4230386.001,-132.869
523892.751,4230336.001,-124.951
523892.751,4230286.001,-116.460
523892.751,4230236.001,-107.639
523892.751,4230186.001,-98.397
523892.751,4230136.001,-89.150
523892.751,4230086.001,-82.121
523892.751,4230036.001,-76.390
523892.751,4229986.001,-71.480
523892.751,4229936.001,-66.719
523892.751,4229886.001,-62.791
523892.751,4229836.001,-60.143
523892.751,4229786.001,-56.928
523892.751,4229736.001,-53.256
523892.751,4229686.001,-50.880
523942.751,4232286.001,-241.573
523942.751,4232236.001,-229.877
523942.751,4232186.001,-225.048
523942.751,4232136.001,-229.541
523942.751,4232086.001,-234.787
523942.751,4232036.001,-236.350
523942.751,4231986.001,-236.344
523942.751,4231936.001,-234.263
523942.751,4231886.001,-232.028
523942.751,4231836.001,-232.726
523942.751,4231786.001,-232.643
523942.751,4231736.001,-227.787
523942.751,4231686.001,-219.159
523942.751,4231636.001,-207.567
523942.751,4231586.001,-194.683
523942.751,4231536.001,-185.054
523942.751,4231486.001,-179.560
523942.751,4231436.001,-172.831
523942.751,4231386.001,-163.649
523942.751,4231336.001,-158.587
523942.751,4231286.001,-168.124
523942.751,4231236.001,-177.658
523942.751,4231186.001,-181.090
523942.751,4231136.001,-175.369
523942.751,4231086.001,-172.486
523942.751,4231036.001,-178.707
523942.751,4230986.001,-182.053
523942.751,4230936.001,-187.431
523942.751,4230886.001,-190.990
523942.751,4230836.001,-189.470
523942.751,4230786.001,-188.393
523942.751,4230736.001,-187.420
523942.751,4230686.001,-184.058
523942.751,4230636.001,-177.746
523942.751,4230586.001,-166.617
523942.751,4230536.001,-158.358
523942.751,4230486.001,-153.193
523942.751,4230436.001,-146.333
523942.751,4230386.001,-137.342
523942.751,4230336.001,-128.224
523942.751,4230286.001,-119.173
523942.751,4230236.001,-109.794
523942.751,4230186.001,-100.500
523942.751,4230136.001,-91.287
523942.751,4230086.001,-83.709
523942.751,4230036.001,-78.251
523942.751,4229986.001,-72.663
523942.751,4229936.001,-67.827
523942.751,4229886.001,-65.708
523942.751,4229836.001,-62.863
523942.751,4229786.001,-58.838
523942.751,4229736.001,-54.886
523942.751,4229686.001,-52.387
523942.751,4229636.001,-52.934
523992.751,4232236.001,-246.840
523992.751,4232186.001,-243.610
523992.751,4232136.001,-243.563
523992.751,4232086.001,-244.010
523992.751,4232036.001,-244.637
523992.751,4231986.001,-243.763
523992.751,4231936.001,-242.080
523992.751,4231886.001,-241.380
523992.751,4231836.001,-241.317
523992.751,4231786.001,-237.810
523992.751,4231736.001,-229.560
523992.751,4231686.001,-218.940
523992.751,4231636.001,-203.750
523992.751,4231586.001,-194.497
523992.751,4231536.001,-194.513
523992.751,4231486.001,-194.270
523992.751,4231436.001,-185.330
523992.751,4231386.001,-173.030
523992.751,4231336.001,-168.320
523992.751,4231286.001,-177.293
523992.751,4231236.001,-187.677
523992.751,4231186.001,-194.360
523992.751,4231136.001,-191.713
523992.751,4231086.001,-191.910
523992.751,4231036.001,-198.660
523992.751,4230986.001,-201.077
523992.751,4230936.001,-202.620
523992.751,4230886.001,-204.170
523992.751,4230836.001,-200.907
523992.751,4230786.001,-198.383
523992.751,4230736.001,-195.490
523992.751,4230686.001,-190.760
523992.751,4230636.001,-184.147
523992.751,4230586.001,-176.900
523992.751,4230536.001,-169.940
523992.751,4230486.001,-162.777
523992.751,4230436.001,-153.560
523992.751,4230386.001,-143.133
523992.751,4230336.001,-132.987
523992.751,4230286.001,-124.280
523992.751,4230236.001,-116.160
523992.751,4230186.001,-108.233
523992.751,4230136.001,-100.620
523992.751,4230086.001,-94.750
523992.751,4230036.001,-91.263
523992.751,4229986.001,-84.700
523992.751,4229936.001,-78.513
523992.751,4229886.001,-71.650
523992.751,4229836.001,-63.510
523992.751,4229786.001,-60.113
523992.751,4229736.001,-56.027
523992.751,4229686.001,-51.550
523992.751,4229636.001,-52.227
524042.751,4231836.001,-246.711
524042.751,4231786.001,-241.317
524042.751,4231736.001,-239.168
524042.751,4231686.001,-230.228
524042.751,4231636.001,-212.707
524042.751,4231586.001,-210.652
524042.751,4231536.001,-211.530
524042.751,4231486.001,-205.560
524042.751,4231436.001,-192.186
524042.751,4231386.001,-184.151
524042.751,4231336.001,-184.390
524042.751,4231286.001,-191.098
524042.751,4231236.001,-199.898
524042.751,4231186.001,-206.667
524042.751,4231136.001,-205.653
524042.751,4231086.001,-208.163
524042.751,4231036.001,-215.483
524042.751,4230986.001,-217.574
524042.751,4230936.001,-217.876
524042.751,4230886.001,-215.947
524042.751,4230836.001,-210.329
524042.751,4230786.001,-204.713
524042.751,4230736.001,-198.703
524042.751,4230686.001,-192.730
524042.751,4230636.001,-186.474
524042.751,4230586.001,-180.150
524042.751,4230536.001,-173.676
524042.751,4230486.001,-166.770
524042.751,4230436.001,-159.297
524042.751,4230386.001,-150.822
524042.751,4230336.001,-142.014
524042.751,4230286.001,-134.287
524042.751,4230236.001,-127.391
524042.751,4230186.001,-120.477
524042.751,4230136.001,-112.850
524042.751,4230086.001,-105.097
524042.751,4230036.001,-98.189
524042.751,4229986.001,-91.733
524042.751,4229936.001,-84.030
524042.751,4229886.001,-70.639
524042.751,4229836.001,-60.067
524042.751,4229786.001,-56.512
524042.751,4229736.001,-55.717
524042.751,4229686.001,-54.467
524042.751,4229636.001,-52.178
524092.751,4231786.001,-246.660
524092.751,4231736.001,-249.009
524092.751,4231686.001,-241.566
524092.751,4231636.001,-230.140
524092.751,4231586.001,-231.486
524092.751,4231536.001,-227.682
524092.751,4231486.001,-213.583
524092.751,4231436.001,-201.487
524092.751,4231386.001,-197.609
524092.751,4231336.001,-197.560
524092.751,4231286.001,-206.074
524092.751,4231236.001,-215.690
524092.751,4231186.001,-220.673
524092.751,4231136.001,-221.456
524092.751,4231086.001,-225.590
524092.751,4231036.001,-231.173
524092.751,4230986.001,-230.581
524092.751,4230936.001,-225.457
524092.751,4230886.001,-219.177
524092.751,4230836.001,-212.864
524092.751,4230786.001,-206.237
524092.751,4230736.001,-199.067
524092.751,4230686.001,-192.119
524092.751,4230636.001,-185.071
524092.751,4230586.001,-178.287
524092.751,4230536.001,-171.588
524092.751,4230486.001,-163.983
524092.751,4230436.001,-157.610
524092.751,4230386.001,-151.809
524092.751,4230336.001,-145.082
524092.751,4230286.001,-136.820
524092.751,4230236.001,-127.269
524092.751,4230186.001,-117.484
524092.751,4230136.001,-107.683
524092.751,4230086.001,-98.331
524092.751,4230036.001,-90.300
524092.751,4229986.001,-84.013
524092.751,4229936.001,-78.748
524092.751,4229886.001,-73.894
524092.751,4229836.001,-68.610
524092.751,4229786.001,-64.396
524092.751,4229736.001,-59.737
524092.751,4229686.001,-52.177
524092.751,4229636.001,-48.041
524142.751,4231536.001,-240.113
524142.751,4231486.001,-222.660
524142.751,4231436.001,-216.627
524142.751,4231386.001,-213.570
524142.751,4231336.001,-208.780
524142.751,4231286.001,-216.070
524142.751,4231236.001,-231.193
524142.751,4231186.001,-239.480
524142.751,4231136.001,-241.910
524142.751,4231086.001,-243.067
524142.751,4231036.001,-240.550
524142.751,4230986.001,-233.217
524142.751,4230936.001,-225.857
524142.751,4230886.001,-218.840
524142.751,4230836.001,-210.427
524142.751,4230786.001,-204.147
524142.751,4230736.001,-196.290
524142.751,4230686.001,-185.997
524142.751,4230636.001,-176.487
524142.751,4230586.001,-166.910
524142.751,4230536.001,-159.117
524142.751,4230486.001,-150.483
524142.751,4230436.001,-143.890
524142.751,4230386.001,-141.023
524142.751,4230336.001,-137.080
524142.751,4230286.001,-129.740
524142.751,4230236.001,-119.047
524142.751,4230186.001,-108.923
524142.751,4230136.001,-99.550
524142.751,4230086.001,-89.507
524142.751,4230036.001,-79.710
524142.751,4229986.001,-71.700
524142.751,4229936.001,-66.413
524142.751,4229886.001,-65.240
524142.751,4229836.001,-65.900
524142.751,4229786.001,-64.070
524142.751,4229736.001,-59.187
524142.751,4229686.001,-53.480
524142.751,4229636.001,-51.017
524192.751,4231536.001,-246.396
524192.751,4231486.001,-237.963
524192.751,4231436.001,-236.479
524192.751,4231386.001,-229.306
524192.751,4231336.001,-223.833
524192.751,4231286.001,-234.510
524192.751,4231086.001,-246.646
524192.751,4231036.001,-238.660
524192.751,4230986.001,-229.336
524192.751,4230936.001,-220.739
524192.751,4230886.001,-212.507
524192.751,4230836.001,-202.362
524192.751,4230786.001,-191.798
524192.751,4230736.001,-183.603
524192.751,4230686.001,-175.746
524192.751,4230636.001,-165.663
524192.751,4230586.001,-154.593
524192.751,4230536.001,-145.068
524192.751,4230486.001,-136.972
524192.751,4230436.001,-129.280
524192.751,4230386.001,-126.006
524192.751,4230336.001,-124.684
524192.751,4230286.001,-122.143
524192.751,4230236.001,-113.938
524192.751,4230186.001,-104.911
524192.751,4230136.001,-95.720
524192.751,4230086.001,-85.490
524192.751,4230036.001,-76.637
524192.751,4229986.001,-70.387
524192.751,4229936.001,-65.578
524192.751,4229886.001,-61.651
524192.751,4229836.001,-59.013
524192.751,4229786.001,-57.369
524192.751,4229736.001,-54.620
524192.751,4229686.001,-50.527
524192.751,4229636.001,-47.792
524192.751,4229586.001,-46.440
524242.751,4231486.001,-247.150
524242.751,4231436.001,-248.482
524242.751,4231386.001,-242.280
524242.751,4231336.001,-241.050
524242.751,4231086.001,-240.607
524242.751,4231036.001,-230.253
524242.751,4230986.001,-219.708
524242.751,4230936.001,-208.888
524242.751,4230886.001,-198.687
524242.751,4230836.001,-189.551
524242.751,4230786.001,-180.424
524242.751,4230736.001,-172.497
524242.751,4230686.001,-166.153
524242.751,4230636.001,-158.533
524242.751,4230586.001,-147.410
524242.751,4230536.001,-136.073
524242.751,4230486.001,-126.724
524242.751,4230436.001,-119.387
524242.751,4230386.001,-114.533
524242.751,4230336.001,-112.094
524242.751,4230286.001,-111.750
524242.751,4230236.001,-107.407
524242.751,4230186.001,-99.470
524242.751,4230136.001,-91.323
524242.751,4230086.001,-82.897
524242.751,4230036.001,-76.220
524242.751,4229986.001,-72.073
524242.751,4229936.001,-68.313
524242.751,4229886.001,-64.124
524242.751,4229836.001,-59.860
524242.751,4229786.001,-55.704
524242.751,4229736.001,-52.080
524242.751,4229686.001,-49.150
524242.751,4229636.001,-47.176
524242.751,4229586.001,-46.378
524292.751,4231136.001,-242.960
524292.751,4231086.001,-230.630
524292.751,4231036.001,-217.270
524292.751,4230986.001,-206.473
524292.751,4230936.001,-195.410
524292.751,4230886.001,-185.010
524292.751,4230836.001,-178.163
524292.751,4230786.001,-173.153
524292.751,4230736.001,-167.650
524292.751,4230686.001,-159.997
524292.751,4230636.001,-151.167
524292.751,4230586.001,-142.430
524292.751,4230536.001,-133.963
524292.751,4230486.001,-124.550
524292.751,4230436.001,-115.730
524292.751,4230386.001,-108.073
524292.751,4230336.001,-102.903
524292.751,4230286.001,-100.760
524292.751,4230236.001,-99.383
524292.751,4230186.001,-94.633
524292.751,4230136.001,-87.610
524292.751,4230086.001,-81.640
524292.751,4230036.001,-76.967
524292.751,4229986.001,-72.070
524292.751,4229936.001,-66.913
524292.751,4229886.001,-62.417
524292.751,4229836.001,-58.820
524292.751,4229786.001,-55.780
524292.751,4229736.001,-53.417
524292.751,4229686.001,-50.910
524292.751,4229636.001,-48.447
524292.751,4229586.001,-47.223
524342.751,4231136.001,-239.696
524342.751,4231086.001,-224.358
524342.751,4231036.001,-209.737
524342.751,4230986.001,-196.674
524342.751,4230936.001,-186.851
524342.751,4230886.001,-179.257
524342.751,4230836.001,-172.207
524342.751,4230786.001,-166.181
524342.751,4230736.001,-160.917
524342.751,4230686.001,-154.984
524342.751,4230636.001,-147.132
524342.751,4230586.001,-137.153
524342.751,4230536.001,-127.187
524342.751,4230486.001,-119.728
524342.751,4230436.001,-113.467
524342.751,4230386.001,-106.746
524342.751,4230336.001,-99.934
524342.751,4230286.001,-94.337
524342.751,4230236.001,-90.849
524342.751,4230186.001,-87.824
524342.751,4230136.001,-83.967
524342.751,4230086.001,-79.540
524342.751,4230036.001,-75.218
524342.751,4229986.001,-71.513
524342.751,4229936.001,-68.001
524342.751,4229886.001,-64.372
524342.751,4229836.001,-60.263
524342.751,4229786.001,-56.069
524342.751,4229736.001,-52.830
524342.751,4229686.001,-50.057
524342.751,4229636.001,-47.714
524342.751,4229586.001,-46.772
524392.751,4231186.001,-244.640
524392.751,4231136.001,-231.774
524392.751,4231086.001,-219.064
524392.751,4231036.001,-206.233
524392.751,4230986.001,-192.779
524392.751,4230936.001,-181.043
524392.751,4230886.001,-173.500
524392.751,4230836.001,-166.051
524392.751,4230786.001,-158.393
524392.751,4230736.001,-151.917
524392.751,4230686.001,-145.952
524392.751,4230636.001,-139.913
524392.751,4230586.001,-132.570
524392.751,4230536.001,-122.940
524392.751,4230486.001,-114.078
524392.751,4230436.001,-107.290
524392.751,4230386.001,-101.860
524392.751,4230336.001,-96.998
524392.751,4230286.001,-92.243
524392.751,4230236.001,-87.937
524392.751,4230186.001,-84.402
524392.751,4230136.001,-81.430
524392.751,4230086.001,-78.337
524392.751,4230036.001,-74.783
524392.751,4229986.001,-70.960
524392.751,4229936.001,-66.637
524392.751,4229886.001,-62.273
524392.751,4229836.001,-58.287
524392.751,4229786.001,-54.979
524392.751,4229736.001,-52.023
524392.751,4229686.001,-49.400
524392.751,4229636.001,-47.197
524392.751,4229586.001,-46.167
524442.751,4231186.001,-237.250
524442.751,4231136.001,-225.083
524442.751,4231086.001,-212.647
524442.751,4231036.001,-201.370
524442.751,4230986.001,-188.063
524442.751,4230936.001,-174.690
524442.751,4230886.001,-164.700
524442.751,4230836.001,-157.950
524442.751,4230786.001,-150.507
524442.751,4230736.001,-143.320
524442.751,4230686.001,-137.103
524442.751,4230636.001,-130.763
524442.751,4230586.001,-124.060
524442.751,4230536.001,-116.693
524442.751,4230486.001,-108.987
524442.751,4230436.001,-102.030
524442.751,4230386.001,-97.283
524442.751,4230336.001,-93.213
524442.751,4230286.001,-89.440
524442.751,4230236.001,-86.057
524442.751,4230186.001,-82.917
524442.751,4230136.001,-79.840
524442.751,4230086.001,-76.763
524442.751,4230036.001,-73.647
524442.751,4229986.001,-70.270
524442.751,4229936.001,-66.310
524442.751,4229886.001,-62.047
524442.751,4229836.001,-58.200
524442.751,4229786.001,-55.010
524442.751,4229736.001,-52.180
524442.751,4229686.001,-49.710
524442.751,4229636.001,-47.590
524442.751,4229586.001,-46.530
524492.751,4231186.001,-247.097
524492.751,4231136.001,-234.241
524492.751,4231086.001,-216.821
524492.751,4231036.001,-201.973
524492.751,4230986.001,-186.741
524492.751,4230936.001,-173.264
524492.751,4230886.001,-161.563
524492.751,4230836.001,-154.223
524492.751,4230786.001,-147.806
524492.751,4230736.001,-141.383
524492.751,4230686.001,-135.536
524492.751,4230636.001,-128.574
524492.751,4230586.001,-119.223
524492.751,4230536.001,-109.520
524492.751,4230486.001,-103.056
524492.751,4230436.001,-98.750
524492.751,4230386.001,-95.071
524492.751,4230336.001,-91.900
524492.751,4230286.001,-88.957
524492.751,4230236.001,-85.960
524492.751,4230186.001,-83.010
524492.751,4230136.001,-80.113
524492.751,4230086.001,-77.186
524492.751,4230036.001,-74.134
524492.751,4229986.001,-70.743
524492.751,4229936.001,-66.771
524492.751,4229886.001,-62.596
524492.751,4229836.001,-58.840
524492.751,4229786.001,-55.553
524492.751,4229736.001,-52.716
524492.751,4229686.001,-50.243
524492.751,4229636.001,-48.107
524492.751,4229586.001,-47.011
524542.751,4231136.001,-241.492
524542.751,4231086.001,-220.482
524542.751,4231036.001,-200.997
524542.751,4230986.001,-185.816
524542.751,4230936.001,-174.744
524542.751,4230886.001,-166.050
524542.751,4230836.001,-159.491
524542.751,4230786.001,-153.946
524542.751,4230736.001,-148.157
524542.751,4230686.001,-141.503
524542.751,4230636.001,-132.874
524542.751,4230586.001,-121.257
524542.751,4230536.001,-108.608
524542.751,4230486.001,-100.323
524542.751,4230436.001,-96.790
524542.751,4230386.001,-94.100
524542.751,4230336.001,-91.707
524542.751,4230286.001,-89.127
524542.751,4230236.001,-86.217
524542.751,4230186.001,-83.280
524542.751,4230136.001,-80.363
524542.751,4230086.001,-77.493
524542.751,4230036.001,-74.510
524542.751,4229986.001,-71.390
524542.751,4229936.001,-67.541
524542.751,4229886.001,-63.291
524542.751,4229836.001,-59.343
524542.751,4229786.001,-56.008
524542.751,4229736.001,-53.173
524542.751,4229686.001,-50.713
524542.751,4229636.001,-48.601
524542.751,4229586.001,-47.518
524592.751,4231136.001,-242.263
524592.751,4231086.001,-218.897
524592.751,4231036.001,-198.310
524592.751,4230986.001,-187.260
524592.751,4230936.001,-178.747
524592.751,4230886.001,-171.370
524592.751,4230836.001,-164.127
524592.751,4230786.001,-157.593
524592.751,4230736.001,-150.870
524592.751,4230686.001,-141.977
524592.751,4230636.001,-130.480
524592.751,4230586.001,-118.390
524592.751,4230536.001,-108.427
524592.751,4230486.001,-103.113
524592.751,4230436.001,-100.180
524592.751,4230386.001,-97.433
524592.751,4230336.001,-94.733
524592.751,4230286.001,-91.310
524592.751,4230236.001,-87.397
524592.751,4230186.001,-83.930
524592.751,4230136.001,-80.840
524592.751,4230086.001,-78.130
524592.751,4230036.001,-75.377
524592.751,4229986.001,-72.170
524592.751,4229936.001,-68.070
524592.751,4229886.001,-63.550
524592.751,4229836.001,-59.500
524592.751,4229786.001,-56.287
524592.751,4229736.001,-53.510
524592.751,4229686.001,-50.990
524592.751,4229636.001,-48.907
524592.751,4229586.001,-47.830
524642.751,4231136.001,-240.080
524642.751,4231086.001,-217.351
524642.751,4231036.001,-200.443
524642.751,4230986.001,-190.091
524642.751,4230936.001,-181.343
524642.751,4230886.001,-173.030
524642.751,4230836.001,-164.793
524642.751,4230786.001,-157.388
524642.751,4230736.001,-149.733
524642.751,4230686.001,-141.022
524642.751,4230636.001,-131.960
524642.751,4230586.001,-122.260
524642.751,4230536.001,-114.197
524642.751,4230486.001,-109.519
524642.751,4230436.001,-106.537
524642.751,4230386.001,-103.659
524642.751,4230336.001,-99.171
524642.751,4230286.001,-93.580
524642.751,4230236.001,-88.614
524642.751,4230186.001,-84.928
524642.751,4230136.001,-81.787
524642.751,4230086.001,-78.921
524642.751,4230036.001,-75.967
524642.751,4229986.001,-72.710
524642.751,4229936.001,-68.636
524642.751,4229886.001,-64.099
524642.751,4229836.001,-59.900
524642.751,4229786.001,-56.537
524642.751,4229736.001,-53.783
524642.751,4229686.001,-51.290
524642.751,4229636.001,-49.166
524642.751,4229586.001,-48.184
524692.751,4231136.001,-237.327
524692.751,4231086.001,-215.770
524692.751,4231036.001,-200.503
524692.751,4230986.001,-189.999
524692.751,4230936.001,-181.376
524692.751,4230886.001,-173.140
524692.751,4230836.001,-164.612
524692.751,4230786.001,-157.083
524692.751,4230736.001,-151.457
524692.751,4230686.001,-147.883
524692.751,4230636.001,-142.127
524692.751,4230586.001,-131.780
524692.751,4230536.001,-121.544
524692.751,4230486.001,-115.760
524692.751,4230436.001,-112.303
524692.751,4230386.001,-107.358
524692.751,4230336.001,-101.133
524692.751,4230286.001,-94.923
524692.751,4230236.001,-89.824
524692.751,4230186.001,-86.206
524692.751,4230136.001,-83.100
524692.751,4230086.001,-80.151
524692.751,4230036.001,-77.243
524692.751,4229986.001,-73.823
524692.751,4229936.001,-69.358
524692.751,4229886.001,-64.211
524692.751,4229836.001,-59.847
524692.751,4229786.001,-56.592
524692.751,4229736.001,-53.809
524692.751,4229686.001,-51.390
524692.751,4229636.001,-49.459
524692.751,4229586.001,-48.610
524742.751,4231536.001,-248.650
524742.751,4231486.001,-248.550
524742.751,4231436.001,-249.263
524742.751,4231186.001,-248.200
524742.751,4231136.001,-235.773
524742.751,4231086.001,-216.520
524742.751,4231036.001,-200.420
524742.751,4230986.001,-191.597
524742.751,4230936.001,-183.187
524742.751,4230886.001,-173.580
524742.751,4230836.001,-165.067
524742.751,4230786.001,-160.767
524742.751,4230736.001,-159.950
524742.751,4230686.001,-156.277
524742.751,4230636.001,-146.323
524742.751,4230586.001,-134.690
524742.751,4230536.001,-128.197
524742.751,4230486.001,-123.627
524742.751,4230436.001,-117.180
524742.751,4230386.001,-110.060
524742.751,4230336.001,-103.013
524742.751,4230286.001,-96.370
524742.751,4230236.001,-91.677
524742.751,4230186.001,-88.247
524742.751,4230136.001,-84.800
524742.751,4230086.001,-81.617
524742.751,4230036.001,-78.457
524742.751,4229986.001,-74.940
524742.751,4229936.001,-70.357
524742.751,4229886.001,-64.797
524742.751,4229836.001,-60.090
524742.751,4229786.001,-56.697
524742.751,4229736.001,-53.943
524742.751,4229686.001,-51.540
524742.751,4229636.001,-49.603
524742.751,4229586.001,-48.790
524792.751,4231736.001,-246.400
524792.751,4231686.001,-239.186
524792.751,4231636.001,-237.993
524792.751,4231586.001,-231.007
524792.751,4231536.001,-233.903
524792.751,4231486.001,-238.003
524792.751,4231436.001,-242.604
524792.751,4231386.001,-248.533
524792.751,4231186.001,-243.450
524792.751,4231136.001,-236.976
524792.751,4231086.001,-224.200
524792.751,4231036.001,-210.783
524792.751,4230986.001,-201.719
524792.751,4230936.001,-190.220
524792.751,4230886.001,-177.470
524792.751,4230836.001,-169.692
524792.751,4230786.001,-168.334
524792.751,4230736.001,-167.460
524792.751,4230686.001,-160.222
524792.751,4230636.001,-149.153
524792.751,4230586.001,-141.683
524792.751,4230536.001,-138.019
524792.751,4230486.001,-130.477
524792.751,4230436.001,-120.297
524792.751,4230386.001,-112.132
524792.751,4230336.001,-104.831
524792.751,4230286.001,-99.160
524792.751,4230236.001,-95.951
524792.751,4230186.001,-92.222
524792.751,4230136.001,-87.547
524792.751,4230086.001,-83.819
524792.751,4230036.001,-80.552
524792.751,4229986.001,-76.977
524792.751,4229936.001,-72.116
524792.751,4229886.001,-66.017
524792.751,4229836.001,-60.453
524792.751,4229786.001,-56.753
524792.751,4229736.001,-53.964
524792.751,4229686.001,-51.670
524792.751,4229636.001,-49.773
524792.751,4229586.001,-48.932
524842.751,4231836.001,-246.787
524842.751,4231786.001,-241.287
524842.751,4231736.001,-233.333
524842.751,4231686.001,-221.014
524842.751,4231636.001,-215.583
524842.751,4231586.001,-213.697
524842.751,4231536.001,-219.462
524842.751,4231486.001,-227.840
524842.751,4231436.001,-238.081
524842.751,4231386.001,-246.272
524842.751,4231286.001,-247.260
524842.751,4231236.001,-240.087
524842.751,4231186.001,-233.833
524842.751,4231136.001,-232.680
524842.751,4231086.001,-226.592
524842.751,4231036.001,-217.227
524842.751,4230986.001,-206.668
524842.751,4230936.001,-194.864
524842.751,4230886.001,-184.133
524842.751,4230836.001,-178.137
524842.751,4230786.001,-175.261
524842.751,4230736.001,-169.947
524842.751,4230686.001,-161.514
524842.751,4230636.001,-154.358
524842.751,4230586.001,-150.723
524842.751,4230536.001,-145.037
524842.751,4230486.001,-134.120
524842.751,4230436.001,-123.287
524842.751,4230386.001,-116.236
524842.751,4230336.001,-110.764
524842.751,4230286.001,-107.810
524842.751,4230236.001,-105.238
524842.751,4230186.001,-100.118
524842.751,4230136.001,-93.337
524842.751,4230086.001,-87.968
524842.751,4230036.001,-84.223
524842.751,4229986.001,-80.347
524842.751,4229936.001,-74.574
524842.751,4229886.001,-67.163
524842.751,4229836.001,-60.577
524842.751,4229786.001,-56.713
524842.751,4229736.001,-53.960
524842.751,4229686.001,-51.670
524842.751,4229636.001,-49.877
524842.751,4229586.001,-49.133
524892.751,4231786.001,-238.740
524892.751,4231736.001,-224.350
524892.751,4231686.001,-215.127
524892.751,4231636.001,-213.250
524892.751,4231586.001,-209.273
524892.751,4231536.001,-207.357
524892.751,4231486.001,-213.520
524892.751,4231436.001,-225.447
524892.751,4231386.001,-240.583
524892.751,4231286.001,-242.930
524892.751,4231236.001,-232.690
524892.751,4231186.001,-226.720
524892.751,4231136.001,-225.283
524892.751,4231086.001,-222.497
524892.751,4231036.001,-215.490
524892.751,4230986.001,-206.127
524892.751,4230936.001,-197.890
524892.751,4230886.001,-191.730
524892.751,4230836.001,-186.780
524892.751,4230786.001,-179.097
524892.751,4230736.001,-170.000
524892.751,4230686.001,-164.600
524892.751,4230636.001,-161.657
524892.751,4230586.001,-157.670
524892.751,4230536.001,-148.943
524892.751,4230486.001,-138.813
524892.751,4230436.001,-130.240
524892.751,4230386.001,-124.277
524892.751,4230336.001,-120.300
524892.751,4230286.001,-118.040
524892.751,4230236.001,-114.290
524892.751,4230186.001,-108.677
524892.751,4230136.001,-102.120
524892.751,4230086.001,-96.033
524892.751,4230036.001,-91.660
524892.751,4229986.001,-86.950
524892.751,4229936.001,-79.193
524892.751,4229886.001,-69.227
524892.751,4229836.001,-60.730
524892.751,4229786.001,-56.613
524892.751,4229736.001,-53.937
524892.751,4229686.001,-51.670
524892.751,4229636.001,-49.957
524892.751,4229586.001,-49.207
524942.751,4233736.001,-248.430
524942.751,4233686.001,-246.633
524942.751,4233636.001,-245.374
524942.751,4231736.001,-240.752
524942.751,4231686.001,-233.604
524942.751,4231636.001,-229.873
524942.751,4231586.001,-226.006
524942.751,4231536.001,-217.432
524942.751,4231486.001,-210.357
524942.751,4231436.001,-214.459
524942.751,4231386.001,-232.518
524942.751,4231336.001,-244.953
524942.751,4231286.001,-237.340
524942.751,4231236.001,-227.776
524942.751,4231186.001,-222.150
524942.751,4231136.001,-218.484
524942.751,4231086.001,-216.121
524942.751,4231036.001,-211.890
524942.751,4230986.001,-206.187
524942.751,4230936.001,-200.651
524942.751,4230886.001,-195.257
524942.751,4230836.001,-188.527
524942.751,4230786.001,-180.753
524942.751,4230736.001,-174.450
524942.751,4230686.001,-170.366
524942.751,4230636.001,-166.197
524942.751,4230586.001,-159.877
524942.751,4230536.001,-151.982
524942.751,4230486.001,-144.982
524942.751,4230436.001,-138.513
524942.751,4230386.001,-133.548
524942.751,4230336.001,-129.844
524942.751,4230286.001,-126.367
524942.751,4230236.001,-121.062
524942.751,4230186.001,-115.109
524942.751,4230136.001,-109.527
524942.751,4230086.001,-104.911
524942.751,4230036.001,-100.303
524942.751,4229986.001,-93.940
524942.751,4229936.001,-83.658
524942.751,4229886.001,-70.923
524942.751,4229836.001,-61.010
524942.751,4229786.001,-56.494
524942.751,4229736.001,-53.752
524942.751,4229686.001,-51.600
524942.751,4229636.001,-49.939
524942.751,4229586.001,-49.259
524992.751,4233736.001,-248.263
524992.751,4233686.001,-245.420
524992.751,4233636.001,-243.567
524992.751,4233586.001,-243.660
524992.751,4233536.001,-244.756
524992.751,4231686.001,-246.791
524992.751,4231636.001,-242.053
524992.751,4231586.001,-237.199
524992.751,4231536.001,-227.546
524992.751,4231486.001,-217.047
524992.751,4231436.001,-211.914
524992.751,4231386.001,-222.381
524992.751,4231336.001,-238.133
524992.751,4231286.001,-236.039
524992.751,4231236.001,-227.274
524992.751,4231186.001,-220.680
524992.751,4231136.001,-215.622
524992.751,4231086.001,-212.358
524992.751,4231036.001,-209.833
524992.751,4230986.001,-205.807
524992.751,4230936.001,-199.892
524992.751,4230886.001,-193.480
524992.751,4230836.001,-187.587
524992.751,4230786.001,-182.487
524992.751,4230736.001,-178.060
524992.751,4230686.001,-173.569
524992.751,4230636.001,-168.124
524992.751,4230586.001,-162.070
524992.751,4230536.001,-156.562
524992.751,4230486.001,-151.262
524992.751,4230436.001,-145.773
524992.751,4230386.001,-141.523
524992.751,4230336.001,-137.839
524992.751,4230286.001,-132.707
524992.751,4230236.001,-126.286
524992.751,4230186.001,-120.431
524992.751,4230136.001,-115.653
524992.751,4230086.001,-110.930
524992.751,4230036.001,-104.687
524992.751,4229986.001,-95.973
524992.751,4229936.001,-83.778
524992.751,4229886.001,-70.609
524992.751,4229836.001,-61.030
524992.751,4229786.001,-56.444
524992.751,4229736.001,-53.753
524992.751,4229686.001,-51.630
524992.751,4229636.001,-49.917
524992.751,4229586.001,-49.276
525042.751,4233636.001,-246.480
525042.751,4233586.001,-242.110
525042.751,4233536.001,-240.447
525042.751,4233486.001,-241.757
525042.751,4233436.001,-250.000
525042.751,4231586.001,-244.970
525042.751,4231536.001,-235.463
525042.751,4231486.001,-226.300
525042.751,4231436.001,-217.073
525042.751,4231386.001,-216.887
525042.751,4231336.001,-227.390
525042.751,4231286.001,-232.960
525042.751,4231236.001,-229.520
525042.751,4231186.001,-224.540
525042.751,4231136.001,-220.367
525042.751,4231086.001,-216.920
525042.751,4231036.001,-212.210
525042.751,4230986.001,-205.363
525042.751,4230936.001,-199.493
525042.751,4230886.001,-194.220
525042.751,4230836.001,-189.547
525042.751,4230786.001,-186.057
525042.751,4230736.001,-182.860
525042.751,4230686.001,-178.303
525042.751,4230636.001,-173.000
525042.751,4230586.001,-168.430
525042.751,4230536.001,-164.090
525042.751,4230486.001,-159.140
525042.751,4230436.001,-153.720
525042.751,4230386.001,-149.060
525042.751,4230336.001,-144.210
525042.751,4230286.001,-137.580
525042.751,4230236.001,-131.127
525042.751,4230186.001,-125.403
525042.751,4230136.001,-119.570
525042.751,4230086.001,-112.233
525042.751,4230036.001,-103.570
525042.751,4229986.001,-92.800
525042.751,4229936.001,-80.080
525042.751,4229886.001,-68.903
525042.751,4229836.001,-60.940
525042.751,4229786.001,-56.500
525042.751,4229736.001,-53.760
525042.751,4229686.001,-51.630
525042.751,4229636.001,-50.020
525042.751,4229586.001,-49.330
525092.751,4233536.001,-246.134
525092.751,4233486.001,-243.663
525092.751,4233436.001,-243.087
525092.751,4233386.001,-244.592
525092.751,4231486.001,-235.013
525092.751,4231436.001,-226.370
525092.751,4231386.001,-222.448
525092.751,4231336.001,-222.423
525092.751,4231286.001,-224.557
525092.751,4231236.001,-225.457
525092.751,4231186.001,-223.753
525092.751,4231136.001,-221.572
525092.751,4231086.001,-218.797
525092.751,4231036.001,-214.643
525092.751,4230986.001,-209.776
525092.751,4230936.001,-204.739
525092.751,4230886.001,-199.837
525092.751,4230836.001,-195.917
525092.751,4230786.001,-192.812
525092.751,4230736.001,-189.743
525092.751,4230686.001,-185.226
525092.751,4230636.001,-179.591
525092.751,4230586.001,-173.777
525092.751,4230536.001,-168.234
525092.751,4230486.001,-162.798
525092.751,4230436.001,-157.280
525092.751,4230386.001,-151.907
525092.751,4230336.001,-146.216
525092.751,4230286.001,-139.737
525092.751,4230236.001,-132.701
525092.751,4230186.001,-124.930
525092.751,4230136.001,-116.190
525092.751,4230086.001,-106.656
525092.751,4230036.001,-96.352
525092.751,4229986.001,-85.933
525092.751,4229936.001,-76.489
525092.751,4229886.001,-68.083
525092.751,4229836.001,-60.897
525092.751,4229786.001,-56.551
525092.751,4229736.001,-53.839
525092.751,4229686.001,-51.660
525092.751,4229636.001,-49.987
525092.751,4229586.001,-49.347
525142.751,4233436.001,-245.930
525142.751,4233386.001,-246.652
525142.751,4231486.001,-242.923
525142.751,4231436.001,-232.792
525142.751,4231386.001,-228.099
525142.751,4231336.001,-225.660
525142.751,4231286.001,-221.826
525142.751,4231236.001,-218.871
525142.751,4231186.001,-217.977
525142.751,4231136.001,-217.419
525142.751,4231086.001,-216.102
525142.751,4231036.001,-214.173
525142.751,4230986.001,-211.360
525142.751,4230936.001,-206.887
525142.751,4230886.001,-201.663
525142.751,4230836.001,-196.987
525142.751,4230786.001,-192.379
525142.751,4230736.001,-187.917
525142.751,4230686.001,-182.690
525142.751,4230636.001,-175.986
525142.751,4230586.001,-169.527
525142.751,4230536.001,-163.666
525142.751,4230486.001,-157.792
525142.751,4230436.001,-151.820
525142.751,4230386.001,-146.099
525142.751,4230336.001,-139.928
525142.751,4230286.001,-133.327
525142.751,4230236.001,-125.932
525142.751,4230186.001,-117.376
525142.751,4230136.001,-107.143
525142.751,4230086.001,-96.242
525142.751,4230036.001,-87.359
525142.751,4229986.001,-80.787
525142.751,4229936.001,-74.347
525142.751,4229886.001,-67.230
525142.751,4229836.001,-60.720
525142.751,4229786.001,-56.616
525142.751,4229736.001,-53.904
525142.751,4229686.001,-51.670
525142.751,4229636.001,-50.000
525142.751,4229586.001,-49.377
525192.751,4231436.001,-238.330
525192.751,4231386.001,-232.480
525192.751,4231336.001,-229.170
525192.751,4231286.001,-224.487
525192.751,4231236.001,-218.137
525192.751,4231186.001,-211.720
525192.751,4231136.001,-207.993
525192.751,4231086.001,-206.610
525192.751,4231036.001,-204.280
525192.751,4230986.001,-201.047
525192.751,4230936.001,-197.130
525192.751,4230886.001,-193.160
525192.751,4230836.001,-190.127
525192.751,4230786.001,-186.277
525192.751,4230736.001,-181.790
525192.751,4230686.001,-176.207
525192.751,4230636.001,-169.470
525192.751,4230586.001,-163.710
525192.751,4230536.001,-157.937
525192.751,4230486.001,-151.390
525192.751,4230436.001,-144.010
525192.751,4230386.001,-137.237
525192.751,4230336.001,-129.940
525192.751,4230286.001,-122.380
525192.751,4230236.001,-114.913
525192.751,4230186.001,-106.667
525192.751,4230136.001,-96.560
525192.751,4230086.001,-88.123
525192.751,4230036.001,-83.050
525192.751,4229986.001,-78.600
525192.751,4229936.001,-72.883
525192.751,4229886.001,-66.133
525192.751,4229836.001,-60.360
525192.751,4229786.001,-56.593
525192.751,4229736.001,-53.947
525192.751,4229686.001,-51.690
525192.751,4229636.001,-50.057
525192.751,4229586.001,-49.433
525242.751,4231436.001,-244.670
525242.751,4231386.001,-238.574
525242.751,4231336.001,-233.270
525242.751,4231286.001,-227.618
525242.751,4231236.001,-221.224
525242.751,4231186.001,-214.500
525242.751,4231136.001,-208.266
525242.751,4231086.001,-200.672
525242.751,4231036.001,-193.843
525242.751,4230986.001,-189.360
525242.751,4230936.001,-183.644
525242.751,4230886.001,-178.547
525242.751,4230836.001,-176.028
525242.751,4230786.001,-173.133
525242.751,4230736.001,-170.750
525242.751,4230686.001,-167.318
525242.751,4230636.001,-161.043
525242.751,4230586.001,-155.980
525242.751,4230536.001,-150.791
525242.751,4230486.001,-145.013
525242.751,4230436.001,-139.300
525242.751,4230386.001,-133.166
525242.751,4230336.001,-125.423
525242.751,4230286.001,-116.870
525242.751,4230236.001,-108.487
525242.751,4230186.001,-99.604
525242.751,4230136.001,-90.623
525242.751,4230086.001,-85.370
525242.751,4230036.001,-81.449
525242.751,4229986.001,-77.327
525242.751,4229936.001,-71.721
525242.751,4229886.001,-65.124
525242.751,4229836.001,-59.910
525242.751,4229786.001,-56.474
525242.751,4229736.001,-53.969
525242.751,4229686.001,-51.837
525242.751,4229636.001,-50.116
525242.751,4229586.001,-49.444
525292.751,4231386.001,-248.043
525292.751,4231336.001,-241.877
525292.751,4231286.001,-235.789
525292.751,4231236.001,-228.578
525292.751,4231186.001,-220.767
525292.751,4231136.001,-214.087
525292.751,4231086.001,-205.304
525292.751,4231036.001,-198.393
525292.751,4230986.001,-194.212
525292.751,4230936.001,-186.791
525292.751,4230886.001,-177.167
525292.751,4230836.001,-167.982
525292.751,4230786.001,-158.858
525292.751,4230736.001,-152.373
525292.751,4230686.001,-150.516
525292.751,4230636.001,-148.228
525292.751,4230586.001,-145.017
525292.751,4230536.001,-140.577
525292.751,4230486.001,-135.440
525292.751,4230436.001,-131.323
525292.751,4230386.001,-126.506
525292.751,4230336.001,-119.508
525292.751,4230286.001,-111.763
525292.751,4230236.001,-103.909
525292.751,4230186.001,-95.767
525292.751,4230136.001,-88.467
525292.751,4230086.001,-84.202
525292.751,4230036.001,-80.480
525292.751,4229986.001,-76.367
525292.751,4229936.001,-70.632
525292.751,4229886.001,-64.253
525292.751,4229836.001,-59.527
525292.751,4229786.001,-56.308
525292.751,4229736.001,-53.920
525292.751,4229686.001,-51.823
525292.751,4229636.001,-50.177
525292.751,4229586.001,-49.557
525342.751,4231286.001,-247.047
525342.751,4231236.001,-239.720
525342.751,4231186.001,-228.510
525342.751,4231136.001,-219.457
525342.751,4231086.001,-211.907
525342.751,4231036.001,-206.400
525342.751,4230986.001,-200.797
525342.751,4230936.001,-194.420
525342.751,4230886.001,-188.560
525342.751,4230836.001,-180.717
525342.751,4230786.001,-167.810
525342.751,4230736.001,-151.960
525342.751,4230686.001,-143.197
525342.751,4230636.001,-141.743
525342.751,4230586.001,-139.700
525342.751,4230536.001,-134.497
525342.751,4230486.001,-127.857
525342.751,4230436.001,-121.990
525342.751,4230386.001,-116.417
525342.751,4230336.001,-110.067
525342.751,4230286.001,-103.900
525342.751,4230236.001,-98.297
525342.751,4230186.001,-92.580
525342.751,4230136.001,-87.350
525342.751,4230086.001,-83.413
525342.751,4230036.001,-79.710
525342.751,4229986.001,-75.530
525342.751,4229936.001,-69.573
525342.751,4229886.001,-63.593
525342.751,4229836.001,-59.200
525342.751,4229786.001,-56.077
525342.751,4229736.001,-53.800
525342.751,4229686.001,-51.710
525342.751,4229636.001,-50.190
525342.751,4229586.001,-49.610
525392.751,4231186.001,-238.290
525392.751,4231136.001,-228.429
525392.751,4231086.001,-218.817
525392.751,4231036.001,-210.923
525392.751,4230986.001,-206.364
525392.751,4230936.001,-202.708
525392.751,4230886.001,-198.620
525392.751,4230836.001,-192.177
525392.751,4230786.001,-180.849
525392.751,4230736.001,-167.007
525392.751,4230686.001,-158.216
525392.751,4230636.001,-154.454
525392.751,4230586.001,-150.367
525392.751,4230536.001,-144.891
525392.751,4230486.001,-137.994
525392.751,4230436.001,-129.453
525392.751,4230386.001,-118.222
525392.751,4230336.001,-109.082
525392.751,4230286.001,-101.543
525392.751,4230236.001,-95.307
525392.751,4230186.001,-90.530
525392.751,4230136.001,-86.490
525392.751,4230086.001,-82.749
525392.751,4230036.001,-79.003
525392.751,4229986.001,-74.533
525392.751,4229936.001,-68.317
525392.751,4229886.001,-62.802
525392.751,4229836.001,-58.700
525392.751,4229786.001,-55.826
525392.751,4229736.001,-53.678
525392.751,4229686.001,-51.617
525392.751,4229636.001,-50.240
525442.751,4231186.001,-247.210
525442.751,4231136.001,-239.990
525442.751,4231086.001,-229.074
525442.751,4231036.001,-219.497
525442.751,4230986.001,-214.090
525442.751,4230936.001,-209.171
525442.751,4230886.001,-203.400
525442.751,4230836.001,-196.789
525442.751,4230786.001,-186.152
525442.751,4230736.001,-174.950
525442.751,4230686.001,-168.102
525442.751,4230636.001,-163.341
525442.751,4230586.001,-158.333
525442.751,4230536.001,-152.828
525442.751,4230486.001,-146.940
525442.751,4230436.001,-140.090
525442.751,4230386.001,-130.654
525442.751,4230336.001,-121.069
525442.751,4230286.001,-110.197
525442.751,4230236.001,-98.607
525442.751,4230186.001,-90.622
525442.751,4230136.001,-85.880
525442.751,4230086.001,-82.131
525442.751,4230036.001,-78.237
525442.751,4229986.001,-73.443
525442.751,4229936.001,-66.886
525442.751,4229886.001,-61.664
525442.751,4229836.001,-58.050
525442.751,4229786.001,-55.552
525442.751,4229736.001,-53.454
525442.751,4229686.001,-51.457
525442.751,4229636.001,-50.102
525492.751,4231136.001,-245.163
525492.751,4231086.001,-238.420
525492.751,4231036.001,-230.990
525492.751,4230986.001,-222.483
525492.751,4230936.001,-213.120
525492.751,4230886.001,-202.730
525492.751,4230836.001,-195.173
525492.751,4230786.001,-188.143
525492.751,4230736.001,-181.370
525492.751,4230686.001,-176.383
525492.751,4230636.001,-170.633
525492.751,4230586.001,-165.290
525492.751,4230536.001,-160.850
525492.751,4230486.001,-155.677
525492.751,4230436.001,-148.160
525492.751,4230386.001,-139.037
525492.751,4230336.001,-130.617
525492.751,4230286.001,-120.440
525492.751,4230236.001,-106.237
525492.751,4230186.001,-93.393
525492.751,4230136.001,-85.660
525492.751,4230086.001,-81.480
525492.751,4230036.001,-77.437
525492.751,4229986.001,-72.310
525492.751,4229936.001,-65.673
525492.751,4229886.001,-60.767
525492.751,4229836.001,-57.600
525492.751,4229786.001,-55.283
525492.751,4229736.001,-53.217
525492.751,4229686.001,-51.270
525492.751,4229636.001,-49.927
525542.751,4231186.001,-249.040
525542.751,4231136.001,-244.192
525542.751,4231086.001,-238.560
525542.751,4231036.001,-233.020
525542.751,4230986.001,-223.992
525542.751,4230936.001,-213.552
525542.751,4230886.001,-203.247
525542.751,4230836.001,-197.124
525542.751,4230786.001,-192.401
525542.751,4230736.001,-188.463
525542.751,4230686.001,-184.114
525542.751,4230636.001,-179.401
525542.751,4230586.001,-175.343
525542.751,4230536.001,-170.640
525542.751,4230486.001,-163.660
525542.751,4230436.001,-154.663
525542.751,4230386.001,-144.827
525542.751,4230336.001,-135.423
525542.751,4230286.001,-125.550
525542.751,4230236.001,-112.977
525542.751,4230186.001,-98.524
525542.751,4230136.001,-86.557
525542.751,4230086.001,-80.808
525542.751,4230036.001,-76.472
525542.751,4229986.001,-71.307
525542.751,4229936.001,-64.882
525542.751,4229886.001,-60.131
525542.751,4229836.001,-57.157
525542.751,4229786.001,-54.874
525542.751,4229736.001,-52.944
525542.751,4229686.001,-51.053
525542.751,4229636.001,-49.713
525592.751,4231336.001,-246.640
525592.751,4231286.001,-245.718
525592.751,4231236.001,-245.831
525592.751,4231186.001,-245.127
525592.751,4231136.001,-241.814
525592.751,4231086.001,-235.600
525592.751,4231036.001,-227.927
525592.751,4230986.001,-219.607
525592.751,4230936.001,-211.949
525592.751,4230886.001,-205.743
525592.751,4230836.001,-201.434
525592.751,4230786.001,-198.057
525592.751,4230736.001,-195.187
525592.751,4230686.001,-192.114
525592.751,4230636.001,-188.278
525592.751,4230586.001,-182.990
525592.751,4230536.001,-175.403
525592.751,4230486.001,-166.420
525592.751,4230436.001,-156.913
525592.751,4230386.001,-147.207
525592.751,4230336.001,-137.713
525592.751,4230286.001,-128.150
525592.751,4230236.001,-116.812
525592.751,4230186.001,-102.664
525592.751,4230136.001,-88.257
525592.751,4230086.001,-80.424
525592.751,4230036.001,-75.596
525592.751,4229986.001,-70.447
525592.751,4229936.001,-64.314
525592.751,4229886.001,-59.544
525592.751,4229836.001,-56.557
525592.751,4229786.001,-54.526
525592.751,4229736.001,-52.657
525592.751,4229686.001,-50.787
525592.751,4229636.001,-49.466
525642.751,4231236.001,-245.420
525642.751,4231186.001,-240.200
525642.751,4231136.001,-238.660
525642.751,4231086.001,-235.403
525642.751,4231036.001,-228.870
525642.751,4230986.001,-221.210
525642.751,4230936.001,-214.967
525642.751,4230886.001,-210.530
525642.751,4230836.001,-207.283
525642.751,4230786.001,-204.557
525642.751,4230736.001,-201.070
525642.751,4230686.001,-195.637
525642.751,4230636.001,-188.730
525642.751,4230586.001,-180.870
525642.751,4230536.001,-172.397
525642.751,4230486.001,-164.083
525642.751,4230436.001,-155.590
525642.751,4230386.001,-147.280
525642.751,4230336.001,-138.947
525642.751,4230286.001,-129.770
525642.751,4230236.001,-118.787
525642.751,4230186.001,-104.893
525642.751,4230136.001,-89.620
525642.751,4230086.001,-80.257
525642.751,4230036.001,-74.787
525642.751,4229986.001,-69.350
525642.751,4229936.001,-63.570
525642.751,4229886.001,-59.070
525642.751,4229836.001,-56.010
525642.751,4229786.001,-54.053
525642.751,4229736.001,-52.253
525642.751,4229686.001,-50.510
525642.751,4229636.001,-49.303
525692.751,4231186.001,-243.243
525692.751,4231136.001,-236.787
525692.751,4231086.001,-235.342
525692.751,4231036.001,-232.887
525692.751,4230986.001,-227.190
525692.751,4230936.001,-220.792
525692.751,4230886.001,-215.860
525692.751,4230836.001,-211.949
525692.751,4230786.001,-206.812
525692.751,4230736.001,-200.220
525692.751,4230686.001,-193.080
525692.751,4230636.001,-185.873
525692.751,4230586.001,-178.813
525692.751,4230536.001,-171.961
525692.751,4230486.001,-164.639
525692.751,4230436.001,-156.803
525692.751,4230386.001,-148.824
525692.751,4230336.001,-140.337
525692.751,4230286.001,-130.807
525692.751,4230236.001,-119.377
525692.751,4230186.001,-105.042
525692.751,4230136.001,-89.550
525692.751,4230086.001,-79.849
525692.751,4230036.001,-73.883
525692.751,4229986.001,-68.073
525692.751,4229936.001,-62.726
525692.751,4229886.001,-58.563
525692.751,4229836.001,-55.543
525692.751,4229786.001,-53.543
525692.751,4229736.001,-51.830
525692.751,4229686.001,-50.127
525692.751,4229636.001,-48.799
525742.751,4231136.001,-239.153
525742.751,4231086.001,-229.816
525742.751,4231036.001,-227.727
525742.751,4230986.001,-225.787
525742.751,4230936.001,-222.193
525742.751,4230886.001,-217.603
525742.751,4230836.001,-212.291
525742.751,4230786.001,-206.074
525742.751,4230736.001,-199.900
525742.751,4230686.001,-194.012
525742.751,4230636.001,-188.061
525742.751,4230586.001,-181.620
525742.751,4230536.001,-174.853
525742.751,4230486.001,-167.454
525742.751,4230436.001,-159.210
525742.751,4230386.001,-150.280
525742.751,4230336.001,-141.000
525742.751,4230286.001,-130.950
525742.751,4230236.001,-119.119
525742.751,4230186.001,-104.418
525742.751,4230136.001,-88.907
525742.751,4230086.001,-79.352
525742.751,4230036.001,-73.031
525742.751,4229986.001,-66.977
525742.751,4229936.001,-61.993
525742.751,4229886.001,-58.241
525742.751,4229836.001,-55.313
525742.751,4229786.001,-53.213
525742.751,4229736.001,-51.461
525742.751,4229686.001,-49.743
525742.751,4229636.001,-48.501
525792.751,4231136.001,-241.210
525792.751,4231086.001,-226.530
525792.751,4231036.001,-217.460
525792.751,4230986.001,-215.197
525792.751,4230936.001,-213.813
525792.751,4230886.001,-211.780
525792.751,4230836.001,-208.743
525792.751,4230786.001,-204.987
525792.751,4230736.001,-200.520
525792.751,4230686.001,-195.250
525792.751,4230636.001,-189.357
525792.751,4230586.001,-182.700
525792.751,4230536.001,-175.057
525792.751,4230486.001,-166.717
525792.751,4230436.001,-158.010
525792.751,4230386.001,-149.057
525792.751,4230336.001,-139.657
525792.751,4230286.001,-129.570
525792.751,4230236.001,-117.633
