289465.397 4430250.738 -3115.510
289465.397 4430050.738 -3132.235
289465.397 4429850.738 -3152.325
289465.397 4429650.738 -3190.456
289465.397 4429450.738 -3250.714
289465.397 4429250.738 -3317.253
289465.397 4429050.738 -3358.159
289465.397 4428850.738 -3375.091
289465.397 4428650.738 -3380.934
289465.397 4428450.738 -3386.793
289465.397 4428250.738 -3394.432
289465.397 4428050.738 -3395.977
289465.397 4427850.738 -3397.736
289465.397 4427650.738 -3397.912
289465.397 4427450.738 -3397.418
289465.397 4427250.738 -3400.789
289465.397 4427050.738 -3401.148
289465.397 4426850.738 -3401.697
289465.397 4426650.738 -3403.012
289465.397 4426450.738 -3399.713
289465.397 4426250.738 -3401.022
289465.397 4426050.738 -3401.448
289465.397 4425850.738 -3403.283
289465.397 4425650.738 -3402.682
289465.397 4425450.738 -3405.506
289465.397 4425250.738 -3410.552
289465.397 4425050.738 -3413.501
289465.397 4424850.738 -3409.835
289465.397 4424650.738 -3404.566
289465.397 4424450.738 -3402.779
289465.397 4424250.738 -3398.029
289465.397 4424050.738 -3393.790
289465.397 4423850.738 -3393.546
289465.397 4423650.738 -3396.127
289465.397 4423450.738 -3398.270
289465.397 4423250.738 -3396.463
289465.397 4423050.738 -3395.928
289465.397 4422850.738 -3398.886
289465.397 4422650.738 -3401.797
289465.397 4422450.738 -3401.169
289465.397 4422250.738 -3396.972
289465.397 4422050.738 -3390.241
289465.397 4421850.738 -3383.438
289465.397 4421650.738 -3379.386
289465.397 4421450.738 -3381.082
289465.397 4421250.738 -3380.032
289465.397 4421050.738 -3374.933
289465.397 4420850.738 -3372.287
289465.397 4420650.738 -3367.210
289465.397 4420450.738 -3359.030
289465.397 4420250.738 -3351.226
289465.397 4420050.738 -3346.871
289465.397 4419850.738 -3340.821
289465.397 4419650.738 -3336.158
289465.397 4419450.738 -3332.937
289465.397 4419250.738 -3329.310
289465.397 4419050.738 -3325.549
289465.397 4418850.738 -3318.719
289465.397 4418650.738 -3309.383
289465.397 4418450.738 -3303.010
289465.397 4418250.738 -3298.201
289465.397 4418050.738 -3293.388
289465.397 4417850.738 -3288.845
289465.397 4417650.738 -3286.323
289465.397 4417450.738 -3281.223
289465.397 4417250.738 -3271.734
289465.397 4417050.738 -3262.095
289465.397 4416850.738 -3255.608
289465.397 4416650.738 -3250.562
289465.397 4416450.738 -3248.234
289465.397 4416250.738 -3240.727
289465.397 4416050.738 -3236.300
289465.397 4415850.738 -3228.988
289465.397 4415650.738 -3220.584
289465.397 4415450.738 -3225.306
289465.397 4415250.738 -3225.158
289465.397 4415050.738 -3197.695
289465.397 4414850.738 -3166.256
289465.397 4414650.738 -3156.674
289465.397 4414450.738 -3153.346
289465.397 4414250.738 -3148.388
289465.397 4414050.738 -3147.226
289465.397 4413850.738 -3151.115
289465.397 4413650.738 -3146.613
289465.397 4413450.738 -3141.538
289465.397 4413250.738 -3141.491
289465.397 4413050.738 -3136.572
289465.397 4412850.738 -3128.867
289465.397 4412650.738 -3131.478
289465.397 4412450.738 -3138.918
289465.397 4412250.738 -3143.768
289465.397 4412050.738 -3139.843
289465.397 4411850.738 -3121.321
289465.397 4411650.738 -3111.715
289465.397 4411450.738 -3118.771
289465.397 4411250.738 -3125.958
289465.397 4411050.738 -3127.354
289465.397 4410850.738 -3121.203
289465.397 4410650.738 -3122.199
289465.397 4410450.738 -3124.334
289465.397 4410250.738 -3126.498
289465.397 4410050.738 -3125.874
289465.397 4409850.738 -3128.870
289465.397 4409650.738 -3131.387
289465.397 4409450.738 -3133.322
289465.397 4409250.738 -3146.545
289465.397 4409050.738 -3167.317
289465.397 4408850.738 -3187.416
289465.397 4408650.738 -3192.438
289465.397 4408450.738 -3177.235
289465.397 4408250.738 -3154.466
289465.397 4408050.738 -3142.333
289465.397 4407850.738 -3142.987
289465.397 4407650.738 -3135.068
289465.397 4407450.738 -3095.229
289465.397 4407250.738 -3066.845
289465.397 4407050.738 -3075.545
289465.397 4406850.738 -3087.748
289465.397 4406650.738 -3090.891
289465.397 4406450.738 -3098.938
289465.397 4406250.738 -3108.528
289465.397 4406050.738 -3118.657
289465.397 4405850.738 -3124.633
289465.397 4405650.738 -3124.173
289465.397 4405450.738 -3129.351
289465.397 4405250.738 -3124.727
289465.397 4405050.738 -3121.649
289465.397 4404850.738 -3125.717
289465.397 4404650.738 -3147.423
289465.397 4404450.738 -3180.307
289465.397 4404250.738 -3228.122
289465.397 4404050.738 -3282.826
289465.397 4403850.738 -3319.142
289465.397 4403650.738 -3334.084
289465.397 4403450.738 -3342.216
289465.397 4403250.738 -3326.021
289465.397 4403050.738 -3347.327
289465.397 4402850.738 -3412.831
289465.397 4402650.738 -3478.863
289465.397 4402450.738 -3525.759
289465.397 4402250.738 -3554.892
289465.397 4402050.738 -3574.295
289465.397 4401850.738 -3589.739
289465.397 4401650.738 -3597.526
289465.397 4401450.738 -3599.854
289465.397 4401250.738 -3600.531
289465.397 4401050.738 -3599.089
289465.397 4400850.738 -3598.858
289465.397 4400650.738 -3597.589
289465.397 4400450.738 -3597.475
289465.397 4400250.738 -3597.588
289465.397 4400050.738 -3600.064
289465.397 4399850.738 -3601.887
289465.397 4399650.738 -3601.729
289465.397 4399450.738 -3601.684
289465.397 4399250.738 -3601.777
289465.397 4399050.738 -3602.274
289465.397 4398850.738 -3603.713
289465.397 4398650.738 -3602.562
289465.397 4398450.738 -3601.446
289465.397 4398250.738 -3601.963
289465.397 4398050.738 -3602.010
289465.397 4397850.738 -3602.362
289465.397 4397650.738 -3602.439
289465.397 4397450.738 -3602.944
289465.397 4397250.738 -3602.693
289465.397 4397050.738 -3602.655
289465.397 4396850.738 -3603.144
289465.397 4396650.738 -3603.223
289465.397 4396450.738 -3603.405
289465.397 4396250.738 -3602.762
289465.397 4396050.738 -3602.074
289465.397 4395850.738 -3603.082
289465.397 4395650.738 -3603.306
289465.397 4395450.738 -3602.167
289465.397 4395250.738 -3601.788
289465.397 4395050.738 -3602.074
289465.397 4394850.738 -3603.546
289465.397 4394650.738 -3604.311
289465.397 4394450.738 -3604.676
289465.397 4394250.738 -3604.996
289465.397 4394050.738 -3605.521
289465.397 4393850.738 -3605.706
289465.397 4393650.738 -3604.303
289465.397 4393450.738 -3604.527
289465.397 4393250.738 -3605.327
289465.397 4393050.738 -3605.105
289465.397 4392850.738 -3605.659
289465.397 4392650.738 -3605.797
289465.397 4392450.738 -3606.220
289465.397 4392250.738 -3606.363
289465.397 4392050.738 -3606.224
289465.397 4391850.738 -3606.017
289465.397 4391650.738 -3605.348
289465.397 4391450.738 -3605.146
289465.397 4391250.738 -3604.901
289465.397 4391050.738 -3604.943
289465.397 4390850.738 -3603.467
289465.397 4390650.738 -3603.509
289465.397 4390450.738 -3603.649
289465.397 4390250.738 -3603.413
289465.397 4390050.738 -3603.168
289465.397 4389850.738 -3602.936
289665.397 4444850.738 -3595.252
289665.397 4444650.738 -3597.160
289665.397 4444450.738 -3597.277
289665.397 4444250.738 -3595.887
289665.397 4444050.738 -3595.390
289665.397 4443850.738 -3595.291
289665.397 4443650.738 -3594.610
289665.397 4443450.738 -3593.325
289665.397 4443250.738 -3593.481
289665.397 4443050.738 -3593.973
289665.397 4442850.738 -3594.302
289665.397 4442650.738 -3593.677
289665.397 4442450.738 -3592.782
289665.397 4442250.738 -3592.810
289665.397 4442050.738 -3592.288
289665.397 4441850.738 -3593.418
289665.397 4441650.738 -3595.232
289665.397 4441450.738 -3593.642
289665.397 4441250.738 -3591.637
289665.397 4441050.738 -3590.688
289665.397 4440850.738 -3588.773
289665.397 4440650.738 -3588.510
289665.397 4440450.738 -3591.853
289665.397 4440250.738 -3593.355
289665.397 4440050.738 -3590.694
289665.397 4439850.738 -3591.420
289665.397 4439650.738 -3591.165
289665.397 4439450.738 -3589.353
289665.397 4439250.738 -3589.363
289665.397 4439050.738 -3587.355
289665.397 4438850.738 -3584.959
289665.397 4438650.738 -3584.044
289665.397 4438450.738 -3582.321
289665.397 4438250.738 -3581.234
289665.397 4438050.738 -3578.658
289665.397 4437850.738 -3576.864
289665.397 4437650.738 -3577.286
289665.397 4437450.738 -3577.230
289665.397 4437250.738 -3575.776
289665.397 4437050.738 -3570.605
289665.397 4436850.738 -3564.133
289665.397 4436650.738 -3560.787
289665.397 4436450.738 -3551.274
289665.397 4436250.738 -3516.288
289665.397 4436050.738 -3455.090
289665.397 4435850.738 -3396.776
289665.397 4435650.738 -3340.269
289665.397 4435450.738 -3283.356
289665.397 4435250.738 -3253.418
289665.397 4435050.738 -3266.446
289665.397 4434850.738 -3289.952
289665.397 4434650.738 -3303.380
289665.397 4434450.738 -3310.646
289665.397 4434250.738 -3318.271
289665.397 4434050.738 -3323.985
289665.397 4433850.738 -3325.868
289665.397 4433650.738 -3333.613
289665.397 4433450.738 -3337.595
289665.397 4433250.738 -3336.935
289665.397 4433050.738 -3340.654
289665.397 4432850.738 -3342.729
289665.397 4432650.738 -3338.752
289665.397 4432450.738 -3334.620
289665.397 4432250.738 -3328.720
289665.397 4432050.738 -3320.402
289665.397 4431850.738 -3318.039
289665.397 4431650.738 -3316.326
289665.397 4431450.738 -3298.851
289665.397 4431250.738 -3260.775
289665.397 4431050.738 -3213.525
289665.397 4430850.738 -3177.732
289665.397 4430650.738 -3150.888
289665.397 4430450.738 -3125.616
289665.397 4430250.738 -3118.625
289665.397 4430050.738 -3133.599
289665.397 4429850.738 -3154.965
289665.397 4429650.738 -3186.407
289665.397 4429450.738 -3235.459
289665.397 4429250.738 -3298.767
289665.397 4429050.738 -3350.015
289665.397 4428850.738 -3375.598
289665.397 4428650.738 -3384.128
289665.397 4428450.738 -3389.059
289665.397 4428250.738 -3397.817
289665.397 4428050.738 -3398.459
289665.397 4427850.738 -3398.810
289665.397 4427650.738 -3400.984
289665.397 4427450.738 -3399.455
289665.397 4427250.738 -3400.065
289665.397 4427050.738 -3400.208
289665.397 4426850.738 -3400.082
289665.397 4426650.738 -3400.357
289665.397 4426450.738 -3395.618
289665.397 4426250.738 -3397.837
289665.397 4426050.738 -3398.527
289665.397 4425850.738 -3399.297
289665.397 4425650.738 -3400.031
289665.397 4425450.738 -3403.566
289665.397 4425250.738 -3403.621
289665.397 4425050.738 -3400.598
289665.397 4424850.738 -3398.805
289665.397 4424650.738 -3397.162
289665.397 4424450.738 -3394.299
289665.397 4424250.738 -3390.698
289665.397 4424050.738 -3387.516
289665.397 4423850.738 -3386.279
289665.397 4423650.738 -3386.602
289665.397 4423450.738 -3389.036
289665.397 4423250.738 -3389.347
289665.397 4423050.738 -3387.962
289665.397 4422850.738 -3390.385
289665.397 4422650.738 -3395.945
289665.397 4422450.738 -3396.260
289665.397 4422250.738 -3392.008
289665.397 4422050.738 -3386.603
289665.397 4421850.738 -3380.788
289665.397 4421650.738 -3373.285
289665.397 4421450.738 -3370.172
289665.397 4421250.738 -3368.618
289665.397 4421050.738 -3362.395
289665.397 4420850.738 -3360.952
289665.397 4420650.738 -3359.272
289665.397 4420450.738 -3353.882
289665.397 4420250.738 -3346.150
289665.397 4420050.738 -3339.308
289665.397 4419850.738 -3334.543
289665.397 4419650.738 -3331.886
289665.397 4419450.738 -3328.579
289665.397 4419250.738 -3324.816
289665.397 4419050.738 -3320.067
289665.397 4418850.738 -3313.465
289665.397 4418650.738 -3306.720
289665.397 4418450.738 -3304.030
289665.397 4418250.738 -3301.259
289665.397 4418050.738 -3294.695
289665.397 4417850.738 -3285.781
289665.397 4417650.738 -3281.430
289665.397 4417450.738 -3276.832
289665.397 4417250.738 -3261.332
289665.397 4417050.738 -3250.166
289665.397 4416850.738 -3245.574
289665.397 4416650.738 -3239.178
289665.397 4416450.738 -3231.617
289665.397 4416250.738 -3214.140
289665.397 4416050.738 -3215.159
289665.397 4415850.738 -3195.081
289665.397 4415650.738 -3166.718
289665.397 4415450.738 -3165.127
289665.397 4415250.738 -3167.220
289665.397 4415050.738 -3124.128
289665.397 4414850.738 -3093.464
289665.397 4414650.738 -3094.147
289665.397 4414450.738 -3098.597
289665.397 4414250.738 -3098.465
289665.397 4414050.738 -3097.648
289665.397 4413850.738 -3115.103
289665.397 4413650.738 -3128.416
289665.397 4413450.738 -3126.507
289665.397 4413250.738 -3125.536
289665.397 4413050.738 -3121.487
289665.397 4412850.738 -3120.454
289665.397 4412650.738 -3125.448
289665.397 4412450.738 -3130.708
289665.397 4412250.738 -3133.402
289665.397 4412050.738 -3120.875
289665.397 4411850.738 -3092.094
289665.397 4411650.738 -3076.200
289665.397 4411450.738 -3087.969
289665.397 4411250.738 -3100.421
289665.397 4411050.738 -3101.703
289665.397 4410850.738 -3092.525
289665.397 4410650.738 -3087.131
289665.397 4410450.738 -3090.248
289665.397 4410250.738 -3102.194
289665.397 4410050.738 -3106.685
289665.397 4409850.738 -3107.270
289665.397 4409650.738 -3111.639
289665.397 4409450.738 -3108.012
289665.397 4409250.738 -3103.800
289665.397 4409050.738 -3114.534
289665.397 4408850.738 -3128.621
289665.397 4408650.738 -3117.690
289665.397 4408450.738 -3093.146
289665.397 4408250.738 -3062.642
289665.397 4408050.738 -3040.529
289665.397 4407850.738 -3036.716
289665.397 4407650.738 -3033.261
289665.397 4407450.738 -3016.938
289665.397 4407250.738 -2996.869
289665.397 4407050.738 -2987.411
289665.397 4406850.738 -2993.392
289665.397 4406650.738 -3007.318
289665.397 4406450.738 -3039.447
289665.397 4406250.738 -3072.044
289665.397 4406050.738 -3094.802
289665.397 4405850.738 -3101.094
289665.397 4405650.738 -3101.319
289665.397 4405450.738 -3104.885
289665.397 4405250.738 -3103.090
289665.397 4405050.738 -3104.289
289665.397 4404850.738 -3117.072
289665.397 4404650.738 -3143.431
289665.397 4404450.738 -3180.912
289665.397 4404250.738 -3226.195
289665.397 4404050.738 -3263.446
289665.397 4403850.738 -3277.598
289665.397 4403650.738 -3278.449
289665.397 4403450.738 -3288.629
289665.397 4403250.738 -3302.636
289665.397 4403050.738 -3343.919
289665.397 4402850.738 -3406.361
289665.397 4402650.738 -3468.015
289665.397 4402450.738 -3524.493
289665.397 4402250.738 -3557.866
289665.397 4402050.738 -3573.264
289665.397 4401850.738 -3589.220
289665.397 4401650.738 -3597.052
289665.397 4401450.738 -3599.872
289665.397 4401250.738 -3600.593
289665.397 4401050.738 -3599.172
289665.397 4400850.738 -3599.614
289665.397 4400650.738 -3598.130
289665.397 4400450.738 -3597.916
289665.397 4400250.738 -3598.808
289665.397 4400050.738 -3600.780
289665.397 4399850.738 -3602.351
289665.397 4399650.738 -3602.092
289665.397 4399450.738 -3602.105
289665.397 4399250.738 -3601.244
289665.397 4399050.738 -3600.606
289665.397 4398850.738 -3601.323
289665.397 4398650.738 -3601.573
289665.397 4398450.738 -3602.416
289665.397 4398250.738 -3602.720
289665.397 4398050.738 -3602.837
289665.397 4397850.738 -3602.707
289665.397 4397650.738 -3602.478
289665.397 4397450.738 -3602.637
289665.397 4397250.738 -3602.722
289665.397 4397050.738 -3602.329
289665.397 4396850.738 -3602.339
289665.397 4396650.738 -3602.654
289665.397 4396450.738 -3602.905
289665.397 4396250.738 -3602.439
289665.397 4396050.738 -3602.549
289665.397 4395850.738 -3603.598
289665.397 4395650.738 -3603.886
289665.397 4395450.738 -3603.420
289665.397 4395250.738 -3603.116
289665.397 4395050.738 -3603.103
289665.397 4394850.738 -3603.877
289665.397 4394650.738 -3604.565
289665.397 4394450.738 -3604.699
289665.397 4394250.738 -3604.994
289665.397 4394050.738 -3604.904
289665.397 4393850.738 -3604.681
289665.397 4393650.738 -3604.399
289665.397 4393450.738 -3603.876
289665.397 4393250.738 -3604.942
289665.397 4393050.738 -3604.532
289665.397 4392850.738 -3604.923
289665.397 4392650.738 -3605.053
289665.397 4392450.738 -3605.347
289665.397 4392250.738 -3605.199
289665.397 4392050.738 -3604.679
289665.397 4391850.738 -3604.151
289665.397 4391650.738 -3603.828
289665.397 4391450.738 -3603.995
289665.397 4391250.738 -3604.374
289665.397 4391050.738 -3604.305
289665.397 4390850.738 -3603.331
289665.397 4390650.738 -3603.550
289665.397 4390450.738 -3603.924
289665.397 4390250.738 -3603.453
289665.397 4390050.738 -3603.063
289665.397 4389850.738 -3603.168
289865.397 4444850.738 -3596.082
289865.397 4444650.738 -3596.970
289865.397 4444450.738 -3598.318
289865.397 4444250.738 -3597.677
289865.397 4444050.738 -3597.105
289865.397 4443850.738 -3597.268
289865.397 4443650.738 -3596.981
289865.397 4443450.738 -3595.090
289865.397 4443250.738 -3595.446
289865.397 4443050.738 -3595.709
289865.397 4442850.738 -3596.464
289865.397 4442650.738 -3594.237
289865.397 4442450.738 -3591.303
289865.397 4442250.738 -3591.403
289865.397 4442050.738 -3591.991
289865.397 4441850.738 -3593.507
289865.397 4441650.738 -3594.696
289865.397 4441450.738 -3593.602
289865.397 4441250.738 -3591.754
289865.397 4441050.738 -3592.410
289865.397 4440850.738 -3591.014
289865.397 4440650.738 -3590.070
289865.397 4440450.738 -3592.684
289865.397 4440250.738 -3595.367
289865.397 4440050.738 -3592.492
289865.397 4439850.738 -3592.836
289865.397 4439650.738 -3593.526
289865.397 4439450.738 -3592.293
289865.397 4439250.738 -3592.046
289865.397 4439050.738 -3589.456
289865.397 4438850.738 -3584.672
289865.397 4438650.738 -3584.263
289865.397 4438450.738 -3581.386
289865.397 4438250.738 -3579.599
289865.397 4438050.738 -3577.815
289865.397 4437850.738 -3576.285
289865.397 4437650.738 -3576.126
289865.397 4437450.738 -3575.832
289865.397 4437250.738 -3574.510
289865.397 4437050.738 -3568.775
289865.397 4436850.738 -3561.083
289865.397 4436650.738 -3555.275
289865.397 4436450.738 -3549.175
289865.397 4436250.738 -3522.804
289865.397 4436050.738 -3466.376
289865.397 4435850.738 -3406.843
289865.397 4435650.738 -3350.272
289865.397 4435450.738 -3295.374
289865.397 4435250.738 -3260.031
289865.397 4435050.738 -3266.206
289865.397 4434850.738 -3289.082
289865.397 4434650.738 -3298.471
289865.397 4434450.738 -3306.687
289865.397 4434250.738 -3317.459
289865.397 4434050.738 -3321.949
289865.397 4433850.738 -3324.469
289865.397 4433650.738 -3335.695
289865.397 4433450.738 -3342.967
289865.397 4433250.738 -3346.877
289865.397 4433050.738 -3344.567
289865.397 4432850.738 -3342.006
289865.397 4432650.738 -3342.592
289865.397 4432450.738 -3340.724
289865.397 4432250.738 -3336.897
289865.397 4432050.738 -3330.794
289865.397 4431850.738 -3324.943
289865.397 4431650.738 -3321.844
289865.397 4431450.738 -3304.353
289865.397 4431250.738 -3267.844
289865.397 4431050.738 -3220.398
289865.397 4430850.738 -3178.066
289865.397 4430650.738 -3152.233
289865.397 4430450.738 -3134.796
289865.397 4430250.738 -3119.767
289865.397 4430050.738 -3130.579
289865.397 4429850.738 -3150.862
289865.397 4429650.738 -3173.382
289865.397 4429450.738 -3210.563
289865.397 4429250.738 -3279.209
289865.397 4429050.738 -3341.733
289865.397 4428850.738 -3374.733
289865.397 4428650.738 -3386.492
289865.397 4428450.738 -3388.993
289865.397 4428250.738 -3397.838
289865.397 4428050.738 -3398.846
289865.397 4427850.738 -3397.361
289865.397 4427650.738 -3399.383
289865.397 4427450.738 -3397.801
289865.397 4427250.738 -3395.641
289865.397 4427050.738 -3396.058
289865.397 4426850.738 -3394.732
289865.397 4426650.738 -3394.465
289865.397 4426450.738 -3393.193
289865.397 4426250.738 -3394.052
289865.397 4426050.738 -3393.625
289865.397 4425850.738 -3393.853
289865.397 4425650.738 -3393.986
289865.397 4425450.738 -3394.680
289865.397 4425250.738 -3392.698
289865.397 4425050.738 -3391.032
289865.397 4424850.738 -3390.542
289865.397 4424650.738 -3392.453
289865.397 4424450.738 -3390.280
289865.397 4424250.738 -3386.800
289865.397 4424050.738 -3384.640
289865.397 4423850.738 -3383.804
289865.397 4423650.738 -3382.251
289865.397 4423450.738 -3382.201
289865.397 4423250.738 -3382.993
289865.397 4423050.738 -3383.155
289865.397 4422850.738 -3384.150
289865.397 4422650.738 -3389.391
289865.397 4422450.738 -3390.064
289865.397 4422250.738 -3384.811
289865.397 4422050.738 -3380.782
289865.397 4421850.738 -3376.431
289865.397 4421650.738 -3368.511
289865.397 4421450.738 -3360.293
289865.397 4421250.738 -3356.924
289865.397 4421050.738 -3352.085
289865.397 4420850.738 -3351.235
289865.397 4420650.738 -3349.543
289865.397 4420450.738 -3345.900
289865.397 4420250.738 -3340.038
289865.397 4420050.738 -3332.738
289865.397 4419850.738 -3329.162
289865.397 4419650.738 -3325.489
289865.397 4419450.738 -3320.087
289865.397 4419250.738 -3319.350
289865.397 4419050.738 -3317.928
289865.397 4418850.738 -3313.747
289865.397 4418650.738 -3305.430
289865.397 4418450.738 -3296.413
289865.397 4418250.738 -3284.627
289865.397 4418050.738 -3270.849
289865.397 4417850.738 -3257.368
289865.397 4417650.738 -3249.594
289865.397 4417450.738 -3241.513
289865.397 4417250.738 -3223.355
289865.397 4417050.738 -3208.705
289865.397 4416850.738 -3203.929
289865.397 4416650.738 -3195.595
289865.397 4416450.738 -3181.490
289865.397 4416250.738 -3161.076
289865.397 4416050.738 -3167.591
289865.397 4415850.738 -3147.186
289865.397 4415650.738 -3089.709
289865.397 4415450.738 -3059.042
289865.397 4415250.738 -3060.455
289865.397 4415050.738 -3036.912
289865.397 4414850.738 -3031.814
289865.397 4414650.738 -3042.424
289865.397 4414450.738 -3050.174
289865.397 4414250.738 -3050.414
289865.397 4414050.738 -3050.773
289865.397 4413850.738 -3070.286
289865.397 4413650.738 -3093.916
289865.397 4413450.738 -3104.950
289865.397 4413250.738 -3108.161
289865.397 4413050.738 -3106.806
289865.397 4412850.738 -3108.986
289865.397 4412650.738 -3115.508
289865.397 4412450.738 -3113.313
289865.397 4412250.738 -3106.006
289865.397 4412050.738 -3092.303
289865.397 4411850.738 -3066.145
289865.397 4411650.738 -3046.573
289865.397 4411450.738 -3054.613
289865.397 4411250.738 -3073.711
289865.397 4411050.738 -3076.668
289865.397 4410850.738 -3071.075
289865.397 4410650.738 -3067.466
289865.397 4410450.738 -3072.882
289865.397 4410250.738 -3080.530
289865.397 4410050.738 -3083.157
289865.397 4409850.738 -3087.507
289865.397 4409650.738 -3092.442
289865.397 4409450.738 -3073.857
289865.397 4409250.738 -3044.635
289865.397 4409050.738 -3046.003
289865.397 4408850.738 -3052.862
289865.397 4408650.738 -3030.384
289865.397 4408450.738 -3000.290
289865.397 4408250.738 -2964.499
289865.397 4408050.738 -2932.613
289865.397 4407850.738 -2932.494
289865.397 4407650.738 -2946.238
289865.397 4407450.738 -2947.454
289865.397 4407250.738 -2944.702
289865.397 4407050.738 -2931.353
289865.397 4406850.738 -2927.406
289865.397 4406650.738 -2943.880
289865.397 4406450.738 -2982.020
289865.397 4406250.738 -3027.988
289865.397 4406050.738 -3070.031
289865.397 4405850.738 -3086.619
289865.397 4405650.738 -3089.503
289865.397 4405450.738 -3093.440
289865.397 4405250.738 -3095.909
289865.397 4405050.738 -3103.578
289865.397 4404850.738 -3123.282
289865.397 4404650.738 -3151.480
289865.397 4404450.738 -3187.469
289865.397 4404250.738 -3231.432
289865.397 4404050.738 -3261.207
289865.397 4403850.738 -3278.960
289865.397 4403650.738 -3292.773
289865.397 4403450.738 -3304.031
289865.397 4403250.738 -3327.272
289865.397 4403050.738 -3382.461
289865.397 4402850.738 -3431.784
289865.397 4402650.738 -3475.360
289865.397 4402450.738 -3521.638
289865.397 4402250.738 -3560.329
289865.397 4402050.738 -3580.805
289865.397 4401850.738 -3591.615
289865.397 4401650.738 -3596.814
289865.397 4401450.738 -3599.390
289865.397 4401250.738 -3600.574
289865.397 4401050.738 -3599.554
289865.397 4400850.738 -3600.744
289865.397 4400650.738 -3599.083
289865.397 4400450.738 -3598.358
289865.397 4400250.738 -3599.945
289865.397 4400050.738 -3601.129
289865.397 4399850.738 -3601.262
289865.397 4399650.738 -3600.509
289865.397 4399450.738 -3600.621
289865.397 4399250.738 -3601.104
289865.397 4399050.738 -3600.563
289865.397 4398850.738 -3601.154
289865.397 4398650.738 -3601.787
289865.397 4398450.738 -3602.659
289865.397 4398250.738 -3602.840
289865.397 4398050.738 -3603.020
289865.397 4397850.738 -3602.683
289865.397 4397650.738 -3602.160
289865.397 4397450.738 -3601.963
289865.397 4397250.738 -3602.173
289865.397 4397050.738 -3602.497
289865.397 4396850.738 -3602.837
289865.397 4396650.738 -3602.878
289865.397 4396450.738 -3603.393
289865.397 4396250.738 -3602.798
289865.397 4396050.738 -3602.892
289865.397 4395850.738 -3603.227
289865.397 4395650.738 -3602.354
289865.397 4395450.738 -3602.176
289865.397 4395250.738 -3602.386
289865.397 4395050.738 -3602.474
289865.397 4394850.738 -3602.842
289865.397 4394650.738 -3602.936
289865.397 4394450.738 -3603.380
289865.397 4394250.738 -3603.696
289865.397 4394050.738 -3603.777
289865.397 4393850.738 -3603.764
289865.397 4393650.738 -3604.008
289865.397 4393450.738 -3603.794
289865.397 4393250.738 -3603.339
289865.397 4393050.738 -3602.727
289865.397 4392850.738 -3603.899
289865.397 4392650.738 -3604.004
289865.397 4392450.738 -3604.330
289865.397 4392250.738 -3604.835
289865.397 4392050.738 -3604.972
289865.397 4391850.738 -3603.987
289865.397 4391650.738 -3603.975
289865.397 4391450.738 -3604.561
289865.397 4391250.738 -3604.534
289865.397 4391050.738 -3604.113
289865.397 4390850.738 -3603.707
289865.397 4390650.738 -3603.891
289865.397 4390450.738 -3604.155
289865.397 4390250.738 -3604.081
289865.397 4390050.738 -3603.881
289865.397 4389850.738 -3603.200
290065.397 4444850.738 -3598.048
290065.397 4444650.738 -3597.616
290065.397 4444450.738 -3598.456
290065.397 4444250.738 -3599.261
290065.397 4444050.738 -3598.748
290065.397 4443850.738 -3597.513
290065.397 4443650.738 -3596.249
290065.397 4443450.738 -3594.814
290065.397 4443250.738 -3595.658
290065.397 4443050.738 -3595.161
290065.397 4442850.738 -3596.136
290065.397 4442650.738 -3595.122
290065.397 4442450.738 -3592.085
290065.397 4442250.738 -3592.431
290065.397 4442050.738 -3592.053
290065.397 4441850.738 -3594.392
290065.397 4441650.738 -3595.299
290065.397 4441450.738 -3595.132
290065.397 4441250.738 -3593.240
290065.397 4441050.738 -3593.629
290065.397 4440850.738 -3593.665
290065.397 4440650.738 -3591.258
290065.397 4440450.738 -3591.368
290065.397 4440250.738 -3594.946
290065.397 4440050.738 -3592.570
290065.397 4439850.738 -3592.139
290065.397 4439650.738 -3594.077
290065.397 4439450.738 -3593.763
290065.397 4439250.738 -3593.319
290065.397 4439050.738 -3589.359
290065.397 4438850.738 -3581.930
290065.397 4438650.738 -3579.614
290065.397 4438450.738 -3577.241
290065.397 4438250.738 -3577.025
290065.397 4438050.738 -3577.938
290065.397 4437850.738 -3577.236
290065.397 4437650.738 -3575.829
290065.397 4437450.738 -3574.568
290065.397 4437250.738 -3571.935
290065.397 4437050.738 -3566.354
290065.397 4436850.738 -3560.922
290065.397 4436650.738 -3552.291
290065.397 4436450.738 -3544.701
290065.397 4436250.738 -3527.784
290065.397 4436050.738 -3487.708
290065.397 4435850.738 -3432.505
290065.397 4435650.738 -3376.243
290065.397 4435450.738 -3315.999
290065.397 4435250.738 -3264.604
290065.397 4435050.738 -3256.253
290065.397 4434850.738 -3280.252
290065.397 4434650.738 -3295.637
290065.397 4434450.738 -3304.427
290065.397 4434250.738 -3310.240
290065.397 4434050.738 -3316.237
290065.397 4433850.738 -3324.253
290065.397 4433650.738 -3337.877
290065.397 4433450.738 -3346.724
290065.397 4433250.738 -3350.417
290065.397 4433050.738 -3348.578
290065.397 4432850.738 -3346.972
290065.397 4432650.738 -3347.354
290065.397 4432450.738 -3345.979
290065.397 4432250.738 -3340.743
290065.397 4432050.738 -3335.382
290065.397 4431850.738 -3331.984
290065.397 4431650.738 -3326.966
290065.397 4431450.738 -3310.991
290065.397 4431250.738 -3278.367
290065.397 4431050.738 -3231.540
290065.397 4430850.738 -3185.926
290065.397 4430650.738 -3159.734
290065.397 4430450.738 -3144.258
290065.397 4430250.738 -3134.549
290065.397 4430050.738 -3143.863
290065.397 4429850.738 -3163.007
290065.397 4429650.738 -3178.911
290065.397 4429450.738 -3202.896
290065.397 4429250.738 -3258.660
290065.397 4429050.738 -3326.342
290065.397 4428850.738 -3370.418
290065.397 4428650.738 -3387.431
290065.397 4428450.738 -3388.301
290065.397 4428250.738 -3393.382
290065.397 4428050.738 -3393.505
290065.397 4427850.738 -3389.533
290065.397 4427650.738 -3389.019
290065.397 4427450.738 -3389.911
290065.397 4427250.738 -3389.499
290065.397 4427050.738 -3389.871
290065.397 4426850.738 -3390.788
290065.397 4426650.738 -3390.737
290065.397 4426450.738 -3391.495
290065.397 4426250.738 -3392.520
290065.397 4426050.738 -3391.047
290065.397 4425850.738 -3390.465
290065.397 4425650.738 -3390.058
290065.397 4425450.738 -3389.272
290065.397 4425250.738 -3388.225
290065.397 4425050.738 -3387.752
290065.397 4424850.738 -3387.497
290065.397 4424650.738 -3388.021
290065.397 4424450.738 -3386.169
290065.397 4424250.738 -3383.478
290065.397 4424050.738 -3382.543
290065.397 4423850.738 -3382.305
290065.397 4423650.738 -3378.033
290065.397 4423450.738 -3376.166
290065.397 4423250.738 -3377.537
290065.397 4423050.738 -3376.988
290065.397 4422850.738 -3377.064
290065.397 4422650.738 -3380.453
290065.397 4422450.738 -3380.672
290065.397 4422250.738 -3377.696
290065.397 4422050.738 -3374.155
290065.397 4421850.738 -3369.760
290065.397 4421650.738 -3364.981
290065.397 4421450.738 -3356.415
290065.397 4421250.738 -3349.244
290065.397 4421050.738 -3342.492
290065.397 4420850.738 -3340.877
290065.397 4420650.738 -3339.743
290065.397 4420450.738 -3334.741
290065.397 4420250.738 -3331.257
290065.397 4420050.738 -3327.806
290065.397 4419850.738 -3322.664
290065.397 4419650.738 -3314.707
290065.397 4419450.738 -3312.115
290065.397 4419250.738 -3313.828
290065.397 4419050.738 -3311.765
290065.397 4418850.738 -3303.558
290065.397 4418650.738 -3286.455
290065.397 4418450.738 -3264.744
290065.397 4418250.738 -3244.128
290065.397 4418050.738 -3226.560
290065.397 4417850.738 -3213.859
290065.397 4417650.738 -3203.092
290065.397 4417450.738 -3190.073
290065.397 4417250.738 -3173.127
290065.397 4417050.738 -3154.189
290065.397 4416850.738 -3145.905
290065.397 4416650.738 -3142.434
290065.397 4416450.738 -3137.873
290065.397 4416250.738 -3126.533
290065.397 4416050.738 -3123.265
290065.397 4415850.738 -3098.263
290065.397 4415650.738 -3031.175
290065.397 4415450.738 -2982.447
290065.397 4415250.738 -2993.734
290065.397 4415050.738 -2996.743
290065.397 4414850.738 -2994.359
290065.397 4414650.738 -3002.936
290065.397 4414450.738 -3011.378
290065.397 4414250.738 -3017.751
290065.397 4414050.738 -3014.286
290065.397 4413850.738 -3030.785
290065.397 4413650.738 -3055.825
290065.397 4413450.738 -3074.083
290065.397 4413250.738 -3086.403
290065.397 4413050.738 -3091.511
290065.397 4412850.738 -3093.985
290065.397 4412650.738 -3095.390
290065.397 4412450.738 -3087.750
290065.397 4412250.738 -3068.941
290065.397 4412050.738 -3051.717
290065.397 4411850.738 -3033.202
290065.397 4411650.738 -3019.620
290065.397 4411450.738 -3020.226
290065.397 4411250.738 -3029.332
290065.397 4411050.738 -3039.087
290065.397 4410850.738 -3042.678
290065.397 4410650.738 -3043.710
290065.397 4410450.738 -3049.694
290065.397 4410250.738 -3052.693
290065.397 4410050.738 -3055.547
290065.397 4409850.738 -3044.869
290065.397 4409650.738 -3022.016
290065.397 4409450.738 -2990.319
290065.397 4409250.738 -2970.005
290065.397 4409050.738 -2969.755
290065.397 4408850.738 -2961.758
290065.397 4408650.738 -2930.383
290065.397 4408450.738 -2892.770
290065.397 4408250.738 -2850.078
290065.397 4408050.738 -2828.869
290065.397 4407850.738 -2840.607
290065.397 4407650.738 -2850.108
290065.397 4407450.738 -2863.834
290065.397 4407250.738 -2889.824
290065.397 4407050.738 -2895.315
290065.397 4406850.738 -2907.084
290065.397 4406650.738 -2929.841
290065.397 4406450.738 -2955.579
290065.397 4406250.738 -2990.870
290065.397 4406050.738 -3040.611
290065.397 4405850.738 -3077.966
290065.397 4405650.738 -3086.879
290065.397 4405450.738 -3088.662
290065.397 4405250.738 -3092.980
290065.397 4405050.738 -3104.171
290065.397 4404850.738 -3127.707
290065.397 4404650.738 -3155.605
290065.397 4404450.738 -3184.526
290065.397 4404250.738 -3221.357
290065.397 4404050.738 -3262.274
290065.397 4403850.738 -3301.756
290065.397 4403650.738 -3354.526
290065.397 4403450.738 -3386.179
290065.397 4403250.738 -3402.601
290065.397 4403050.738 -3433.057
290065.397 4402850.738 -3459.984
290065.397 4402650.738 -3487.872
290065.397 4402450.738 -3517.593
290065.397 4402250.738 -3554.915
290065.397 4402050.738 -3583.145
290065.397 4401850.738 -3593.154
290065.397 4401650.738 -3596.156
290065.397 4401450.738 -3596.099
290065.397 4401250.738 -3598.171
290065.397 4401050.738 -3598.698
290065.397 4400850.738 -3599.125
290065.397 4400650.738 -3598.203
290065.397 4400450.738 -3598.574
290065.397 4400250.738 -3600.591
290065.397 4400050.738 -3601.473
290065.397 4399850.738 -3601.629
290065.397 4399650.738 -3601.085
290065.397 4399450.738 -3601.332
290065.397 4399250.738 -3601.685
290065.397 4399050.738 -3601.658
290065.397 4398850.738 -3601.539
290065.397 4398650.738 -3601.240
290065.397 4398450.738 -3602.259
290065.397 4398250.738 -3603.040
290065.397 4398050.738 -3602.776
290065.397 4397850.738 -3603.287
290065.397 4397650.738 -3603.540
290065.397 4397450.738 -3603.254
290065.397 4397250.738 -3602.598
290065.397 4397050.738 -3602.273
290065.397 4396850.738 -3601.826
290065.397 4396650.738 -3601.125
290065.397 4396450.738 -3601.728
290065.397 4396250.738 -3601.954
290065.397 4396050.738 -3601.567
290065.397 4395850.738 -3601.935
290065.397 4395650.738 -3601.967
290065.397 4395450.738 -3602.246
290065.397 4395250.738 -3602.079
290065.397 4395050.738 -3602.014
290065.397 4394850.738 -3602.071
290065.397 4394650.738 -3601.689
290065.397 4394450.738 -3602.199
290065.397 4394250.738 -3602.378
290065.397 4394050.738 -3602.103
290065.397 4393850.738 -3602.402
290065.397 4393650.738 -3603.024
290065.397 4393450.738 -3603.828
290065.397 4393250.738 -3603.249
290065.397 4393050.738 -3602.882
290065.397 4392850.738 -3603.948
290065.397 4392650.738 -3604.077
290065.397 4392450.738 -3604.990
290065.397 4392250.738 -3606.167
290065.397 4392050.738 -3605.862
290065.397 4391850.738 -3605.278
290065.397 4391650.738 -3604.518
290065.397 4391450.738 -3604.940
290065.397 4391250.738 -3605.387
290065.397 4391050.738 -3604.986
290065.397 4390850.738 -3603.932
290065.397 4390650.738 -3603.569
290065.397 4390450.738 -3603.634
290065.397 4390250.738 -3603.901
290065.397 4390050.738 -3604.050
290065.397 4389850.738 -3603.534
290265.397 4444850.738 -3598.865
290265.397 4444650.738 -3598.363
290265.397 4444450.738 -3597.478
290265.397 4444250.738 -3598.043
290265.397 4444050.738 -3599.112
290265.397 4443850.738 -3598.191
290265.397 4443650.738 -3597.315
290265.397 4443450.738 -3596.368
290265.397 4443250.738 -3596.935
290265.397 4443050.738 -3596.356
290265.397 4442850.738 -3594.966
290265.397 4442650.738 -3595.581
290265.397 4442450.738 -3593.501
290265.397 4442250.738 -3592.621
290265.397 4442050.738 -3592.495
290265.397 4441850.738 -3594.392
290265.397 4441650.738 -3596.186
290265.397 4441450.738 -3595.943
290265.397 4441250.738 -3593.553
290265.397 4441050.738 -3594.109
290265.397 4440850.738 -3593.874
290265.397 4440650.738 -3591.926
290265.397 4440450.738 -3590.273
290265.397 4440250.738 -3591.739
290265.397 4440050.738 -3590.802
290265.397 4439850.738 -3590.497
290265.397 4439650.738 -3592.631
290265.397 4439450.738 -3592.270
290265.397 4439250.738 -3591.529
290265.397 4439050.738 -3589.301
290265.397 4438850.738 -3581.670
290265.397 4438650.738 -3575.229
290265.397 4438450.738 -3570.858
290265.397 4438250.738 -3570.571
290265.397 4438050.738 -3573.998
290265.397 4437850.738 -3572.707
290265.397 4437650.738 -3570.342
290265.397 4437450.738 -3569.017
290265.397 4437250.738 -3567.778
290265.397 4437050.738 -3562.726
290265.397 4436850.738 -3558.631
290265.397 4436650.738 -3551.617
290265.397 4436450.738 -3538.026
290265.397 4436250.738 -3521.971
290265.397 4436050.738 -3496.374
290265.397 4435850.738 -3449.859
290265.397 4435650.738 -3397.552
290265.397 4435450.738 -3339.189
290265.397 4435250.738 -3275.018
290265.397 4435050.738 -3245.691
290265.397 4434850.738 -3263.373
290265.397 4434650.738 -3295.131
290265.397 4434450.738 -3310.967
290265.397 4434250.738 -3313.920
290265.397 4434050.738 -3320.966
290265.397 4433850.738 -3325.791
290265.397 4433650.738 -3330.353
290265.397 4433450.738 -3336.152
290265.397 4433250.738 -3346.951
290265.397 4433050.738 -3352.765
290265.397 4432850.738 -3353.014
290265.397 4432650.738 -3353.072
290265.397 4432450.738 -3353.426
290265.397 4432250.738 -3348.625
290265.397 4432050.738 -3343.933
290265.397 4431850.738 -3341.601
290265.397 4431650.738 -3336.622
290265.397 4431450.738 -3323.257
290265.397 4431250.738 -3295.199
290265.397 4431050.738 -3253.154
290265.397 4430850.738 -3208.236
290265.397 4430650.738 -3177.013
290265.397 4430450.738 -3159.403
290265.397 4430250.738 -3151.001
290265.397 4430050.738 -3161.800
290265.397 4429850.738 -3178.713
290265.397 4429650.738 -3188.721
290265.397 4429450.738 -3205.141
290265.397 4429250.738 -3248.576
290265.397 4429050.738 -3313.393
290265.397 4428850.738 -3364.167
290265.397 4428650.738 -3383.517
290265.397 4428450.738 -3384.195
290265.397 4428250.738 -3385.602
290265.397 4428050.738 -3387.216
290265.397 4427850.738 -3387.658
290265.397 4427650.738 -3387.698
290265.397 4427450.738 -3386.455
290265.397 4427250.738 -3389.575
290265.397 4427050.738 -3389.887
290265.397 4426850.738 -3391.151
290265.397 4426650.738 -3391.237
290265.397 4426450.738 -3390.833
290265.397 4426250.738 -3390.480
290265.397 4426050.738 -3388.548
290265.397 4425850.738 -3386.837
290265.397 4425650.738 -3385.643
290265.397 4425450.738 -3386.322
290265.397 4425250.738 -3387.190
290265.397 4425050.738 -3386.438
290265.397 4424850.738 -3385.140
290265.397 4424650.738 -3383.712
290265.397 4424450.738 -3382.802
290265.397 4424250.738 -3381.598
290265.397 4424050.738 -3381.701
290265.397 4423850.738 -3380.968
290265.397 4423650.738 -3374.502
290265.397 4423450.738 -3370.932
290265.397 4423250.738 -3370.990
290265.397 4423050.738 -3370.856
290265.397 4422850.738 -3370.872
290265.397 4422650.738 -3371.212
290265.397 4422450.738 -3370.920
290265.397 4422250.738 -3370.085
290265.397 4422050.738 -3366.819
290265.397 4421850.738 -3362.372
290265.397 4421650.738 -3358.485
290265.397 4421450.738 -3350.447
290265.397 4421250.738 -3343.958
290265.397 4421050.738 -3337.805
290265.397 4420850.738 -3330.802
290265.397 4420650.738 -3326.205
290265.397 4420450.738 -3324.069
290265.397 4420250.738 -3321.617
290265.397 4420050.738 -3319.334
290265.397 4419850.738 -3317.726
290265.397 4419650.738 -3310.498
290265.397 4419450.738 -3302.093
290265.397 4419250.738 -3292.253
290265.397 4419050.738 -3279.618
290265.397 4418850.738 -3267.372
290265.397 4418650.738 -3249.390
290265.397 4418450.738 -3224.937
290265.397 4418250.738 -3200.593
290265.397 4418050.738 -3180.890
290265.397 4417850.738 -3165.529
290265.397 4417650.738 -3152.089
290265.397 4417450.738 -3137.847
290265.397 4417250.738 -3121.973
290265.397 4417050.738 -3102.631
290265.397 4416850.738 -3086.376
290265.397 4416650.738 -3080.660
290265.397 4416450.738 -3086.591
290265.397 4416250.738 -3092.495
290265.397 4416050.738 -3090.427
290265.397 4415850.738 -3055.932
290265.397 4415650.738 -2987.566
290265.397 4415450.738 -2946.441
290265.397 4415250.738 -2950.170
290265.397 4415050.738 -2958.830
290265.397 4414850.738 -2959.627
290265.397 4414650.738 -2964.593
290265.397 4414450.738 -2972.621
290265.397 4414250.738 -2977.171
290265.397 4414050.738 -2974.958
290265.397 4413850.738 -2993.122
290265.397 4413650.738 -3014.717
290265.397 4413450.738 -3031.026
290265.397 4413250.738 -3044.300
290265.397 4413050.738 -3053.928
290265.397 4412850.738 -3054.480
290265.397 4412650.738 -3047.104
290265.397 4412450.738 -3032.789
290265.397 4412250.738 -3016.058
290265.397 4412050.738 -3002.200
290265.397 4411850.738 -2988.967
290265.397 4411650.738 -2977.100
290265.397 4411450.738 -2965.074
290265.397 4411250.738 -2961.933
290265.397 4411050.738 -2972.045
290265.397 4410850.738 -2980.125
290265.397 4410650.738 -2972.514
290265.397 4410450.738 -2975.397
290265.397 4410250.738 -2978.738
290265.397 4410050.738 -2971.554
290265.397 4409850.738 -2943.462
290265.397 4409650.738 -2907.892
290265.397 4409450.738 -2886.053
290265.397 4409250.738 -2888.517
290265.397 4409050.738 -2896.845
290265.397 4408850.738 -2877.496
290265.397 4408650.738 -2827.736
290265.397 4408450.738 -2780.832
290265.397 4408250.738 -2744.989
290265.397 4408050.738 -2724.576
290265.397 4407850.738 -2723.872
290265.397 4407650.738 -2740.200
290265.397 4407450.738 -2785.388
290265.397 4407250.738 -2844.681
290265.397 4407050.738 -2871.968
290265.397 4406850.738 -2888.199
290265.397 4406650.738 -2900.631
290265.397 4406450.738 -2912.880
290265.397 4406250.738 -2938.942
290265.397 4406050.738 -2990.958
290265.397 4405850.738 -3051.937
290265.397 4405650.738 -3083.703
290265.397 4405450.738 -3088.531
290265.397 4405250.738 -3091.013
290265.397 4405050.738 -3103.107
290265.397 4404850.738 -3125.396
290265.397 4404650.738 -3148.648
290265.397 4404450.738 -3180.846
290265.397 4404250.738 -3219.634
290265.397 4404050.738 -3261.360
290265.397 4403850.738 -3316.414
290265.397 4403650.738 -3382.361
290265.397 4403450.738 -3412.868
290265.397 4403250.738 -3426.416
290265.397 4403050.738 -3444.102
290265.397 4402850.738 -3458.631
290265.397 4402650.738 -3481.614
290265.397 4402450.738 -3509.277
290265.397 4402250.738 -3544.923
290265.397 4402050.738 -3578.393
290265.397 4401850.738 -3590.904
290265.397 4401650.738 -3593.320
290265.397 4401450.738 -3593.688
290265.397 4401250.738 -3596.238
290265.397 4401050.738 -3597.596
290265.397 4400850.738 -3598.543
290265.397 4400650.738 -3599.472
290265.397 4400450.738 -3599.681
290265.397 4400250.738 -3600.461
290265.397 4400050.738 -3601.213
290265.397 4399850.738 -3602.339
290265.397 4399650.738 -3602.311
290265.397 4399450.738 -3602.524
290265.397 4399250.738 -3603.073
290265.397 4399050.738 -3603.158
290265.397 4398850.738 -3602.548
290265.397 4398650.738 -3603.178
290265.397 4398450.738 -3603.510
290265.397 4398250.738 -3602.164
290265.397 4398050.738 -3601.000
290265.397 4397850.738 -3601.220
290265.397 4397650.738 -3602.221
290265.397 4397450.738 -3602.600
290265.397 4397250.738 -3601.829
290265.397 4397050.738 -3601.262
290265.397 4396850.738 -3600.642
290265.397 4396650.738 -3599.944
290265.397 4396450.738 -3600.412
290265.397 4396250.738 -3600.909
290265.397 4396050.738 -3600.352
290265.397 4395850.738 -3600.363
290265.397 4395650.738 -3601.056
290265.397 4395450.738 -3601.436
290265.397 4395250.738 -3601.102
290265.397 4395050.738 -3601.725
290265.397 4394850.738 -3602.100
290265.397 4394650.738 -3601.614
290265.397 4394450.738 -3601.570
290265.397 4394250.738 -3601.557
290265.397 4394050.738 -3602.128
290265.397 4393850.738 -3603.306
290265.397 4393650.738 -3603.596
290265.397 4393450.738 -3604.230
290265.397 4393250.738 -3603.912
290265.397 4393050.738 -3603.935
290265.397 4392850.738 -3604.327
290265.397 4392650.738 -3604.970
290265.397 4392450.738 -3605.516
290265.397 4392250.738 -3606.708
290265.397 4392050.738 -3605.804
290265.397 4391850.738 -3605.323
290265.397 4391650.738 -3604.120
290265.397 4391450.738 -3604.327
290265.397 4391250.738 -3605.482
290265.397 4391050.738 -3605.368
290265.397 4390850.738 -3604.454
290265.397 4390650.738 -3603.460
290265.397 4390450.738 -3603.783
290265.397 4390250.738 -3604.456
290265.397 4390050.738 -3603.801
290265.397 4389850.738 -3603.112
290465.397 4444850.738 -3599.401
290465.397 4444650.738 -3600.290
290465.397 4444450.738 -3599.923
290465.397 4444250.738 -3600.315
290465.397 4444050.738 -3600.333
290465.397 4443850.738 -3599.557
290465.397 4443650.738 -3599.041
290465.397 4443450.738 -3598.196
290465.397 4443250.738 -3597.977
290465.397 4443050.738 -3596.640
290465.397 4442850.738 -3593.113
290465.397 4442650.738 -3593.478
290465.397 4442450.738 -3593.268
290465.397 4442250.738 -3592.433
290465.397 4442050.738 -3593.155
290465.397 4441850.738 -3593.649
290465.397 4441650.738 -3595.504
290465.397 4441450.738 -3595.015
290465.397 4441250.738 -3593.745
290465.397 4441050.738 -3593.941
290465.397 4440850.738 -3592.954
290465.397 4440650.738 -3591.958
290465.397 4440450.738 -3590.747
290465.397 4440250.738 -3591.280
290465.397 4440050.738 -3591.319
290465.397 4439850.738 -3590.297
290465.397 4439650.738 -3592.515
290465.397 4439450.738 -3592.358
290465.397 4439250.738 -3589.997
290465.397 4439050.738 -3589.638
290465.397 4438850.738 -3585.174
290465.397 4438650.738 -3576.178
290465.397 4438450.738 -3563.185
290465.397 4438250.738 -3555.801
290465.397 4438050.738 -3559.725
290465.397 4437850.738 -3561.305
290465.397 4437650.738 -3559.425
290465.397 4437450.738 -3556.252
290465.397 4437250.738 -3554.920
290465.397 4437050.738 -3552.112
290465.397 4436850.738 -3548.682
290465.397 4436650.738 -3543.860
290465.397 4436450.738 -3529.803
290465.397 4436250.738 -3513.242
290465.397 4436050.738 -3493.483
290465.397 4435850.738 -3454.640
290465.397 4435650.738 -3408.180
290465.397 4435450.738 -3354.207
290465.397 4435250.738 -3285.236
290465.397 4435050.738 -3246.622
290465.397 4434850.738 -3253.422
290465.397 4434650.738 -3284.910
290465.397 4434450.738 -3309.449
290465.397 4434250.738 -3322.458
290465.397 4434050.738 -3329.769
290465.397 4433850.738 -3330.301
290465.397 4433650.738 -3334.327
290465.397 4433450.738 -3339.365
290465.397 4433250.738 -3349.845
290465.397 4433050.738 -3359.256
290465.397 4432850.738 -3361.243
290465.397 4432650.738 -3358.988
290465.397 4432450.738 -3360.043
290465.397 4432250.738 -3359.215
290465.397 4432050.738 -3354.965
290465.397 4431850.738 -3349.775
290465.397 4431650.738 -3344.879
290465.397 4431450.738 -3335.494
290465.397 4431250.738 -3316.623
290465.397 4431050.738 -3283.944
290465.397 4430850.738 -3238.057
290465.397 4430650.738 -3197.698
290465.397 4430450.738 -3174.721
290465.397 4430250.738 -3165.300
290465.397 4430050.738 -3181.877
290465.397 4429850.738 -3199.680
290465.397 4429650.738 -3205.606
290465.397 4429450.738 -3219.087
290465.397 4429250.738 -3245.598
290465.397 4429050.738 -3294.014
290465.397 4428850.738 -3350.852
290465.397 4428650.738 -3378.124
290465.397 4428450.738 -3384.346
290465.397 4428250.738 -3386.559
290465.397 4428050.738 -3386.921
290465.397 4427850.738 -3384.992
290465.397 4427650.738 -3386.020
290465.397 4427450.738 -3386.053
290465.397 4427250.738 -3388.880
290465.397 4427050.738 -3387.387
290465.397 4426850.738 -3387.737
290465.397 4426650.738 -3390.018
290465.397 4426450.738 -3389.589
290465.397 4426250.738 -3387.544
290465.397 4426050.738 -3384.433
290465.397 4425850.738 -3383.749
290465.397 4425650.738 -3384.511
290465.397 4425450.738 -3385.727
290465.397 4425250.738 -3386.175
290465.397 4425050.738 -3384.002
290465.397 4424850.738 -3381.573
290465.397 4424650.738 -3379.774
290465.397 4424450.738 -3379.741
290465.397 4424250.738 -3379.757
