660650.000,4252549.318,-5.275 
660650.000,4252449.318,-5.28 
660650.000,4252349.318,-5.29 
660650.000,4252249.318,-5.286 
660650.000,4252149.318,-5.298 
660650.000,4252049.318,-5.304 
660650.000,4251949.318,-5.316 
660650.000,4251849.318,-5.337 
660650.000,4251749.318,-5.359 
660650.000,4251649.318,-5.375 
660650.000,4251549.318,-5.395 
660650.000,4251449.318,-5.409 
660650.000,4251349.318,-5.436 
660650.000,4251249.318,-5.456 
660650.000,4251149.318,-5.493 
660650.000,4251049.318,-5.524 
660650.000,4250949.318,-5.544 
660650.000,4250849.318,-5.612 
660650.000,4250749.318,-5.656 
660650.000,4250649.318,-5.668 
660650.000,4250549.318,-5.694 
660650.000,4250449.318,-5.708 
660650.000,4250349.318,-5.729 
660650.000,4250249.318,-5.741 
660650.000,4250149.318,-5.759 
660650.000,4250049.318,-5.778 
660650.000,4249949.318,-5.805 
660650.000,4249849.318,-5.802 
660650.000,4249749.318,-5.83 
660650.000,4249649.318,-5.841 
660650.000,4249549.318,-5.861 
660650.000,4249449.318,-5.88 
660650.000,4249349.318,-5.891 
660650.000,4249249.318,-5.885 
660650.000,4249149.318,-5.897 
660650.000,4249049.318,-5.908 
660650.000,4248949.318,-5.909 
660650.000,4248849.318,-5.925 
660650.000,4248749.318,-5.942 
660650.000,4248649.318,-5.964 
660650.000,4248549.318,-6.011 
660650.000,4248449.318,-6.046 
660650.000,4248349.318,-6.058 
660650.000,4248249.318,-6.083 
660650.000,4248149.318,-6.102 
660650.000,4248049.318,-6.125 
660650.000,4247949.318,-6.144 
660650.000,4247849.318,-6.145 
660650.000,4247749.318,-6.181 
660650.000,4247649.318,-6.218 
660650.000,4247549.318,-6.275 
660650.000,4247449.318,-6.329 
660650.000,4247349.318,-6.382 
660650.000,4247249.318,-6.44 
660650.000,4247149.318,-6.485 
660650.000,4247049.318,-6.53 
660650.000,4246949.318,-6.561 
660650.000,4246849.318,-6.601 
660650.000,4246749.318,-6.646 
660650.000,4246649.318,-6.681 
660650.000,4246549.318,-6.709 
660650.000,4246449.318,-6.739 
660650.000,4246349.318,-6.75 
660750.000,4267249.318,-6.677 
660750.000,4267149.318,-6.6 
660750.000,4267049.318,-6.503 
660750.000,4266949.318,-6.438 
660750.000,4266849.318,-6.346 
660750.000,4266749.318,-6.3 
660750.000,4266649.318,-6.233 
660750.000,4266549.318,-6.177 
660750.000,4266449.318,-6.116 
660750.000,4266349.318,-6.025 
660750.000,4266249.318,-5.923 
660750.000,4266149.318,-5.79 
660750.000,4266049.318,-5.65 
660750.000,4265949.318,-5.548 
660750.000,4265849.318,-5.45 
660750.000,4265749.318,-5.383 
660750.000,4265649.318,-5.325 
660750.000,4265549.318,-5.272 
660750.000,4265449.318,-5.22 
660750.000,4265349.318,-5.174 
660750.000,4265249.318,-5.14 
660750.000,4265149.318,-5.111 
660750.000,4265049.318,-5.073 
660750.000,4264949.318,-5.029 
660750.000,4264849.318,-4.982 
660750.000,4264749.318,-4.958 
660750.000,4264649.318,-4.938 
660750.000,4264549.318,-4.945 
660750.000,4264449.318,-4.925 
660750.000,4264349.318,-4.91 
660750.000,4264249.318,-4.898 
660750.000,4264149.318,-4.9 
660750.000,4264049.318,-4.891 
660750.000,4263949.318,-4.873 
660750.000,4263849.318,-4.85 
660750.000,4263749.318,-4.819 
660750.000,4263649.318,-4.81 
660750.000,4263549.318,-4.794 
660750.000,4263449.318,-4.824 
660750.000,4263349.318,-4.814 
660750.000,4263249.318,-4.799 
660750.000,4263149.318,-4.802 
660750.000,4263049.318,-4.769 
660750.000,4262949.318,-4.762 
660750.000,4262849.318,-4.723 
660750.000,4262749.318,-4.7 
660750.000,4262649.318,-4.677 
660750.000,4262549.318,-4.646 
660750.000,4262449.318,-4.631 
660750.000,4262349.318,-4.611 
660750.000,4262249.318,-4.581 
660750.000,4262149.318,-4.574 
660750.000,4262049.318,-4.546 
660750.000,4261949.318,-4.534 
660750.000,4261849.318,-4.525 
660750.000,4261749.318,-4.513 
660750.000,4261649.318,-4.5 
660750.000,4261549.318,-4.482 
660750.000,4261449.318,-4.465 
660750.000,4261349.318,-4.45 
660750.000,4261249.318,-4.436 
660750.000,4261149.318,-4.426 
660750.000,4261049.318,-4.418 
660750.000,4260949.318,-4.411 
660750.000,4260849.318,-4.406 
660750.000,4260749.318,-4.402 
660750.000,4260649.318,-4.403 
660750.000,4260549.318,-4.413 
660750.000,4260449.318,-4.419 
660750.000,4260349.318,-4.427 
660750.000,4260249.318,-4.439 
660750.000,4260149.318,-4.418 
660750.000,4260049.318,-4.402 
660750.000,4259949.318,-4.395 
660750.000,4259849.318,-4.392 
660750.000,4259749.318,-4.406 
660750.000,4259649.318,-4.411 
660750.000,4259549.318,-4.412 
660750.000,4259449.318,-4.424 
660750.000,4259349.318,-4.415 
660750.000,4259249.318,-4.423 
660750.000,4259149.318,-4.425 
660750.000,4259049.318,-4.418 
660750.000,4258949.318,-4.414 
660750.000,4258849.318,-4.403 
660750.000,4258749.318,-4.392 
660750.000,4258649.318,-4.401 
660750.000,4258549.318,-4.414 
660750.000,4258449.318,-4.42 
660750.000,4258349.318,-4.439 
660750.000,4258249.318,-4.451 
660750.000,4258149.318,-4.467 
660750.000,4258049.318,-4.48 
660750.000,4257949.318,-4.492 
660750.000,4257849.318,-4.497 
660750.000,4257749.318,-4.498 
660750.000,4257649.318,-4.496 
660750.000,4257549.318,-4.507 
660750.000,4257449.318,-4.53 
660750.000,4257349.318,-4.539 
660750.000,4257249.318,-4.546 
660750.000,4257149.318,-4.553 
660750.000,4257049.318,-4.552 
660750.000,4256949.318,-4.558 
660750.000,4256849.318,-4.558 
660750.000,4256749.318,-4.572 
660750.000,4256649.318,-4.59 
660750.000,4256549.318,-4.603 
660750.000,4256449.318,-4.615 
660750.000,4256349.318,-4.626 
660750.000,4256249.318,-4.642 
660750.000,4256149.318,-4.654 
660750.000,4256049.318,-4.675 
660750.000,4255949.318,-4.691 
660750.000,4255849.318,-4.707 
660750.000,4255749.318,-4.715 
660750.000,4255649.318,-4.724 
660750.000,4255549.318,-4.743 
660750.000,4255449.318,-4.766 
660750.000,4255349.318,-4.792 
660750.000,4255249.318,-4.818 
660750.000,4255149.318,-4.82 
660750.000,4255049.318,-4.856 
660750.000,4254949.318,-4.867 
660750.000,4254849.318,-4.885 
660750.000,4254749.318,-4.878 
660750.000,4254649.318,-4.885 
660750.000,4254549.318,-4.898 
660750.000,4254449.318,-4.891 
660750.000,4254349.318,-4.936 
660750.000,4254249.318,-4.935 
660750.000,4254149.318,-4.947 
660750.000,4254049.318,-4.973 
660750.000,4253949.318,-4.98 
660750.000,4253849.318,-4.983 
660750.000,4253749.318,-5.002 
660750.000,4253649.318,-5.033 
660750.000,4253549.318,-5.052 
660750.000,4253449.318,-5.074 
660750.000,4253349.318,-5.116 
660750.000,4253249.318,-5.132 
660750.000,4253149.318,-5.149 
660750.000,4253049.318,-5.172 
660750.000,4252949.318,-5.208 
660750.000,4252849.318,-5.221 
660750.000,4252749.318,-5.227 
660750.000,4252649.318,-5.242 
660750.000,4252549.318,-5.264 
660750.000,4252449.318,-5.267 
660750.000,4252349.318,-5.266 
660750.000,4252249.318,-5.276 
660750.000,4252149.318,-5.277 
660750.000,4252049.318,-5.284 
660750.000,4251949.318,-5.304 
660750.000,4251849.318,-5.319 
660750.000,4251749.318,-5.344 
660750.000,4251649.318,-5.358 
660750.000,4251549.318,-5.379 
660750.000,4251449.318,-5.401 
660750.000,4251349.318,-5.433 
660750.000,4251249.318,-5.462 
660750.000,4251149.318,-5.499 
660750.000,4251049.318,-5.534 
660750.000,4250949.318,-5.558 
660750.000,4250849.318,-5.594 
660750.000,4250749.318,-5.656 
660750.000,4250649.318,-5.666 
660750.000,4250549.318,-5.68 
660750.000,4250449.318,-5.704 
660750.000,4250349.318,-5.733 
660750.000,4250249.318,-5.728 
660750.000,4250149.318,-5.745 
660750.000,4250049.318,-5.761 
660750.000,4249949.318,-5.778 
660750.000,4249849.318,-5.788 
660750.000,4249749.318,-5.805 
660750.000,4249649.318,-5.819 
660750.000,4249549.318,-5.833 
660750.000,4249449.318,-5.843 
660750.000,4249349.318,-5.86 
660750.000,4249249.318,-5.877 
660750.000,4249149.318,-5.88 
660750.000,4249049.318,-5.878 
660750.000,4248949.318,-5.888 
660750.000,4248849.318,-5.898 
660750.000,4248749.318,-5.919 
660750.000,4248649.318,-5.95 
660750.000,4248549.318,-5.992 
660750.000,4248449.318,-6.018 
660750.000,4248349.318,-6.038 
660750.000,4248249.318,-6.048 
660750.000,4248149.318,-6.067 
660750.000,4248049.318,-6.095 
660750.000,4247949.318,-6.125 
660750.000,4247849.318,-6.141 
660750.000,4247749.318,-6.162 
660750.000,4247649.318,-6.196 
660750.000,4247549.318,-6.246 
660750.000,4247449.318,-6.306 
660750.000,4247349.318,-6.365 
660750.000,4247249.318,-6.409 
660750.000,4247149.318,-6.455 
660750.000,4247049.318,-6.497 
660750.000,4246949.318,-6.536 
660750.000,4246849.318,-6.578 
660750.000,4246749.318,-6.623 
660750.000,4246649.318,-6.663 
660750.000,4246549.318,-6.705 
660750.000,4246449.318,-6.735 
660850.000,4267249.318,-6.698 
660850.000,4267149.318,-6.619 
660850.000,4267049.318,-6.529 
660850.000,4266949.318,-6.422 
660850.000,4266849.318,-6.378 
660850.000,4266749.318,-6.311 
660850.000,4266649.318,-6.241 
660850.000,4266549.318,-6.17 
660850.000,4266449.318,-6.088 
660850.000,4266349.318,-5.98 
660850.000,4266249.318,-5.862 
660850.000,4266149.318,-5.71 
660850.000,4266049.318,-5.547 
660850.000,4265949.318,-5.478 
660850.000,4265849.318,-5.429 
660850.000,4265749.318,-5.383 
660850.000,4265649.318,-5.324 
660850.000,4265549.318,-5.264 
660850.000,4265449.318,-5.22 
660850.000,4265349.318,-5.185 
660850.000,4265249.318,-5.158 
660850.000,4265149.318,-5.102 
660850.000,4265049.318,-5.07 
660850.000,4264949.318,-5.047 
660850.000,4264849.318,-4.989 
660850.000,4264749.318,-4.957 
660850.000,4264649.318,-4.931 
660850.000,4264549.318,-4.914 
660850.000,4264449.318,-4.897 
660850.000,4264349.318,-4.875 
660850.000,4264249.318,-4.865 
660850.000,4264149.318,-4.872 
660850.000,4264049.318,-4.853 
660850.000,4263949.318,-4.832 
660850.000,4263849.318,-4.815 
660850.000,4263749.318,-4.78 
660850.000,4263649.318,-4.784 
660850.000,4263549.318,-4.769 
660850.000,4263449.318,-4.788 
660850.000,4263349.318,-4.788 
660850.000,4263249.318,-4.788 
660850.000,4263149.318,-4.761 
660850.000,4263049.318,-4.745 
660850.000,4262949.318,-4.716 
660850.000,4262849.318,-4.67 
660850.000,4262749.318,-4.635 
660850.000,4262649.318,-4.613 
660850.000,4262549.318,-4.601 
660850.000,4262449.318,-4.58 
660850.000,4262349.318,-4.577 
660850.000,4262249.318,-4.548 
660850.000,4262149.318,-4.53 
660850.000,4262049.318,-4.513 
660850.000,4261949.318,-4.502 
660850.000,4261849.318,-4.49 
660850.000,4261749.318,-4.473 
660850.000,4261649.318,-4.457 
660850.000,4261549.318,-4.448 
660850.000,4261449.318,-4.43 
660850.000,4261349.318,-4.413 
660850.000,4261249.318,-4.4 
660850.000,4261149.318,-4.394 
660850.000,4261049.318,-4.385 
660850.000,4260949.318,-4.377 
660850.000,4260849.318,-4.377 
660850.000,4260749.318,-4.381 
660850.000,4260649.318,-4.384 
660850.000,4260549.318,-4.389 
660850.000,4260449.318,-4.4 
660850.000,4260349.318,-4.418 
660850.000,4260249.318,-4.397 
660850.000,4260149.318,-4.371 
660850.000,4260049.318,-4.362 
660850.000,4259949.318,-4.355 
660850.000,4259849.318,-4.365 
660850.000,4259749.318,-4.39 
660850.000,4259649.318,-4.396 
660850.000,4259549.318,-4.404 
660850.000,4259449.318,-4.401 
660850.000,4259349.318,-4.406 
660850.000,4259249.318,-4.395 
660850.000,4259149.318,-4.394 
660850.000,4259049.318,-4.396 
660850.000,4258949.318,-4.384 
660850.000,4258849.318,-4.369 
660850.000,4258749.318,-4.373 
660850.000,4258649.318,-4.378 
660850.000,4258549.318,-4.394 
660850.000,4258449.318,-4.41 
660850.000,4258349.318,-4.429 
660850.000,4258249.318,-4.446 
660850.000,4258149.318,-4.464 
660850.000,4258049.318,-4.475 
660850.000,4257949.318,-4.479 
660850.000,4257849.318,-4.483 
660850.000,4257749.318,-4.48 
660850.000,4257649.318,-4.479 
660850.000,4257549.318,-4.489 
660850.000,4257449.318,-4.506 
660850.000,4257349.318,-4.523 
660850.000,4257249.318,-4.514 
660850.000,4257149.318,-4.522 
660850.000,4257049.318,-4.542 
660850.000,4256949.318,-4.55 
660850.000,4256849.318,-4.553 
660850.000,4256749.318,-4.564 
660850.000,4256649.318,-4.576 
660850.000,4256549.318,-4.59 
660850.000,4256449.318,-4.603 
660850.000,4256349.318,-4.621 
660850.000,4256249.318,-4.635 
660850.000,4256149.318,-4.653 
660850.000,4256049.318,-4.66 
660850.000,4255949.318,-4.675 
660850.000,4255849.318,-4.684 
660850.000,4255749.318,-4.706 
660850.000,4255649.318,-4.714 
660850.000,4255549.318,-4.743 
660850.000,4255449.318,-4.766 
660850.000,4255349.318,-4.764 
660850.000,4255249.318,-4.821 
660850.000,4255149.318,-4.836 
660850.000,4255049.318,-4.847 
660850.000,4254949.318,-4.853 
660850.000,4254849.318,-4.83 
660850.000,4254749.318,-4.885 
660850.000,4254649.318,-4.877 
660850.000,4254549.318,-4.891 
660850.000,4254449.318,-4.903 
660850.000,4254349.318,-4.911 
660850.000,4254249.318,-4.923 
660850.000,4254149.318,-4.929 
660850.000,4254049.318,-4.955 
660850.000,4253949.318,-4.971 
660850.000,4253849.318,-4.985 
660850.000,4253749.318,-4.995 
660850.000,4253649.318,-5.015 
660850.000,4253549.318,-5.045 
660850.000,4253449.318,-5.067 
660850.000,4253349.318,-5.096 
660850.000,4253249.318,-5.119 
660850.000,4253149.318,-5.136 
660850.000,4253049.318,-5.164 
660850.000,4252949.318,-5.189 
660850.000,4252849.318,-5.207 
660850.000,4252749.318,-5.223 
660850.000,4252649.318,-5.23 
660850.000,4252549.318,-5.251 
660850.000,4252449.318,-5.251 
660850.000,4252349.318,-5.25 
660850.000,4252249.318,-5.26 
660850.000,4252149.318,-5.268 
660850.000,4252049.318,-5.279 
660850.000,4251949.318,-5.289 
660850.000,4251849.318,-5.303 
660850.000,4251749.318,-5.323 
660850.000,4251649.318,-5.345 
660850.000,4251549.318,-5.36 
660850.000,4251449.318,-5.385 
660850.000,4251349.318,-5.421 
660850.000,4251249.318,-5.453 
660850.000,4251149.318,-5.495 
660850.000,4251049.318,-5.538 
660850.000,4250949.318,-5.579 
660850.000,4250849.318,-5.567 
660850.000,4250749.318,-5.608 
660850.000,4250649.318,-5.647 
660850.000,4250549.318,-5.689 
660850.000,4250449.318,-5.687 
660850.000,4250349.318,-5.713 
660850.000,4250249.318,-5.739 
660850.000,4250149.318,-5.743 
660850.000,4250049.318,-5.765 
660850.000,4249949.318,-5.774 
660850.000,4249849.318,-5.775 
660850.000,4249749.318,-5.8 
660850.000,4249649.318,-5.803 
660850.000,4249549.318,-5.8 
660850.000,4249449.318,-5.818 
660850.000,4249349.318,-5.828 
660850.000,4249249.318,-5.852 
660850.000,4249149.318,-5.841 
660850.000,4249049.318,-5.851 
660850.000,4248949.318,-5.859 
660850.000,4248849.318,-5.876 
660850.000,4248749.318,-5.897 
660850.000,4248649.318,-5.92 
660850.000,4248549.318,-5.955 
660850.000,4248449.318,-5.99 
660850.000,4248349.318,-6.015 
660850.000,4248249.318,-6.027 
660850.000,4248149.318,-6.046 
660850.000,4248049.318,-6.066 
660850.000,4247949.318,-6.09 
660850.000,4247849.318,-6.114 
660850.000,4247749.318,-6.144 
660850.000,4247649.318,-6.163 
660850.000,4247549.318,-6.221 
660850.000,4247449.318,-6.28 
660850.000,4247349.318,-6.329 
660850.000,4247249.318,-6.387 
660850.000,4247149.318,-6.424 
660850.000,4247049.318,-6.467 
660850.000,4246949.318,-6.517 
660850.000,4246849.318,-6.567 
660850.000,4246749.318,-6.618 
660850.000,4246649.318,-6.654 
660850.000,4246549.318,-6.696 
660850.000,4246449.318,-6.734 
660950.000,4267249.318,-6.716 
660950.000,4267149.318,-6.641 
660950.000,4267049.318,-6.533 
660950.000,4266949.318,-6.442 
660950.000,4266849.318,-6.371 
660950.000,4266749.318,-6.309 
660950.000,4266649.318,-6.247 
660950.000,4266549.318,-6.131 
660950.000,4266449.318,-5.981 
660950.000,4266349.318,-5.845 
660950.000,4266249.318,-5.719 
660950.000,4266149.318,-5.596 
660950.000,4266049.318,-5.516 
660950.000,4265949.318,-5.462 
660950.000,4265849.318,-5.414 
660950.000,4265749.318,-5.364 
660950.000,4265649.318,-5.308 
660950.000,4265549.318,-5.256 
660950.000,4265449.318,-5.225 
660950.000,4265349.318,-5.18 
660950.000,4265249.318,-5.138 
660950.000,4265149.318,-5.119 
660950.000,4265049.318,-5.066 
660950.000,4264949.318,-5.037 
660950.000,4264849.318,-5 
660950.000,4264749.318,-4.97 
660950.000,4264649.318,-4.955 
660950.000,4264549.318,-4.922 
660950.000,4264449.318,-4.9 
660950.000,4264349.318,-4.88 
660950.000,4264249.318,-4.853 
660950.000,4264149.318,-4.841 
660950.000,4264049.318,-4.819 
660950.000,4263949.318,-4.804 
660950.000,4263849.318,-4.784 
660950.000,4263749.318,-4.76 
660950.000,4263649.318,-4.762 
660950.000,4263549.318,-4.757 
660950.000,4263449.318,-4.733 
660950.000,4263349.318,-4.764 
660950.000,4263249.318,-4.768 
660950.000,4263149.318,-4.75 
660950.000,4263049.318,-4.696 
660950.000,4262949.318,-4.676 
660950.000,4262849.318,-4.646 
660950.000,4262749.318,-4.617 
660950.000,4262649.318,-4.601 
660950.000,4262549.318,-4.58 
660950.000,4262449.318,-4.563 
660950.000,4262349.318,-4.538 
660950.000,4262249.318,-4.521 
660950.000,4262149.318,-4.508 
660950.000,4262049.318,-4.486 
660950.000,4261949.318,-4.468 
660950.000,4261849.318,-4.444 
660950.000,4261749.318,-4.433 
660950.000,4261649.318,-4.423 
660950.000,4261549.318,-4.414 
660950.000,4261449.318,-4.402 
660950.000,4261349.318,-4.388 
660950.000,4261249.318,-4.373 
660950.000,4261149.318,-4.365 
660950.000,4261049.318,-4.358 
660950.000,4260949.318,-4.358 
660950.000,4260849.318,-4.36 
660950.000,4260749.318,-4.361 
660950.000,4260649.318,-4.363 
660950.000,4260549.318,-4.374 
660950.000,4260449.318,-4.38 
660950.000,4260349.318,-4.395 
660950.000,4260249.318,-4.354 
660950.000,4260149.318,-4.336 
660950.000,4260049.318,-4.333 
660950.000,4259949.318,-4.341 
660950.000,4259849.318,-4.345 
660950.000,4259749.318,-4.347 
660950.000,4259649.318,-4.368 
660950.000,4259549.318,-4.375 
660950.000,4259449.318,-4.383 
660950.000,4259349.318,-4.404 
660950.000,4259249.318,-4.378 
660950.000,4259149.318,-4.378 
660950.000,4259049.318,-4.357 
660950.000,4258949.318,-4.355 
660950.000,4258849.318,-4.344 
660950.000,4258749.318,-4.355 
660950.000,4258649.318,-4.372 
660950.000,4258549.318,-4.389 
660950.000,4258449.318,-4.405 
660950.000,4258349.318,-4.427 
660950.000,4258249.318,-4.445 
660950.000,4258149.318,-4.457 
660950.000,4258049.318,-4.466 
660950.000,4257949.318,-4.47 
660950.000,4257849.318,-4.476 
660950.000,4257749.318,-4.469 
660950.000,4257649.318,-4.471 
660950.000,4257549.318,-4.472 
660950.000,4257449.318,-4.474 
660950.000,4257349.318,-4.498 
660950.000,4257249.318,-4.509 
660950.000,4257149.318,-4.518 
660950.000,4257049.318,-4.522 
660950.000,4256949.318,-4.533 
660950.000,4256849.318,-4.537 
660950.000,4256749.318,-4.554 
660950.000,4256649.318,-4.565 
660950.000,4256549.318,-4.584 
660950.000,4256449.318,-4.595 
660950.000,4256349.318,-4.613 
660950.000,4256249.318,-4.622 
660950.000,4256149.318,-4.636 
660950.000,4256049.318,-4.643 
660950.000,4255949.318,-4.663 
660950.000,4255849.318,-4.672 
660950.000,4255749.318,-4.687 
660950.000,4255649.318,-4.719 
660950.000,4255549.318,-4.737 
660950.000,4255449.318,-4.761 
660950.000,4255349.318,-4.776 
660950.000,4255249.318,-4.833 
660950.000,4255149.318,-4.837 
660950.000,4255049.318,-4.844 
660950.000,4254949.318,-4.831 
660950.000,4254849.318,-4.838 
660950.000,4254749.318,-4.835 
660950.000,4254649.318,-4.861 
660950.000,4254549.318,-4.88 
660950.000,4254449.318,-4.889 
660950.000,4254349.318,-4.893 
660950.000,4254249.318,-4.905 
660950.000,4254149.318,-4.931 
660950.000,4254049.318,-4.958 
660950.000,4253949.318,-4.971 
660950.000,4253849.318,-4.993 
660950.000,4253749.318,-4.999 
660950.000,4253649.318,-5.017 
660950.000,4253549.318,-5.04 
660950.000,4253449.318,-5.067 
660950.000,4253349.318,-5.093 
660950.000,4253249.318,-5.116 
660950.000,4253149.318,-5.12 
660950.000,4253049.318,-5.145 
660950.000,4252949.318,-5.189 
660950.000,4252849.318,-5.198 
660950.000,4252749.318,-5.216 
660950.000,4252649.318,-5.221 
660950.000,4252549.318,-5.231 
660950.000,4252449.318,-5.234 
660950.000,4252349.318,-5.24 
660950.000,4252249.318,-5.236 
660950.000,4252149.318,-5.246 
660950.000,4252049.318,-5.258 
660950.000,4251949.318,-5.274 
660950.000,4251849.318,-5.291 
660950.000,4251749.318,-5.316 
660950.000,4251649.318,-5.335 
660950.000,4251549.318,-5.352 
660950.000,4251449.318,-5.365 
660950.000,4251349.318,-5.429 
660950.000,4251249.318,-5.451 
660950.000,4251149.318,-5.504 
660950.000,4251049.318,-5.544 
660950.000,4250949.318,-5.569 
660950.000,4250849.318,-5.574 
660950.000,4250749.318,-5.595 
660950.000,4250649.318,-5.626 
660950.000,4250549.318,-5.675 
660950.000,4250449.318,-5.693 
660950.000,4250349.318,-5.714 
660950.000,4250249.318,-5.73 
660950.000,4250149.318,-5.749 
660950.000,4250049.318,-5.747 
660950.000,4249949.318,-5.76 
660950.000,4249849.318,-5.766 
660950.000,4249749.318,-5.777 
660950.000,4249649.318,-5.77 
660950.000,4249549.318,-5.789 
660950.000,4249449.318,-5.799 
660950.000,4249349.318,-5.805 
660950.000,4249249.318,-5.81 
660950.000,4249149.318,-5.83 
660950.000,4249049.318,-5.823 
660950.000,4248949.318,-5.842 
660950.000,4248849.318,-5.852 
660950.000,4248749.318,-5.87 
660950.000,4248649.318,-5.903 
660950.000,4248549.318,-5.933 
660950.000,4248449.318,-5.961 
660950.000,4248349.318,-5.983 
660950.000,4248249.318,-6.001 
660950.000,4248149.318,-6.011 
660950.000,4248049.318,-6.043 
660950.000,4247949.318,-6.08 
660950.000,4247849.318,-6.105 
660950.000,4247749.318,-6.121 
660950.000,4247649.318,-6.153 
660950.000,4247549.318,-6.189 
660950.000,4247449.318,-6.249 
660950.000,4247349.318,-6.308 
660950.000,4247249.318,-6.358 
660950.000,4247149.318,-6.403 
660950.000,4247049.318,-6.446 
660950.000,4246949.318,-6.505 
660950.000,4246849.318,-6.552 
660950.000,4246749.318,-6.6 
660950.000,4246649.318,-6.644 
660950.000,4246549.318,-6.677 
660950.000,4246449.318,-6.722 
660950.000,4246349.318,-6.745 
661050.000,4267249.318,-6.704 
661050.000,4267149.318,-6.629 
661050.000,4267049.318,-6.53 
661050.000,4266949.318,-6.435 
661050.000,4266849.318,-6.322 
661050.000,4266749.318,-6.231 
661050.000,4266649.318,-6.161 
661050.000,4266549.318,-6.037 
661050.000,4266449.318,-5.835 
661050.000,4266349.318,-5.698 
661050.000,4266249.318,-5.611 
661050.000,4266149.318,-5.574 
661050.000,4266049.318,-5.51 
661050.000,4265949.318,-5.466 
661050.000,4265849.318,-5.424 
661050.000,4265749.318,-5.39 
661050.000,4265649.318,-5.324 
661050.000,4265549.318,-5.276 
661050.000,4265449.318,-5.224 
661050.000,4265349.318,-5.174 
661050.000,4265249.318,-5.135 
661050.000,4265149.318,-5.138 
661050.000,4265049.318,-5.082 
661050.000,4264949.318,-5.054 
661050.000,4264849.318,-5.012 
661050.000,4264749.318,-4.972 
661050.000,4264649.318,-4.946 
661050.000,4264549.318,-4.939 
661050.000,4264449.318,-4.924 
661050.000,4264349.318,-4.901 
661050.000,4264249.318,-4.87 
661050.000,4264149.318,-4.835 
661050.000,4264049.318,-4.812 
661050.000,4263949.318,-4.809 
661050.000,4263849.318,-4.827 
661050.000,4263749.318,-4.796 
661050.000,4263649.318,-4.767 
661050.000,4263549.318,-4.738 
661050.000,4263449.318,-4.739 
661050.000,4263349.318,-4.716 
661050.000,4263249.318,-4.746 
661050.000,4263149.318,-4.707 
661050.000,4263049.318,-4.67 
661050.000,4262949.318,-4.627 
661050.000,4262849.318,-4.617 
661050.000,4262749.318,-4.597 
661050.000,4262649.318,-4.591 
661050.000,4262549.318,-4.567 
661050.000,4262449.318,-4.546 
661050.000,4262349.318,-4.53 
661050.000,4262249.318,-4.506 
661050.000,4262149.318,-4.48 
661050.000,4262049.318,-4.461 
661050.000,4261949.318,-4.436 
661050.000,4261849.318,-4.421 
661050.000,4261749.318,-4.407 
661050.000,4261649.318,-4.394 
661050.000,4261549.318,-4.383 
661050.000,4261449.318,-4.375 
661050.000,4261349.318,-4.362 
661050.000,4261249.318,-4.349 
661050.000,4261149.318,-4.34 
661050.000,4261049.318,-4.337 
661050.000,4260949.318,-4.34 
661050.000,4260849.318,-4.342 
661050.000,4260749.318,-4.343 
661050.000,4260649.318,-4.342 
661050.000,4260549.318,-4.341 
661050.000,4260449.318,-4.32 
661050.000,4260349.318,-4.317 
661050.000,4260249.318,-4.316 
661050.000,4260149.318,-4.315 
661050.000,4260049.318,-4.308 
661050.000,4259949.318,-4.333 
661050.000,4259849.318,-4.318 
661050.000,4259749.318,-4.324 
661050.000,4259649.318,-4.316 
661050.000,4259549.318,-4.339 
661050.000,4259449.318,-4.349 
661050.000,4259349.318,-4.35 
661050.000,4259249.318,-4.358 
661050.000,4259149.318,-4.334 
661050.000,4259049.318,-4.329 
661050.000,4258949.318,-4.333 
661050.000,4258849.318,-4.33 
661050.000,4258749.318,-4.342 
661050.000,4258649.318,-4.365 
661050.000,4258549.318,-4.379 
661050.000,4258449.318,-4.402 
661050.000,4258349.318,-4.418 
661050.000,4258249.318,-4.437 
661050.000,4258149.318,-4.445 
661050.000,4258049.318,-4.462 
661050.000,4257949.318,-4.458 
661050.000,4257849.318,-4.457 
661050.000,4257749.318,-4.454 
661050.000,4257649.318,-4.45 
661050.000,4257549.318,-4.454 
661050.000,4257449.318,-4.46 
661050.000,4257349.318,-4.471 
661050.000,4257249.318,-4.5 
661050.000,4257149.318,-4.499 
661050.000,4257049.318,-4.503 
661050.000,4256949.318,-4.517 
661050.000,4256849.318,-4.532 
661050.000,4256749.318,-4.55 
661050.000,4256649.318,-4.566 
661050.000,4256549.318,-4.572 
661050.000,4256449.318,-4.587 
661050.000,4256349.318,-4.601 
661050.000,4256249.318,-4.597 
661050.000,4256149.318,-4.616 
661050.000,4256049.318,-4.631 
661050.000,4255949.318,-4.656 
661050.000,4255849.318,-4.655 
661050.000,4255749.318,-4.69 
661050.000,4255649.318,-4.733 
661050.000,4255549.318,-4.748 
661050.000,4255449.318,-4.769 
661050.000,4255349.318,-4.764 
661050.000,4255249.318,-4.747 
661050.000,4255149.318,-4.795 
661050.000,4255049.318,-4.813 
661050.000,4254949.318,-4.816 
661050.000,4254849.318,-4.824 
661050.000,4254749.318,-4.819 
661050.000,4254649.318,-4.843 
661050.000,4254549.318,-4.853 
661050.000,4254449.318,-4.867 
661050.000,4254349.318,-4.875 
661050.000,4254249.318,-4.902 
661050.000,4254149.318,-4.934 
661050.000,4254049.318,-4.951 
661050.000,4253949.318,-4.964 
661050.000,4253849.318,-4.976 
661050.000,4253749.318,-5.013 
661050.000,4253649.318,-5.012 
661050.000,4253549.318,-5.036 
661050.000,4253449.318,-5.059 
661050.000,4253349.318,-5.094 
661050.000,4253249.318,-5.104 
661050.000,4253149.318,-5.114 
661050.000,4253049.318,-5.138 
661050.000,4252949.318,-5.158 
661050.000,4252849.318,-5.183 
661050.000,4252749.318,-5.193 
661050.000,4252649.318,-5.205 
661050.000,4252549.318,-5.213 
661050.000,4252449.318,-5.215 
661050.000,4252349.318,-5.212 
661050.000,4252249.318,-5.227 
661050.000,4252149.318,-5.217 
661050.000,4252049.318,-5.247 
661050.000,4251949.318,-5.276 
661050.000,4251849.318,-5.286 
661050.000,4251749.318,-5.302 
661050.000,4251649.318,-5.327 
661050.000,4251549.318,-5.347 
661050.000,4251449.318,-5.351 
661050.000,4251349.318,-5.392 
661050.000,4251249.318,-5.464 
661050.000,4251149.318,-5.493 
661050.000,4251049.318,-5.532 
661050.000,4250949.318,-5.545 
661050.000,4250849.318,-5.562 
661050.000,4250749.318,-5.602 
661050.000,4250649.318,-5.625 
661050.000,4250549.318,-5.631 
661050.000,4250449.318,-5.68 
661050.000,4250349.318,-5.71 
661050.000,4250249.318,-5.703 
661050.000,4250149.318,-5.718 
661050.000,4250049.318,-5.744 
661050.000,4249949.318,-5.758 
661050.000,4249849.318,-5.76 
661050.000,4249749.318,-5.756 
661050.000,4249649.318,-5.76 
661050.000,4249549.318,-5.78 
661050.000,4249449.318,-5.786 
661050.000,4249349.318,-5.784 
661050.000,4249249.318,-5.782 
661050.000,4249149.318,-5.797 
661050.000,4249049.318,-5.803 
661050.000,4248949.318,-5.819 
661050.000,4248849.318,-5.836 
661050.000,4248749.318,-5.847 
661050.000,4248649.318,-5.882 
661050.000,4248549.318,-5.908 
661050.000,4248449.318,-5.94 
661050.000,4248349.318,-5.961 
661050.000,4248249.318,-5.974 
661050.000,4248149.318,-5.997 
661050.000,4248049.318,-6.03 
661050.000,4247949.318,-6.059 
661050.000,4247849.318,-6.08 
661050.000,4247749.318,-6.104 
661050.000,4247649.318,-6.136 
661050.000,4247549.318,-6.145 
661050.000,4247449.318,-6.198 
661050.000,4247349.318,-6.281 
661050.000,4247249.318,-6.333 
661050.000,4247149.318,-6.389 
661050.000,4247049.318,-6.449 
661050.000,4246949.318,-6.5 
661050.000,4246849.318,-6.57 
661050.000,4246749.318,-6.595 
661050.000,4246649.318,-6.622 
661050.000,4246549.318,-6.666 
661050.000,4246449.318,-6.705 
661050.000,4246349.318,-6.735 
661150.000,4267349.318,-6.74 
661150.000,4267249.318,-6.655 
661150.000,4267149.318,-6.569 
661150.000,4267049.318,-6.47 
661150.000,4266949.318,-6.371 
661150.000,4266849.318,-6.241 
661150.000,4266749.318,-6.132 
661150.000,4266649.318,-6.02 
661150.000,4266549.318,-5.896 
661150.000,4266449.318,-5.753 
661150.000,4266349.318,-5.672 
661150.000,4266249.318,-5.619 
661150.000,4266149.318,-5.586 
661150.000,4266049.318,-5.554 
661150.000,4265949.318,-5.495 
661150.000,4265849.318,-5.433 
661150.000,4265749.318,-5.362 
661150.000,4265649.318,-5.326 
661150.000,4265549.318,-5.279 
661150.000,4265449.318,-5.226 
661150.000,4265349.318,-5.194 
661150.000,4265249.318,-5.15 
661150.000,4265149.318,-5.127 
661150.000,4265049.318,-5.097 
661150.000,4264949.318,-5.066 
661150.000,4264849.318,-5.031 
661150.000,4264749.318,-4.997 
661150.000,4264649.318,-4.968 
661150.000,4264549.318,-4.947 
661150.000,4264449.318,-4.927 
661150.000,4264349.318,-4.9 
661150.000,4264249.318,-4.875 
661150.000,4264149.318,-4.851 
661150.000,4264049.318,-4.836 
661150.000,4263949.318,-4.821 
661150.000,4263849.318,-4.852 
661150.000,4263749.318,-4.852 
661150.000,4263649.318,-4.801 
661150.000,4263549.318,-4.763 
661150.000,4263449.318,-4.74 
661150.000,4263349.318,-4.768 
661150.000,4263249.318,-4.728 
661150.000,4263149.318,-4.691 
661150.000,4263049.318,-4.652 
661150.000,4262949.318,-4.627 
661150.000,4262849.318,-4.614 
661150.000,4262749.318,-4.596 
661150.000,4262649.318,-4.571 
661150.000,4262549.318,-4.556 
661150.000,4262449.318,-4.531 
661150.000,4262349.318,-4.513 
661150.000,4262249.318,-4.487 
661150.000,4262149.318,-4.46 
661150.000,4262049.318,-4.437 
661150.000,4261949.318,-4.417 
661150.000,4261849.318,-4.398 
661150.000,4261749.318,-4.384 
661150.000,4261649.318,-4.369 
661150.000,4261549.318,-4.358 
661150.000,4261449.318,-4.346 
661150.000,4261349.318,-4.335 
661150.000,4261249.318,-4.329 
661150.000,4261149.318,-4.324 
661150.000,4261049.318,-4.322 
661150.000,4260949.318,-4.322 
661150.000,4260849.318,-4.32 
661150.000,4260749.318,-4.32 
661150.000,4260649.318,-4.289 
661150.000,4260549.318,-4.28 
661150.000,4260449.318,-4.277 
661150.000,4260349.318,-4.295 
661150.000,4260249.318,-4.291 
661150.000,4260149.318,-4.289 
661150.000,4260049.318,-4.302 
661150.000,4259949.318,-4.302 
661150.000,4259849.318,-4.293 
661150.000,4259749.318,-4.297 
661150.000,4259649.318,-4.3 
661150.000,4259549.318,-4.292 
661150.000,4259449.318,-4.318 
661150.000,4259349.318,-4.318 
661150.000,4259249.318,-4.308 
661150.000,4259149.318,-4.311 
661150.000,4259049.318,-4.311 
661150.000,4258949.318,-4.307 
661150.000,4258849.318,-4.316 
661150.000,4258749.318,-4.325 
661150.000,4258649.318,-4.341 
661150.000,4258549.318,-4.368 
661150.000,4258449.318,-4.392 
661150.000,4258349.318,-4.412 
661150.000,4258249.318,-4.425 
661150.000,4258149.318,-4.43 
661150.000,4258049.318,-4.428 
661150.000,4257949.318,-4.43 
661150.000,4257849.318,-4.429 
661150.000,4257749.318,-4.427 
661150.000,4257649.318,-4.43 
661150.000,4257549.318,-4.433 
661150.000,4257449.318,-4.444 
661150.000,4257349.318,-4.451 
661150.000,4257249.318,-4.472 
661150.000,4257149.318,-4.484 
661150.000,4257049.318,-4.492 
661150.000,4256949.318,-4.501 
661150.000,4256849.318,-4.519 
661150.000,4256749.318,-4.544 
661150.000,4256649.318,-4.55 
661150.000,4256549.318,-4.574 
661150.000,4256449.318,-4.57 
661150.000,4256349.318,-4.576 
661150.000,4256249.318,-4.581 
661150.000,4256149.318,-4.605 
661150.000,4256049.318,-4.624 
661150.000,4255949.318,-4.634 
661150.000,4255849.318,-4.673 
661150.000,4255749.318,-4.689 
661150.000,4255649.318,-4.722 
661150.000,4255549.318,-4.749 
661150.000,4255449.318,-4.754 
661150.000,4255349.318,-4.741 
661150.000,4255249.318,-4.746 
661150.000,4255149.318,-4.774 
661150.000,4255049.318,-4.791 
661150.000,4254949.318,-4.795 
661150.000,4254849.318,-4.803 
661150.000,4254749.318,-4.813 
661150.000,4254649.318,-4.827 
661150.000,4254549.318,-4.841 
661150.000,4254449.318,-4.847 
661150.000,4254349.318,-4.873 
661150.000,4254249.318,-4.895 
661150.000,4254149.318,-4.914 
661150.000,4254049.318,-4.939 
661150.000,4253949.318,-4.954 
661150.000,4253849.318,-4.972 
661150.000,4253749.318,-4.999 
661150.000,4253649.318,-5.022 
661150.000,4253549.318,-5.021 
661150.000,4253449.318,-5.034 
661150.000,4253349.318,-5.076 
661150.000,4253249.318,-5.089 
661150.000,4253149.318,-5.102 
661150.000,4253049.318,-5.115 
661150.000,4252949.318,-5.131 
661150.000,4252849.318,-5.152 
661150.000,4252749.318,-5.174 
661150.000,4252649.318,-5.187 
661150.000,4252549.318,-5.191 
661150.000,4252449.318,-5.186 
661150.000,4252349.318,-5.183 
661150.000,4252249.318,-5.198 
661150.000,4252149.318,-5.209 
661150.000,4252049.318,-5.243 
661150.000,4251949.318,-5.26 
661150.000,4251849.318,-5.281 
661150.000,4251749.318,-5.292 
661150.000,4251649.318,-5.308 
661150.000,4251549.318,-5.329 
661150.000,4251449.318,-5.342 
661150.000,4251349.318,-5.344 
661150.000,4251249.318,-5.41 
661150.000,4251149.318,-5.464 
661150.000,4251049.318,-5.513 
661150.000,4250949.318,-5.528 
661150.000,4250849.318,-5.58 
661150.000,4250749.318,-5.604 
661150.000,4250649.318,-5.614 
661150.000,4250549.318,-5.633 
661150.000,4250449.318,-5.65 
661150.000,4250349.318,-5.704 
661150.000,4250249.318,-5.694 
661150.000,4250149.318,-5.721 
661150.000,4250049.318,-5.73 
661150.000,4249949.318,-5.741 
661150.000,4249849.318,-5.744 
661150.000,4249749.318,-5.747 
661150.000,4249649.318,-5.759 
661150.000,4249549.318,-5.757 
661150.000,4249449.318,-5.764 
661150.000,4249349.318,-5.774 
661150.000,4249249.318,-5.77 
661150.000,4249149.318,-5.782 
661150.000,4249049.318,-5.794 
661150.000,4248949.318,-5.806 
661150.000,4248849.318,-5.815 
661150.000,4248749.318,-5.839 
661150.000,4248649.318,-5.857 
661150.000,4248549.318,-5.892 
661150.000,4248449.318,-5.918 
661150.000,4248349.318,-5.935 
661150.000,4248249.318,-5.955 
661150.000,4248149.318,-5.972 
661150.000,4248049.318,-5.991 
661150.000,4247949.318,-6.019 
661150.000,4247849.318,-6.053 
661150.000,4247749.318,-6.084 
661150.000,4247649.318,-6.099 
661150.000,4247549.318,-6.135 
661150.000,4247449.318,-6.168 
661150.000,4247349.318,-6.241 
661150.000,4247249.318,-6.32 
661150.000,4247149.318,-6.387 
661150.000,4247049.318,-6.448 
661150.000,4246949.318,-6.507 
661150.000,4246849.318,-6.536 
661150.000,4246749.318,-6.59 
661150.000,4246649.318,-6.612 
661150.000,4246549.318,-6.643 
661150.000,4246449.318,-6.687 
661150.000,4246349.318,-6.73 
661250.000,4267449.318,-6.746 
661250.000,4267349.318,-6.659 
661250.000,4267249.318,-6.557 
661250.000,4267149.318,-6.471 
661250.000,4267049.318,-6.337 
661250.000,4266949.318,-6.215 
661250.000,4266849.318,-6.095 
661250.000,4266749.318,-6.013 
661250.000,4266649.318,-5.907 
661250.000,4266549.318,-5.833 
661250.000,4266449.318,-5.735 
661250.000,4266349.318,-5.686 
661250.000,4266249.318,-5.627 
661250.000,4266149.318,-5.606 
661250.000,4266049.318,-5.556 
661250.000,4265949.318,-5.508 
661250.000,4265849.318,-5.441 
661250.000,4265749.318,-5.377 
661250.000,4265649.318,-5.33 
661250.000,4265549.318,-5.284 
661250.000,4265449.318,-5.245 
661250.000,4265349.318,-5.184 
661250.000,4265249.318,-5.157 
661250.000,4265149.318,-5.121 
661250.000,4265049.318,-5.095 
661250.000,4264949.318,-5.068 
661250.000,4264849.318,-5.04 
661250.000,4264749.318,-5.013 
661250.000,4264649.318,-4.974 
661250.000,4264549.318,-4.966 
661250.000,4264449.318,-4.931 
661250.000,4264349.318,-4.904 
661250.000,4264249.318,-4.878 
661250.000,4264149.318,-4.872 
661250.000,4264049.318,-4.855 
661250.000,4263949.318,-4.821 
661250.000,4263849.318,-4.818 
661250.000,4263749.318,-4.856 
661250.000,4263649.318,-4.848 
661250.000,4263549.318,-4.782 
661250.000,4263449.318,-4.787 
661250.000,4263349.318,-4.736 
661250.000,4263249.318,-4.713 
661250.000,4263149.318,-4.689 
661250.000,4263049.318,-4.646 
661250.000,4262949.318,-4.617 
661250.000,4262849.318,-4.607 
661250.000,4262749.318,-4.574 
661250.000,4262649.318,-4.554 
661250.000,4262549.318,-4.539 
661250.000,4262449.318,-4.522 
661250.000,4262349.318,-4.497 
661250.000,4262249.318,-4.471 
661250.000,4262149.318,-4.445 
661250.000,4262049.318,-4.426 
661250.000,4261949.318,-4.403 
661250.000,4261849.318,-4.384 
661250.000,4261749.318,-4.367 
661250.000,4261649.318,-4.348 
661250.000,4261549.318,-4.334 
661250.000,4261449.318,-4.323 
661250.000,4261349.318,-4.317 
661250.000,4261249.318,-4.311 
661250.000,4261149.318,-4.306 
661250.000,4261049.318,-4.304 
661250.000,4260949.318,-4.299 
661250.000,4260849.318,-4.282 
661250.000,4260749.318,-4.27 
661250.000,4260649.318,-4.255 
661250.000,4260549.318,-4.241 
661250.000,4260449.318,-4.252 
661250.000,4260349.318,-4.267 
661250.000,4260249.318,-4.277 
661250.000,4260149.318,-4.276 
661250.000,4260049.318,-4.253 
661250.000,4259949.318,-4.265 
661250.000,4259849.318,-4.274 
661250.000,4259749.318,-4.27 
661250.000,4259649.318,-4.276 
661250.000,4259549.318,-4.268 
661250.000,4259449.318,-4.264 
661250.000,4259349.318,-4.276 
661250.000,4259249.318,-4.288 
661250.000,4259149.318,-4.286 
661250.000,4259049.318,-4.279 
661250.000,4258949.318,-4.277 
661250.000,4258849.318,-4.281 
661250.000,4258749.318,-4.302 
661250.000,4258649.318,-4.329 
661250.000,4258549.318,-4.357 
661250.000,4258449.318,-4.377 
661250.000,4258349.318,-4.395 
661250.000,4258249.318,-4.402 
661250.000,4258149.318,-4.403 
661250.000,4258049.318,-4.402 
661250.000,4257949.318,-4.4 
661250.000,4257849.318,-4.393 
661250.000,4257749.318,-4.395 
661250.000,4257649.318,-4.405 
661250.000,4257549.318,-4.412 
661250.000,4257449.318,-4.428 
661250.000,4257349.318,-4.441 
661250.000,4257249.318,-4.452 
661250.000,4257149.318,-4.47 
661250.000,4257049.318,-4.478 
661250.000,4256949.318,-4.496 
661250.000,4256849.318,-4.519 
661250.000,4256749.318,-4.537 
661250.000,4256649.318,-4.549 
661250.000,4256549.318,-4.556 
661250.000,4256449.318,-4.559 
661250.000,4256349.318,-4.561 
661250.000,4256249.318,-4.576 
661250.000,4256149.318,-4.592 
661250.000,4256049.318,-4.636 
661250.000,4255949.318,-4.653 
661250.000,4255849.318,-4.669 
661250.000,4255749.318,-4.701 
661250.000,4255649.318,-4.708 
661250.000,4255549.318,-4.733 
661250.000,4255449.318,-4.743 
661250.000,4255349.318,-4.733 
661250.000,4255249.318,-4.735 
661250.000,4255149.318,-4.757 
661250.000,4255049.318,-4.771 
661250.000,4254949.318,-4.791 
661250.000,4254849.318,-4.792 
661250.000,4254749.318,-4.802 
661250.000,4254649.318,-4.807 
661250.000,4254549.318,-4.829 
661250.000,4254449.318,-4.843 
661250.000,4254349.318,-4.853 
661250.000,4254249.318,-4.897 
661250.000,4254149.318,-4.929 
661250.000,4254049.318,-4.937 
661250.000,4253949.318,-4.953 
661250.000,4253849.318,-4.973 
661250.000,4253749.318,-4.998 
661250.000,4253649.318,-5.009 
661250.000,4253549.318,-5.014 
661250.000,4253449.318,-5.038 
661250.000,4253349.318,-5.055 
661250.000,4253249.318,-5.072 
661250.000,4253149.318,-5.087 
661250.000,4253049.318,-5.104 
661250.000,4252949.318,-5.12 
661250.000,4252849.318,-5.134 
661250.000,4252749.318,-5.151 
661250.000,4252649.318,-5.162 
661250.000,4252549.318,-5.169 
661250.000,4252449.318,-5.16 
661250.000,4252349.318,-5.176 
661250.000,4252249.318,-5.198 
661250.000,4252149.318,-5.236 
661250.000,4252049.318,-5.236 
661250.000,4251949.318,-5.233 
661250.000,4251849.318,-5.263 
661250.000,4251749.318,-5.295 
661250.000,4251649.318,-5.291 
661250.000,4251549.318,-5.305 
661250.000,4251449.318,-5.32 
661250.000,4251349.318,-5.335 
661250.000,4251249.318,-5.337 
661250.000,4251149.318,-5.389 
661250.000,4251049.318,-5.474 
661250.000,4250949.318,-5.504 
661250.000,4250849.318,-5.546 
661250.000,4250749.318,-5.581 
661250.000,4250649.318,-5.606 
661250.000,4250549.318,-5.626 
661250.000,4250449.318,-5.633 
661250.000,4250349.318,-5.661 
661250.000,4250249.318,-5.697 
661250.000,4250149.318,-5.703 
661250.000,4250049.318,-5.716 
661250.000,4249949.318,-5.724 
661250.000,4249849.318,-5.731 
661250.000,4249749.318,-5.739 
661250.000,4249649.318,-5.743 
661250.000,4249549.318,-5.746 
661250.000,4249449.318,-5.748 
661250.000,4249349.318,-5.751 
661250.000,4249249.318,-5.764 
661250.000,4249149.318,-5.752 
661250.000,4249049.318,-5.762 
661250.000,4248949.318,-5.766 
661250.000,4248849.318,-5.799 
661250.000,4248749.318,-5.821 
661250.000,4248649.318,-5.847 
661250.000,4248549.318,-5.874 
661250.000,4248449.318,-5.899 
661250.000,4248349.318,-5.917 
661250.000,4248249.318,-5.94 
661250.000,4248149.318,-5.946 
661250.000,4248049.318,-5.96 
661250.000,4247949.318,-5.996 
661250.000,4247849.318,-6.046 
661250.000,4247749.318,-6.079 
661250.000,4247649.318,-6.102 
661250.000,4247549.318,-6.145 
661250.000,4247449.318,-6.176 
661250.000,4247349.318,-6.224 
661250.000,4247249.318,-6.281 
661250.000,4247149.318,-6.368 
661250.000,4247049.318,-6.457 
661250.000,4246949.318,-6.514 
661250.000,4246849.318,-6.547 
661250.000,4246749.318,-6.583 
661250.000,4246649.318,-6.601 
661250.000,4246549.318,-6.634 
661250.000,4246449.318,-6.668 
661250.000,4246349.318,-6.713 
661350.000,4267549.318,-6.724 
661350.000,4267449.318,-6.618 
661350.000,4267349.318,-6.514 
661350.000,4267249.318,-6.395 
661350.000,4267149.318,-6.289 
661350.000,4267049.318,-6.208 
661350.000,4266949.318,-6.101 
661350.000,4266849.318,-6.036 
661350.000,4266749.318,-5.965 
661350.000,4266649.318,-5.894 
661350.000,4266549.318,-5.826 
661350.000,4266449.318,-5.749 
661350.000,4266349.318,-5.685 
661350.000,4266249.318,-5.632 
661350.000,4266149.318,-5.596 
661350.000,4266049.318,-5.557 
661350.000,4265949.318,-5.506 
661350.000,4265849.318,-5.444 
661350.000,4265749.318,-5.386 
661350.000,4265649.318,-5.329 
661350.000,4265549.318,-5.305 
661350.000,4265449.318,-5.243 
661350.000,4265349.318,-5.213 
661350.000,4265249.318,-5.17 
661350.000,4265149.318,-5.12 
661350.000,4265049.318,-5.1 
661350.000,4264949.318,-5.08 
661350.000,4264849.318,-5.049 
661350.000,4264749.318,-5.012 
661350.000,4264649.318,-4.991 
661350.000,4264549.318,-4.962 
661350.000,4264449.318,-4.934 
661350.000,4264349.318,-4.921 
661350.000,4264249.318,-4.907 
661350.000,4264149.318,-4.897 
661350.000,4264049.318,-4.889 
661350.000,4263949.318,-4.843 
661350.000,4263849.318,-4.825 
661350.000,4263749.318,-4.821 
661350.000,4263649.318,-4.848 
661350.000,4263549.318,-4.812 
661350.000,4263449.318,-4.788 
661350.000,4263349.318,-4.748 
661350.000,4263249.318,-4.727 
661350.000,4263149.318,-4.671 
661350.000,4263049.318,-4.637 
661350.000,4262949.318,-4.625 
661350.000,4262849.318,-4.587 
661350.000,4262749.318,-4.564 
661350.000,4262649.318,-4.544 
661350.000,4262549.318,-4.528 
661350.000,4262449.318,-4.511 
661350.000,4262349.318,-4.485 
661350.000,4262249.318,-4.464 
661350.000,4262149.318,-4.439 
661350.000,4262049.318,-4.418 
661350.000,4261949.318,-4.397 
661350.000,4261849.318,-4.372 
661350.000,4261749.318,-4.352 
661350.000,4261649.318,-4.335 
661350.000,4261549.318,-4.322 
661350.000,4261449.318,-4.313 
661350.000,4261349.318,-4.304 
661350.000,4261249.318,-4.295 
661350.000,4261149.318,-4.286 
661350.000,4261049.318,-4.275 
661350.000,4260949.318,-4.254 
661350.000,4260849.318,-4.242 
661350.000,4260749.318,-4.23 
661350.000,4260649.318,-4.235 
661350.000,4260549.318,-4.234 
661350.000,4260449.318,-4.233 
661350.000,4260349.318,-4.249 
661350.000,4260249.318,-4.252 
661350.000,4260149.318,-4.248 
661350.000,4260049.318,-4.236 
661350.000,4259949.318,-4.232 
661350.000,4259849.318,-4.231 
661350.000,4259749.318,-4.241 
661350.000,4259649.318,-4.229 
661350.000,4259549.318,-4.232 
661350.000,4259449.318,-4.233 
661350.000,4259349.318,-4.249 
661350.000,4259249.318,-4.257 
661350.000,4259149.318,-4.256 
661350.000,4259049.318,-4.245 
661350.000,4258949.318,-4.247 
661350.000,4258849.318,-4.258 
661350.000,4258749.318,-4.288 
661350.000,4258649.318,-4.32 
661350.000,4258549.318,-4.343 
661350.000,4258449.318,-4.363 
661350.000,4258349.318,-4.37 
661350.000,4258249.318,-4.372 
661350.000,4258149.318,-4.372 
661350.000,4258049.318,-4.372 
661350.000,4257949.318,-4.38 
661350.000,4257849.318,-4.381 
661350.000,4257749.318,-4.386 
661350.000,4257649.318,-4.386 
661350.000,4257549.318,-4.391 
661350.000,4257449.318,-4.41 
661350.000,4257349.318,-4.425 
661350.000,4257249.318,-4.434 
661350.000,4257149.318,-4.448 
661350.000,4257049.318,-4.469 
661350.000,4256949.318,-4.49 
661350.000,4256849.318,-4.51 
661350.000,4256749.318,-4.527 
661350.000,4256649.318,-4.545 
661350.000,4256549.318,-4.548 
661350.000,4256449.318,-4.543 
661350.000,4256349.318,-4.556 
661350.000,4256249.318,-4.577 
661350.000,4256149.318,-4.608 
661350.000,4256049.318,-4.628 
661350.000,4255949.318,-4.67 
661350.000,4255849.318,-4.668 
661350.000,4255749.318,-4.698 
661350.000,4255649.318,-4.689 
661350.000,4255549.318,-4.688 
661350.000,4255449.318,-4.726 
661350.000,4255349.318,-4.732 
661350.000,4255249.318,-4.741 
661350.000,4255149.318,-4.76 
661350.000,4255049.318,-4.773 
661350.000,4254949.318,-4.762 
661350.000,4254849.318,-4.775 
661350.000,4254749.318,-4.782 
661350.000,4254649.318,-4.801 
661350.000,4254549.318,-4.826 
661350.000,4254449.318,-4.847 
661350.000,4254349.318,-4.86 
661350.000,4254249.318,-4.89 
661350.000,4254149.318,-4.92 
661350.000,4254049.318,-4.938 
661350.000,4253949.318,-4.948 
661350.000,4253849.318,-4.96 
661350.000,4253749.318,-4.963 
661350.000,4253649.318,-4.99 
661350.000,4253549.318,-4.993 
661350.000,4253449.318,-5.024 
661350.000,4253349.318,-5.04 
661350.000,4253249.318,-5.057 
661350.000,4253149.318,-5.083 
661350.000,4253049.318,-5.093 
661350.000,4252949.318,-5.111 
661350.000,4252849.318,-5.122 
661350.000,4252749.318,-5.125 
661350.000,4252649.318,-5.136 
661350.000,4252549.318,-5.135 
661350.000,4252449.318,-5.167 
661350.000,4252349.318,-5.171 
661350.000,4252249.318,-5.207 
661350.000,4252149.318,-5.223 
661350.000,4252049.318,-5.249 
661350.000,4251949.318,-5.234 
661350.000,4251849.318,-5.229 
661350.000,4251749.318,-5.247 
661350.000,4251649.318,-5.283 
661350.000,4251549.318,-5.294 
661350.000,4251449.318,-5.295 
661350.000,4251349.318,-5.326 
661350.000,4251249.318,-5.294 
661350.000,4251149.318,-5.321 
661350.000,4251049.318,-5.423 
661350.000,4250949.318,-5.439 
661350.000,4250849.318,-5.488 
661350.000,4250749.318,-5.563 
661350.000,4250649.318,-5.588 
661350.000,4250549.318,-5.611 
661350.000,4250449.318,-5.614 
661350.000,4250349.318,-5.609 
661350.000,4250249.318,-5.649 
661350.000,4250149.318,-5.704 
661350.000,4250049.318,-5.708 
661350.000,4249949.318,-5.707 
661350.000,4249849.318,-5.711 
661350.000,4249749.318,-5.723 
661350.000,4249649.318,-5.723 
661350.000,4249549.318,-5.732 
