670600.000,4260499.318,-9.644 
670600.000,4260299.318,-9.624 
670600.000,4260099.318,-9.656 
670600.000,4259899.318,-9.646 
670600.000,4259699.318,-9.655 
670600.000,4259499.318,-9.656 
670600.000,4259299.318,-9.596 
670600.000,4259099.318,-9.566 
670600.000,4258899.318,-9.486 
670600.000,4258699.318,-9.276 
670600.000,4258499.318,-9.213 
670600.000,4258299.318,-9.193 
670600.000,4258099.318,-9.157 
670600.000,4257899.318,-9.141 
670600.000,4257699.318,-9.051 
670600.000,4257499.318,-9.014 
670600.000,4257299.318,-8.994 
670600.000,4257099.318,-8.926 
670600.000,4256899.318,-8.923 
670600.000,4256699.318,-8.977 
670600.000,4256499.318,-9.066 
670600.000,4256299.318,-9.289 
670600.000,4256099.318,-9.318 
670600.000,4255899.318,-9.339 
670600.000,4255699.318,-9.382 
670600.000,4255499.318,-9.331 
670600.000,4255299.318,-9.248 
670600.000,4255099.318,-9.14 
670600.000,4254899.318,-9.047 
670600.000,4254699.318,-8.918 
670600.000,4254499.318,-8.838 
670600.000,4254299.318,-8.735 
670600.000,4254099.318,-8.7 
670600.000,4253899.318,-8.693 
670600.000,4253699.318,-8.704 
670600.000,4253499.318,-8.661 
670600.000,4253299.318,-8.688 
670600.000,4253099.318,-8.732 
670600.000,4252899.318,-8.725 
670600.000,4252699.318,-8.717 
670600.000,4252499.318,-8.748 
670600.000,4252299.318,-8.752 
670600.000,4252099.318,-8.774 
670600.000,4251899.318,-8.791 
670600.000,4251699.318,-8.798 
670600.000,4251499.318,-8.814 
670600.000,4251299.318,-8.818 
670600.000,4251099.318,-8.866 
670600.000,4250899.318,-8.918 
670600.000,4250699.318,-8.984 
670600.000,4250499.318,-9.072 
670600.000,4250299.318,-9.161 
670600.000,4250099.318,-9.229 
670600.000,4249899.318,-9.241 
670600.000,4249699.318,-9.322 
670600.000,4249499.318,-9.347 
670600.000,4249299.318,-9.384 
670600.000,4249099.318,-9.41 
670600.000,4248899.318,-9.478 
670600.000,4248699.318,-9.6 
670600.000,4248499.318,-9.664 
670600.000,4248299.318,-9.752 
670600.000,4248099.318,-9.845 
670600.000,4247899.318,-9.909 
670600.000,4247699.318,-10.031 
670600.000,4247499.318,-10.124 
670600.000,4247299.318,-10.237 
670600.000,4247099.318,-10.278 
670600.000,4246899.318,-10.419 
670600.000,4246699.318,-10.578 
670600.000,4246499.318,-10.657 
670600.000,4246299.318,-10.759 
670600.000,4246099.318,-10.846 
670600.000,4245899.318,-10.919 
670600.000,4245699.318,-10.969 
670800.000,4281299.318,-11.469 
670800.000,4281099.318,-11.488 
670800.000,4280899.318,-11.528 
670800.000,4280699.318,-11.54 
670800.000,4280499.318,-11.541 
670800.000,4280299.318,-11.537 
670800.000,4280099.318,-11.607 
670800.000,4279899.318,-11.636 
670800.000,4279699.318,-11.66 
670800.000,4279499.318,-11.703 
670800.000,4279299.318,-11.728 
670800.000,4279099.318,-11.796 
670800.000,4278899.318,-11.948 
670800.000,4278699.318,-12.116 
670800.000,4278499.318,-12.368 
670800.000,4278299.318,-12.554 
670800.000,4278099.318,-12.781 
670800.000,4277899.318,-13.127 
670800.000,4277699.318,-13.25 
670800.000,4277499.318,-13.34 
670800.000,4277299.318,-13.41 
670800.000,4277099.318,-13.485 
670800.000,4276899.318,-13.576 
670800.000,4276699.318,-13.67 
670800.000,4276499.318,-13.787 
670800.000,4276299.318,-13.852 
670800.000,4276099.318,-13.929 
670800.000,4275899.318,-14.012 
670800.000,4275699.318,-14.054 
670800.000,4275499.318,-13.873 
670800.000,4275299.318,-13.129 
670800.000,4275099.318,-12.803 
670800.000,4274899.318,-12.38 
670800.000,4274699.318,-12.236 
670800.000,4274499.318,-12.239 
670800.000,4274299.318,-12.267 
670800.000,4274099.318,-12.289 
670800.000,4273899.318,-12.304 
670800.000,4273699.318,-12.33 
670800.000,4273499.318,-12.345 
670800.000,4273299.318,-12.337 
670800.000,4273099.318,-12.338 
670800.000,4272899.318,-12.344 
670800.000,4272699.318,-12.36 
670800.000,4272499.318,-12.365 
670800.000,4272299.318,-12.335 
670800.000,4272099.318,-12.363 
670800.000,4271899.318,-12.32 
670800.000,4271699.318,-12.273 
670800.000,4271499.318,-12.299 
670800.000,4271299.318,-12.304 
670800.000,4271099.318,-12.288 
670800.000,4270899.318,-12.293 
670800.000,4270699.318,-12.258 
670800.000,4270499.318,-12.202 
670800.000,4270299.318,-12.073 
670800.000,4270099.318,-11.911 
670800.000,4269899.318,-11.646 
670800.000,4269699.318,-11.426 
670800.000,4269499.318,-11.257 
670800.000,4269299.318,-11.16 
670800.000,4269099.318,-11.048 
670800.000,4268899.318,-10.958 
670800.000,4268699.318,-10.924 
670800.000,4268499.318,-10.895 
670800.000,4268299.318,-10.871 
670800.000,4268099.318,-10.781 
670800.000,4267899.318,-10.664 
670800.000,4267699.318,-10.575 
670800.000,4267499.318,-10.469 
670800.000,4267299.318,-10.55 
670800.000,4267099.318,-10.88 
670800.000,4266899.318,-11.098 
670800.000,4266699.318,-11.23 
670800.000,4266499.318,-11.339 
670800.000,4266299.318,-11.445 
670800.000,4266099.318,-11.491 
670800.000,4265899.318,-11.51 
670800.000,4265699.318,-11.547 
670800.000,4265499.318,-11.471 
670800.000,4265299.318,-11.353 
670800.000,4265099.318,-11.219 
670800.000,4264899.318,-11.066 
670800.000,4264699.318,-10.97 
670800.000,4264499.318,-10.828 
670800.000,4264299.318,-10.614 
670800.000,4264099.318,-10.496 
670800.000,4263899.318,-10.379 
670800.000,4263699.318,-10.328 
670800.000,4263499.318,-10.289 
670800.000,4263299.318,-10.135 
670800.000,4263099.318,-10.02 
670800.000,4262899.318,-10.011 
670800.000,4262699.318,-9.983 
670800.000,4262499.318,-10.017 
670800.000,4262299.318,-10.016 
670800.000,4262099.318,-10.039 
670800.000,4261899.318,-10.007 
670800.000,4261699.318,-9.983 
670800.000,4261499.318,-10 
670800.000,4261299.318,-9.903 
670800.000,4261099.318,-9.892 
670800.000,4260899.318,-9.816 
670800.000,4260699.318,-9.868 
670800.000,4260499.318,-9.883 
670800.000,4260299.318,-9.88 
670800.000,4260099.318,-9.901 
670800.000,4259899.318,-9.913 
670800.000,4259699.318,-9.879 
670800.000,4259499.318,-9.835 
670800.000,4259299.318,-9.801 
670800.000,4259099.318,-9.792 
670800.000,4258899.318,-9.797 
670800.000,4258699.318,-9.65 
670800.000,4258499.318,-9.445 
670800.000,4258299.318,-9.422 
670800.000,4258099.318,-9.371 
670800.000,4257899.318,-9.304 
670800.000,4257699.318,-9.321 
670800.000,4257499.318,-9.274 
670800.000,4257299.318,-9.193 
670800.000,4257099.318,-9.178 
670800.000,4256899.318,-9.176 
670800.000,4256699.318,-9.2 
670800.000,4256499.318,-9.251 
670800.000,4256299.318,-9.498 
670800.000,4256099.318,-9.546 
670800.000,4255899.318,-9.528 
670800.000,4255699.318,-9.56 
670800.000,4255499.318,-9.524 
670800.000,4255299.318,-9.446 
670800.000,4255099.318,-9.398 
670800.000,4254899.318,-9.256 
670800.000,4254699.318,-9.106 
670800.000,4254499.318,-8.992 
670800.000,4254299.318,-8.945 
670800.000,4254099.318,-8.892 
670800.000,4253899.318,-8.905 
670800.000,4253699.318,-8.897 
670800.000,4253499.318,-8.908 
670800.000,4253299.318,-8.885 
670800.000,4253099.318,-8.954 
670800.000,4252899.318,-8.938 
670800.000,4252699.318,-8.946 
670800.000,4252499.318,-8.953 
670800.000,4252299.318,-8.966 
670800.000,4252099.318,-8.968 
670800.000,4251899.318,-8.987 
670800.000,4251699.318,-9.018 
670800.000,4251499.318,-9.021 
670800.000,4251299.318,-9.061 
670800.000,4251099.318,-9.087 
670800.000,4250899.318,-9.14 
670800.000,4250699.318,-9.211 
670800.000,4250499.318,-9.306 
670800.000,4250299.318,-9.393 
670800.000,4250099.318,-9.461 
670800.000,4249899.318,-9.423 
670800.000,4249699.318,-9.463 
670800.000,4249499.318,-9.433 
670800.000,4249299.318,-9.545 
670800.000,4249099.318,-9.605 
670800.000,4248899.318,-9.645 
670800.000,4248699.318,-9.734 
670800.000,4248499.318,-9.791 
670800.000,4248299.318,-9.881 
670800.000,4248099.318,-9.946 
670800.000,4247899.318,-10.012 
670800.000,4247699.318,-10.14 
670800.000,4247499.318,-10.219 
670800.000,4247299.318,-10.325 
670800.000,4247099.318,-10.496 
670800.000,4246899.318,-10.592 
670800.000,4246699.318,-10.682 
670800.000,4246499.318,-10.842 
670800.000,4246299.318,-10.943 
670800.000,4246099.318,-11.03 
670800.000,4245899.318,-11.064 
670800.000,4245699.318,-11.118 
671000.000,4281299.318,-11.451 
671000.000,4281099.318,-11.485 
671000.000,4280899.318,-11.537 
671000.000,4280699.318,-11.526 
671000.000,4280499.318,-11.526 
671000.000,4280299.318,-11.57 
671000.000,4280099.318,-11.612 
671000.000,4279899.318,-11.607 
671000.000,4279699.318,-11.634 
671000.000,4279499.318,-11.674 
671000.000,4279299.318,-11.698 
671000.000,4279099.318,-11.743 
671000.000,4278899.318,-12.003 
671000.000,4278699.318,-12.166 
671000.000,4278499.318,-12.307 
671000.000,4278299.318,-12.457 
671000.000,4278099.318,-12.715 
671000.000,4277899.318,-12.98 
671000.000,4277699.318,-13.234 
671000.000,4277499.318,-13.324 
671000.000,4277299.318,-13.411 
671000.000,4277099.318,-13.449 
671000.000,4276899.318,-13.53 
671000.000,4276699.318,-13.643 
671000.000,4276499.318,-13.751 
671000.000,4276299.318,-13.826 
671000.000,4276099.318,-13.892 
671000.000,4275899.318,-14.007 
671000.000,4275699.318,-14.087 
671000.000,4275499.318,-14.082 
671000.000,4275299.318,-13.619 
671000.000,4275099.318,-13.211 
671000.000,4274899.318,-12.699 
671000.000,4274699.318,-12.268 
671000.000,4274499.318,-12.259 
671000.000,4274299.318,-12.275 
671000.000,4274099.318,-12.288 
671000.000,4273899.318,-12.325 
671000.000,4273699.318,-12.349 
671000.000,4273499.318,-12.389 
671000.000,4273299.318,-12.391 
671000.000,4273099.318,-12.395 
671000.000,4272899.318,-12.399 
671000.000,4272699.318,-12.412 
671000.000,4272499.318,-12.387 
671000.000,4272299.318,-12.395 
671000.000,4272099.318,-12.384 
671000.000,4271899.318,-12.388 
671000.000,4271699.318,-12.352 
671000.000,4271499.318,-12.365 
671000.000,4271299.318,-12.337 
671000.000,4271099.318,-12.355 
671000.000,4270899.318,-12.35 
671000.000,4270699.318,-12.361 
671000.000,4270499.318,-12.334 
671000.000,4270299.318,-12.267 
671000.000,4270099.318,-12.136 
671000.000,4269899.318,-11.957 
671000.000,4269699.318,-11.664 
671000.000,4269499.318,-11.525 
671000.000,4269299.318,-11.403 
671000.000,4269099.318,-11.288 
671000.000,4268899.318,-11.1 
671000.000,4268699.318,-11.033 
671000.000,4268499.318,-10.982 
671000.000,4268299.318,-10.943 
671000.000,4268099.318,-10.979 
671000.000,4267899.318,-10.902 
671000.000,4267699.318,-10.699 
671000.000,4267499.318,-10.554 
671000.000,4267299.318,-10.589 
671000.000,4267099.318,-10.811 
671000.000,4266899.318,-11.146 
671000.000,4266699.318,-11.225 
671000.000,4266499.318,-11.347 
671000.000,4266299.318,-11.493 
671000.000,4266099.318,-11.579 
671000.000,4265899.318,-11.664 
671000.000,4265699.318,-11.675 
671000.000,4265499.318,-11.644 
671000.000,4265299.318,-11.621 
671000.000,4265099.318,-11.568 
671000.000,4264899.318,-11.348 
671000.000,4264699.318,-11.236 
671000.000,4264499.318,-11.137 
671000.000,4264299.318,-10.968 
671000.000,4264099.318,-10.797 
671000.000,4263899.318,-10.696 
671000.000,4263699.318,-10.566 
671000.000,4263499.318,-10.508 
671000.000,4263299.318,-10.377 
671000.000,4263099.318,-10.337 
671000.000,4262899.318,-10.308 
671000.000,4262699.318,-10.287 
671000.000,4262499.318,-10.317 
671000.000,4262299.318,-10.303 
671000.000,4262099.318,-10.269 
671000.000,4261899.318,-10.291 
671000.000,4261699.318,-10.3 
671000.000,4261499.318,-10.25 
671000.000,4261299.318,-10.188 
671000.000,4261099.318,-10.098 
671000.000,4260899.318,-10.081 
671000.000,4260699.318,-10.067 
671000.000,4260499.318,-10.1 
671000.000,4260299.318,-10.15 
671000.000,4260099.318,-10.18 
671000.000,4259899.318,-10.097 
671000.000,4259699.318,-10.085 
671000.000,4259499.318,-10.061 
671000.000,4259299.318,-10.02 
671000.000,4259099.318,-10.034 
671000.000,4258899.318,-9.997 
671000.000,4258699.318,-9.962 
671000.000,4258499.318,-9.818 
671000.000,4258299.318,-9.682 
671000.000,4258099.318,-9.634 
671000.000,4257899.318,-9.593 
671000.000,4257699.318,-9.532 
671000.000,4257499.318,-9.506 
671000.000,4257299.318,-9.481 
671000.000,4257099.318,-9.453 
671000.000,4256899.318,-9.411 
671000.000,4256699.318,-9.391 
671000.000,4256499.318,-9.408 
671000.000,4256299.318,-9.606 
671000.000,4256099.318,-9.656 
671000.000,4255899.318,-9.658 
671000.000,4255699.318,-9.714 
671000.000,4255499.318,-9.712 
671000.000,4255299.318,-9.663 
671000.000,4255099.318,-9.511 
671000.000,4254899.318,-9.438 
671000.000,4254699.318,-9.261 
671000.000,4254499.318,-9.156 
671000.000,4254299.318,-9.124 
671000.000,4254099.318,-9.112 
671000.000,4253899.318,-9.108 
671000.000,4253699.318,-9.136 
671000.000,4253499.318,-9.129 
671000.000,4253299.318,-9.08 
671000.000,4253099.318,-9.117 
671000.000,4252899.318,-9.122 
671000.000,4252699.318,-9.152 
671000.000,4252499.318,-9.138 
671000.000,4252299.318,-9.154 
671000.000,4252099.318,-9.186 
671000.000,4251899.318,-9.218 
671000.000,4251699.318,-9.237 
671000.000,4251499.318,-9.279 
671000.000,4251299.318,-9.327 
671000.000,4251099.318,-9.341 
671000.000,4250899.318,-9.4 
671000.000,4250699.318,-9.501 
671000.000,4250499.318,-9.581 
671000.000,4250299.318,-9.551 
671000.000,4250099.318,-9.581 
671000.000,4249899.318,-9.566 
671000.000,4249699.318,-9.597 
671000.000,4249499.318,-9.615 
671000.000,4249299.318,-9.712 
671000.000,4249099.318,-9.73 
671000.000,4248899.318,-9.782 
671000.000,4248699.318,-9.832 
671000.000,4248499.318,-9.911 
671000.000,4248299.318,-9.984 
671000.000,4248099.318,-10.068 
671000.000,4247899.318,-10.216 
671000.000,4247699.318,-10.253 
671000.000,4247499.318,-10.427 
671000.000,4247299.318,-10.537 
671000.000,4247099.318,-10.689 
671000.000,4246899.318,-10.732 
671000.000,4246699.318,-10.845 
671000.000,4246499.318,-10.965 
671000.000,4246299.318,-11.086 
671000.000,4246099.318,-11.15 
671000.000,4245899.318,-11.215 
671000.000,4245699.318,-11.278 
671200.000,4281299.318,-11.477 
671200.000,4281099.318,-11.487 
671200.000,4280899.318,-11.493 
671200.000,4280699.318,-11.519 
671200.000,4280499.318,-11.531 
671200.000,4280299.318,-11.556 
671200.000,4280099.318,-11.56 
671200.000,4279899.318,-11.59 
671200.000,4279699.318,-11.639 
671200.000,4279499.318,-11.674 
671200.000,4279299.318,-11.652 
671200.000,4279099.318,-11.714 
671200.000,4278899.318,-11.852 
671200.000,4278699.318,-12.134 
671200.000,4278499.318,-12.279 
671200.000,4278299.318,-12.392 
671200.000,4278099.318,-12.658 
671200.000,4277899.318,-12.826 
671200.000,4277699.318,-12.982 
671200.000,4277499.318,-13.294 
671200.000,4277299.318,-13.398 
671200.000,4277099.318,-13.454 
671200.000,4276899.318,-13.521 
671200.000,4276699.318,-13.621 
671200.000,4276499.318,-13.78 
671200.000,4276299.318,-13.822 
671200.000,4276099.318,-13.94 
671200.000,4275899.318,-13.986 
671200.000,4275699.318,-14.04 
671200.000,4275499.318,-14.11 
671200.000,4275299.318,-14.006 
671200.000,4275099.318,-13.474 
671200.000,4274899.318,-12.778 
671200.000,4274699.318,-12.297 
671200.000,4274499.318,-12.311 
671200.000,4274299.318,-12.316 
671200.000,4274099.318,-12.323 
671200.000,4273899.318,-12.348 
671200.000,4273699.318,-12.382 
671200.000,4273499.318,-12.43 
671200.000,4273299.318,-12.449 
671200.000,4273099.318,-12.477 
671200.000,4272899.318,-12.442 
671200.000,4272699.318,-12.453 
671200.000,4272499.318,-12.426 
671200.000,4272299.318,-12.434 
671200.000,4272099.318,-12.436 
671200.000,4271899.318,-12.398 
671200.000,4271699.318,-12.399 
671200.000,4271499.318,-12.37 
671200.000,4271299.318,-12.373 
671200.000,4271099.318,-12.384 
671200.000,4270899.318,-12.387 
671200.000,4270699.318,-12.402 
671200.000,4270499.318,-12.386 
671200.000,4270299.318,-12.321 
671200.000,4270099.318,-12.27 
671200.000,4269899.318,-12.184 
671200.000,4269699.318,-11.969 
671200.000,4269499.318,-11.798 
671200.000,4269299.318,-11.657 
671200.000,4269099.318,-11.519 
671200.000,4268899.318,-11.413 
671200.000,4268699.318,-11.244 
671200.000,4268499.318,-11.131 
671200.000,4268299.318,-11.062 
671200.000,4268099.318,-11.005 
671200.000,4267899.318,-10.953 
671200.000,4267699.318,-10.87 
671200.000,4267499.318,-10.714 
671200.000,4267299.318,-10.648 
671200.000,4267099.318,-10.778 
671200.000,4266899.318,-11.034 
671200.000,4266699.318,-11.241 
671200.000,4266499.318,-11.387 
671200.000,4266299.318,-11.451 
671200.000,4266099.318,-11.585 
671200.000,4265899.318,-11.765 
671200.000,4265699.318,-11.769 
671200.000,4265499.318,-11.772 
671200.000,4265299.318,-11.766 
671200.000,4265099.318,-11.726 
671200.000,4264899.318,-11.587 
671200.000,4264699.318,-11.49 
671200.000,4264499.318,-11.365 
671200.000,4264299.318,-11.288 
671200.000,4264099.318,-11.032 
671200.000,4263899.318,-10.945 
671200.000,4263699.318,-10.847 
671200.000,4263499.318,-10.735 
671200.000,4263299.318,-10.623 
671200.000,4263099.318,-10.641 
671200.000,4262899.318,-10.583 
671200.000,4262699.318,-10.577 
671200.000,4262499.318,-10.573 
671200.000,4262299.318,-10.629 
671200.000,4262099.318,-10.56 
671200.000,4261899.318,-10.56 
671200.000,4261699.318,-10.533 
671200.000,4261499.318,-10.56 
671200.000,4261299.318,-10.482 
671200.000,4261099.318,-10.493 
671200.000,4260899.318,-10.419 
671200.000,4260699.318,-10.325 
671200.000,4260499.318,-10.343 
671200.000,4260299.318,-10.332 
671200.000,4260099.318,-10.382 
671200.000,4259899.318,-10.334 
671200.000,4259699.318,-10.321 
671200.000,4259499.318,-10.264 
671200.000,4259299.318,-10.244 
671200.000,4259099.318,-10.228 
671200.000,4258899.318,-10.238 
671200.000,4258699.318,-10.2 
671200.000,4258499.318,-10.051 
671200.000,4258299.318,-9.98 
671200.000,4258099.318,-9.976 
671200.000,4257899.318,-9.836 
671200.000,4257699.318,-9.797 
671200.000,4257499.318,-9.767 
671200.000,4257299.318,-9.762 
671200.000,4257099.318,-9.748 
671200.000,4256899.318,-9.683 
671200.000,4256699.318,-9.697 
671200.000,4256499.318,-9.813 
671200.000,4256299.318,-9.803 
671200.000,4256099.318,-9.781 
671200.000,4255899.318,-9.8 
671200.000,4255699.318,-9.821 
671200.000,4255499.318,-9.836 
671200.000,4255299.318,-9.775 
671200.000,4255099.318,-9.631 
671200.000,4254899.318,-9.509 
671200.000,4254699.318,-9.401 
671200.000,4254499.318,-9.33 
671200.000,4254299.318,-9.386 
671200.000,4254099.318,-9.347 
671200.000,4253899.318,-9.338 
671200.000,4253699.318,-9.34 
671200.000,4253499.318,-9.329 
671200.000,4253299.318,-9.318 
671200.000,4253099.318,-9.342 
671200.000,4252899.318,-9.338 
671200.000,4252699.318,-9.342 
671200.000,4252499.318,-9.344 
671200.000,4252299.318,-9.351 
671200.000,4252099.318,-9.404 
671200.000,4251899.318,-9.427 
671200.000,4251699.318,-9.507 
671200.000,4251499.318,-9.505 
671200.000,4251299.318,-9.545 
671200.000,4251099.318,-9.634 
671200.000,4250899.318,-9.671 
671200.000,4250699.318,-9.683 
671200.000,4250499.318,-9.732 
671200.000,4250299.318,-9.715 
671200.000,4250099.318,-9.725 
671200.000,4249899.318,-9.771 
671200.000,4249699.318,-9.804 
671200.000,4249499.318,-9.784 
671200.000,4249299.318,-9.882 
671200.000,4249099.318,-9.863 
671200.000,4248899.318,-9.934 
671200.000,4248699.318,-9.975 
671200.000,4248499.318,-10.071 
671200.000,4248299.318,-10.15 
671200.000,4248099.318,-10.219 
671200.000,4247899.318,-10.347 
671200.000,4247699.318,-10.461 
671200.000,4247499.318,-10.575 
671200.000,4247299.318,-10.719 
671200.000,4247099.318,-10.819 
671200.000,4246899.318,-10.939 
671200.000,4246699.318,-11.018 
671200.000,4246499.318,-11.108 
671200.000,4246299.318,-11.196 
671200.000,4246099.318,-11.332 
671200.000,4245899.318,-11.458 
671200.000,4245699.318,-11.53 
671400.000,4281299.318,-11.458 
671400.000,4281099.318,-11.412 
671400.000,4280899.318,-11.503 
671400.000,4280699.318,-11.484 
671400.000,4280499.318,-11.544 
671400.000,4280299.318,-11.569 
671400.000,4280099.318,-11.575 
671400.000,4279899.318,-11.602 
671400.000,4279699.318,-11.637 
671400.000,4279499.318,-11.677 
671400.000,4279299.318,-11.722 
671400.000,4279099.318,-11.777 
671400.000,4278899.318,-11.824 
671400.000,4278699.318,-11.981 
671400.000,4278499.318,-12.14 
671400.000,4278299.318,-12.244 
671400.000,4278099.318,-12.518 
671400.000,4277899.318,-12.637 
671400.000,4277699.318,-12.763 
671400.000,4277499.318,-13.057 
671400.000,4277299.318,-13.396 
671400.000,4277099.318,-13.488 
671400.000,4276899.318,-13.533 
671400.000,4276699.318,-13.618 
671400.000,4276499.318,-13.695 
671400.000,4276299.318,-13.819 
671400.000,4276099.318,-13.887 
671400.000,4275899.318,-13.988 
671400.000,4275699.318,-14.063 
671400.000,4275499.318,-14.129 
671400.000,4275299.318,-14.111 
671400.000,4275099.318,-13.877 
671400.000,4274899.318,-13.172 
671400.000,4274699.318,-12.6 
671400.000,4274499.318,-12.409 
671400.000,4274299.318,-12.368 
671400.000,4274099.318,-12.381 
671400.000,4273899.318,-12.368 
671400.000,4273699.318,-12.44 
671400.000,4273499.318,-12.483 
671400.000,4273299.318,-12.475 
671400.000,4273099.318,-12.52 
671400.000,4272899.318,-12.516 
671400.000,4272699.318,-12.507 
671400.000,4272499.318,-12.474 
671400.000,4272299.318,-12.452 
671400.000,4272099.318,-12.46 
671400.000,4271899.318,-12.449 
671400.000,4271699.318,-12.453 
671400.000,4271499.318,-12.439 
671400.000,4271299.318,-12.448 
671400.000,4271099.318,-12.41 
671400.000,4270899.318,-12.444 
671400.000,4270699.318,-12.426 
671400.000,4270499.318,-12.413 
671400.000,4270299.318,-12.412 
671400.000,4270099.318,-12.351 
671400.000,4269899.318,-12.288 
671400.000,4269699.318,-12.223 
671400.000,4269499.318,-12.094 
671400.000,4269299.318,-11.949 
671400.000,4269099.318,-11.757 
671400.000,4268899.318,-11.606 
671400.000,4268699.318,-11.45 
671400.000,4268499.318,-11.326 
671400.000,4268299.318,-11.227 
671400.000,4268099.318,-11.122 
671400.000,4267899.318,-11.038 
671400.000,4267699.318,-10.91 
671400.000,4267499.318,-10.838 
671400.000,4267299.318,-10.743 
671400.000,4267099.318,-10.773 
671400.000,4266899.318,-11.055 
671400.000,4266699.318,-11.207 
671400.000,4266499.318,-11.41 
671400.000,4266299.318,-11.499 
671400.000,4266099.318,-11.665 
671400.000,4265899.318,-11.868 
671400.000,4265699.318,-11.867 
671400.000,4265499.318,-11.875 
671400.000,4265299.318,-11.895 
671400.000,4265099.318,-11.877 
671400.000,4264899.318,-11.864 
671400.000,4264699.318,-11.702 
671400.000,4264499.318,-11.6 
671400.000,4264299.318,-11.514 
671400.000,4264099.318,-11.368 
671400.000,4263899.318,-11.221 
671400.000,4263699.318,-11.124 
671400.000,4263499.318,-10.979 
671400.000,4263299.318,-10.948 
671400.000,4263099.318,-10.881 
671400.000,4262899.318,-10.881 
671400.000,4262699.318,-10.871 
671400.000,4262499.318,-10.865 
671400.000,4262299.318,-10.853 
671400.000,4262099.318,-10.816 
671400.000,4261899.318,-10.845 
671400.000,4261699.318,-10.835 
671400.000,4261499.318,-10.777 
671400.000,4261299.318,-10.715 
671400.000,4261099.318,-10.692 
671400.000,4260899.318,-10.658 
671400.000,4260699.318,-10.633 
671400.000,4260499.318,-10.593 
671400.000,4260299.318,-10.607 
671400.000,4260099.318,-10.588 
671400.000,4259899.318,-10.531 
671400.000,4259699.318,-10.563 
671400.000,4259499.318,-10.529 
671400.000,4259299.318,-10.467 
671400.000,4259099.318,-10.445 
671400.000,4258899.318,-10.44 
671400.000,4258699.318,-10.427 
671400.000,4258499.318,-10.341 
671400.000,4258299.318,-10.224 
671400.000,4258099.318,-10.17 
671400.000,4257899.318,-10.235 
671400.000,4257699.318,-10.162 
671400.000,4257499.318,-10.044 
671400.000,4257299.318,-10.011 
671400.000,4257099.318,-9.977 
671400.000,4256899.318,-9.969 
671400.000,4256699.318,-9.993 
671400.000,4256499.318,-10.125 
671400.000,4256299.318,-10.092 
671400.000,4256099.318,-10.007 
671400.000,4255899.318,-9.999 
671400.000,4255699.318,-9.94 
671400.000,4255499.318,-9.903 
671400.000,4255299.318,-9.86 
671400.000,4255099.318,-9.774 
671400.000,4254899.318,-9.667 
671400.000,4254699.318,-9.608 
671400.000,4254499.318,-9.606 
671400.000,4254299.318,-9.613 
671400.000,4254099.318,-9.574 
671400.000,4253899.318,-9.572 
671400.000,4253699.318,-9.569 
671400.000,4253499.318,-9.578 
671400.000,4253299.318,-9.555 
671400.000,4253099.318,-9.574 
671400.000,4252899.318,-9.583 
671400.000,4252699.318,-9.594 
671400.000,4252499.318,-9.604 
671400.000,4252299.318,-9.633 
671400.000,4252099.318,-9.624 
671400.000,4251899.318,-9.66 
671400.000,4251699.318,-9.707 
671400.000,4251499.318,-9.764 
671400.000,4251299.318,-9.796 
671400.000,4251099.318,-9.818 
671400.000,4250899.318,-9.905 
671400.000,4250699.318,-9.851 
671400.000,4250499.318,-9.885 
671400.000,4250299.318,-9.887 
671400.000,4250099.318,-9.925 
671400.000,4249899.318,-9.898 
671400.000,4249699.318,-9.882 
671400.000,4249499.318,-9.946 
671400.000,4249299.318,-10.028 
671400.000,4249099.318,-10.084 
671400.000,4248899.318,-10.104 
671400.000,4248699.318,-10.126 
671400.000,4248499.318,-10.222 
671400.000,4248299.318,-10.257 
671400.000,4248099.318,-10.36 
671400.000,4247899.318,-10.492 
671400.000,4247699.318,-10.601 
671400.000,4247499.318,-10.734 
671400.000,4247299.318,-10.822 
671400.000,4247099.318,-10.946 
671400.000,4246899.318,-11.062 
671400.000,4246699.318,-11.164 
671400.000,4246499.318,-11.264 
671400.000,4246299.318,-11.448 
671400.000,4246099.318,-11.597 
671400.000,4245899.318,-11.655 
671400.000,4245699.318,-11.672 
671600.000,4281299.318,-11.404 
671600.000,4281099.318,-11.496 
671600.000,4280899.318,-11.462 
671600.000,4280699.318,-11.514 
671600.000,4280499.318,-11.527 
671600.000,4280299.318,-11.54 
671600.000,4280099.318,-11.576 
671600.000,4279899.318,-11.594 
671600.000,4279699.318,-11.66 
671600.000,4279499.318,-11.673 
671600.000,4279299.318,-11.729 
671600.000,4279099.318,-11.804 
671600.000,4278899.318,-11.841 
671600.000,4278699.318,-11.842 
671600.000,4278499.318,-12.014 
671600.000,4278299.318,-12.204 
671600.000,4278099.318,-12.426 
671600.000,4277899.318,-12.497 
671600.000,4277699.318,-12.578 
671600.000,4277499.318,-12.732 
671600.000,4277299.318,-13.231 
671600.000,4277099.318,-13.479 
671600.000,4276899.318,-13.577 
671600.000,4276699.318,-13.609 
671600.000,4276499.318,-13.64 
671600.000,4276299.318,-13.772 
671600.000,4276099.318,-13.849 
671600.000,4275899.318,-13.925 
671600.000,4275699.318,-14.033 
671600.000,4275499.318,-14.086 
671600.000,4275299.318,-14.096 
671600.000,4275099.318,-14.148 
671600.000,4274899.318,-13.703 
671600.000,4274699.318,-12.941 
671600.000,4274499.318,-12.591 
671600.000,4274299.318,-12.407 
671600.000,4274099.318,-12.425 
671600.000,4273899.318,-12.48 
671600.000,4273699.318,-12.539 
671600.000,4273499.318,-12.574 
671600.000,4273299.318,-12.564 
671600.000,4273099.318,-12.539 
671600.000,4272899.318,-12.529 
671600.000,4272699.318,-12.512 
671600.000,4272499.318,-12.505 
671600.000,4272299.318,-12.481 
671600.000,4272099.318,-12.484 
671600.000,4271899.318,-12.481 
671600.000,4271699.318,-12.466 
671600.000,4271499.318,-12.472 
671600.000,4271299.318,-12.451 
671600.000,4271099.318,-12.441 
671600.000,4270899.318,-12.437 
671600.000,4270699.318,-12.45 
671600.000,4270499.318,-12.442 
671600.000,4270299.318,-12.45 
671600.000,4270099.318,-12.412 
671600.000,4269899.318,-12.365 
671600.000,4269699.318,-12.329 
671600.000,4269499.318,-12.272 
671600.000,4269299.318,-12.222 
671600.000,4269099.318,-12.065 
671600.000,4268899.318,-11.904 
671600.000,4268699.318,-11.712 
671600.000,4268499.318,-11.55 
671600.000,4268299.318,-11.408 
671600.000,4268099.318,-11.234 
671600.000,4267899.318,-11.161 
671600.000,4267699.318,-11.021 
671600.000,4267499.318,-10.946 
671600.000,4267299.318,-10.871 
671600.000,4267099.318,-10.783 
671600.000,4266899.318,-11.008 
671600.000,4266699.318,-11.167 
671600.000,4266499.318,-11.364 
671600.000,4266299.318,-11.502 
671600.000,4266099.318,-11.59 
671600.000,4265899.318,-11.877 
671600.000,4265699.318,-11.911 
671600.000,4265499.318,-11.955 
671600.000,4265299.318,-12 
671600.000,4265099.318,-12.002 
671600.000,4264899.318,-12.007 
671600.000,4264699.318,-11.951 
671600.000,4264499.318,-11.856 
671600.000,4264299.318,-11.702 
671600.000,4264099.318,-11.578 
671600.000,4263899.318,-11.447 
671600.000,4263699.318,-11.395 
671600.000,4263499.318,-11.278 
671600.000,4263299.318,-11.19 
671600.000,4263099.318,-11.173 
671600.000,4262899.318,-11.135 
671600.000,4262699.318,-11.109 
671600.000,4262499.318,-11.094 
671600.000,4262299.318,-11.121 
671600.000,4262099.318,-11.102 
671600.000,4261899.318,-11.046 
671600.000,4261699.318,-11.059 
671600.000,4261499.318,-11.065 
671600.000,4261299.318,-11.01 
671600.000,4261099.318,-10.921 
671600.000,4260899.318,-10.898 
671600.000,4260699.318,-10.912 
671600.000,4260499.318,-10.898 
671600.000,4260299.318,-10.901 
671600.000,4260099.318,-10.913 
671600.000,4259899.318,-10.803 
671600.000,4259699.318,-10.765 
671600.000,4259499.318,-10.76 
671600.000,4259299.318,-10.742 
671600.000,4259099.318,-10.7 
671600.000,4258899.318,-10.673 
671600.000,4258699.318,-10.671 
671600.000,4258499.318,-10.645 
671600.000,4258299.318,-10.543 
671600.000,4258099.318,-10.491 
671600.000,4257899.318,-10.48 
671600.000,4257699.318,-10.401 
671600.000,4257499.318,-10.301 
671600.000,4257299.318,-10.288 
671600.000,4257099.318,-10.281 
671600.000,4256899.318,-10.236 
671600.000,4256699.318,-10.343 
671600.000,4256499.318,-10.438 
671600.000,4256299.318,-10.36 
671600.000,4256099.318,-10.315 
671600.000,4255899.318,-10.248 
671600.000,4255699.318,-10.176 
671600.000,4255499.318,-10.073 
671600.000,4255299.318,-10.003 
671600.000,4255099.318,-9.931 
671600.000,4254899.318,-9.875 
671600.000,4254699.318,-9.827 
671600.000,4254499.318,-9.838 
671600.000,4254299.318,-9.814 
671600.000,4254099.318,-9.816 
671600.000,4253899.318,-9.835 
671600.000,4253699.318,-9.829 
671600.000,4253499.318,-9.834 
671600.000,4253299.318,-9.821 
671600.000,4253099.318,-9.807 
671600.000,4252899.318,-9.809 
671600.000,4252699.318,-9.844 
671600.000,4252499.318,-9.839 
671600.000,4252299.318,-9.859 
671600.000,4252099.318,-9.869 
671600.000,4251899.318,-9.895 
671600.000,4251699.318,-9.953 
671600.000,4251499.318,-10.039 
671600.000,4251299.318,-10.057 
671600.000,4251099.318,-10.065 
671600.000,4250899.318,-10.075 
671600.000,4250699.318,-10.026 
671600.000,4250499.318,-10.089 
671600.000,4250299.318,-10.052 
671600.000,4250099.318,-10.059 
671600.000,4249899.318,-10.085 
671600.000,4249699.318,-10.157 
671600.000,4249499.318,-10.185 
671600.000,4249299.318,-10.19 
671600.000,4249099.318,-10.263 
671600.000,4248899.318,-10.306 
671600.000,4248699.318,-10.332 
671600.000,4248499.318,-10.419 
671600.000,4248299.318,-10.497 
671600.000,4248099.318,-10.564 
671600.000,4247899.318,-10.682 
671600.000,4247699.318,-10.76 
671600.000,4247499.318,-10.856 
671600.000,4247299.318,-11.005 
671600.000,4247099.318,-11.12 
671600.000,4246899.318,-11.286 
671600.000,4246699.318,-11.399 
671600.000,4246499.318,-11.504 
671600.000,4246299.318,-11.609 
671600.000,4246099.318,-11.705 
671600.000,4245899.318,-11.817 
671600.000,4245699.318,-11.881 
671800.000,4281299.318,-11.442 
671800.000,4281099.318,-11.484 
671800.000,4280899.318,-11.519 
671800.000,4280699.318,-11.548 
671800.000,4280499.318,-11.573 
671800.000,4280299.318,-11.61 
671800.000,4280099.318,-11.602 
671800.000,4279899.318,-11.659 
671800.000,4279699.318,-11.666 
671800.000,4279499.318,-11.716 
671800.000,4279299.318,-11.736 
671800.000,4279099.318,-11.808 
671800.000,4278899.318,-11.858 
671800.000,4278699.318,-11.916 
671800.000,4278499.318,-11.963 
671800.000,4278299.318,-12.028 
671800.000,4278099.318,-12.17 
671800.000,4277899.318,-12.316 
671800.000,4277699.318,-12.39 
671800.000,4277499.318,-12.584 
671800.000,4277299.318,-13.021 
671800.000,4277099.318,-13.428 
671800.000,4276899.318,-13.537 
671800.000,4276699.318,-13.621 
671800.000,4276499.318,-13.685 
671800.000,4276299.318,-13.759 
671800.000,4276099.318,-13.83 
671800.000,4275899.318,-13.892 
671800.000,4275699.318,-14.011 
671800.000,4275499.318,-14.07 
671800.000,4275299.318,-14.123 
671800.000,4275099.318,-14.147 
671800.000,4274899.318,-14.131 
671800.000,4274699.318,-13.402 
671800.000,4274499.318,-13.014 
671800.000,4274299.318,-12.657 
671800.000,4274099.318,-12.513 
671800.000,4273899.318,-12.517 
671800.000,4273699.318,-12.604 
671800.000,4273499.318,-12.6 
671800.000,4273299.318,-12.594 
671800.000,4273099.318,-12.566 
671800.000,4272899.318,-12.557 
671800.000,4272699.318,-12.548 
671800.000,4272499.318,-12.53 
671800.000,4272299.318,-12.504 
671800.000,4272099.318,-12.518 
671800.000,4271899.318,-12.498 
671800.000,4271699.318,-12.495 
671800.000,4271499.318,-12.465 
671800.000,4271299.318,-12.457 
671800.000,4271099.318,-12.445 
671800.000,4270899.318,-12.448 
671800.000,4270699.318,-12.467 
671800.000,4270499.318,-12.448 
671800.000,4270299.318,-12.468 
671800.000,4270099.318,-12.461 
671800.000,4269899.318,-12.468 
671800.000,4269699.318,-12.415 
671800.000,4269499.318,-12.342 
671800.000,4269299.318,-12.302 
671800.000,4269099.318,-12.268 
671800.000,4268899.318,-12.139 
671800.000,4268699.318,-11.974 
671800.000,4268499.318,-11.824 
671800.000,4268299.318,-11.695 
671800.000,4268099.318,-11.488 
671800.000,4267899.318,-11.328 
671800.000,4267699.318,-11.192 
671800.000,4267499.318,-11.032 
671800.000,4267299.318,-10.961 
671800.000,4267099.318,-10.958 
671800.000,4266899.318,-11.022 
671800.000,4266699.318,-11.229 
671800.000,4266499.318,-11.379 
671800.000,4266299.318,-11.515 
671800.000,4266099.318,-11.672 
671800.000,4265899.318,-11.932 
671800.000,4265699.318,-11.981 
671800.000,4265499.318,-12.012 
671800.000,4265299.318,-12.069 
671800.000,4265099.318,-12.118 
671800.000,4264899.318,-12.116 
671800.000,4264699.318,-12.123 
671800.000,4264499.318,-12.034 
671800.000,4264299.318,-11.912 
671800.000,4264099.318,-11.822 
671800.000,4263899.318,-11.725 
671800.000,4263699.318,-11.599 
671800.000,4263499.318,-11.514 
671800.000,4263299.318,-11.484 
671800.000,4263099.318,-11.429 
671800.000,4262899.318,-11.413 
671800.000,4262699.318,-11.394 
671800.000,4262499.318,-11.419 
671800.000,4262299.318,-11.401 
671800.000,4262099.318,-11.391 
671800.000,4261899.318,-11.38 
671800.000,4261699.318,-11.301 
671800.000,4261499.318,-11.306 
671800.000,4261299.318,-11.259 
671800.000,4261099.318,-11.21 
671800.000,4260899.318,-11.149 
671800.000,4260699.318,-11.113 
671800.000,4260499.318,-11.119 
671800.000,4260299.318,-11.161 
671800.000,4260099.318,-11.151 
671800.000,4259899.318,-11.071 
671800.000,4259699.318,-11.029 
671800.000,4259499.318,-10.974 
671800.000,4259299.318,-10.948 
671800.000,4259099.318,-10.934 
671800.000,4258899.318,-10.935 
671800.000,4258699.318,-10.863 
671800.000,4258499.318,-10.893 
671800.000,4258299.318,-10.855 
671800.000,4258099.318,-10.796 
671800.000,4257899.318,-10.751 
671800.000,4257699.318,-10.641 
671800.000,4257499.318,-10.584 
671800.000,4257299.318,-10.574 
671800.000,4257099.318,-10.58 
671800.000,4256899.318,-10.582 
671800.000,4256699.318,-10.632 
671800.000,4256499.318,-10.709 
671800.000,4256299.318,-10.628 
671800.000,4256099.318,-10.61 
671800.000,4255899.318,-10.532 
671800.000,4255699.318,-10.429 
671800.000,4255499.318,-10.282 
671800.000,4255299.318,-10.212 
671800.000,4255099.318,-10.172 
671800.000,4254899.318,-10.127 
671800.000,4254699.318,-10.09 
671800.000,4254499.318,-10.029 
671800.000,4254299.318,-10.034 
671800.000,4254099.318,-10.06 
671800.000,4253899.318,-10.064 
671800.000,4253699.318,-10.093 
671800.000,4253499.318,-10.124 
671800.000,4253299.318,-10.055 
671800.000,4253099.318,-10.081 
671800.000,4252899.318,-10.061 
671800.000,4252699.318,-10.079 
671800.000,4252499.318,-10.101 
671800.000,4252299.318,-10.132 
671800.000,4252099.318,-10.135 
671800.000,4251899.318,-10.238 
671800.000,4251699.318,-10.254 
671800.000,4251499.318,-10.29 
671800.000,4251299.318,-10.278 
671800.000,4251099.318,-10.3 
671800.000,4250899.318,-10.286 
671800.000,4250699.318,-10.3 
671800.000,4250499.318,-10.244 
671800.000,4250299.318,-10.25 
671800.000,4250099.318,-10.313 
671800.000,4249899.318,-10.321 
671800.000,4249699.318,-10.349 
671800.000,4249499.318,-10.424 
671800.000,4249299.318,-10.425 
671800.000,4249099.318,-10.415 
671800.000,4248899.318,-10.504 
671800.000,4248699.318,-10.567 
671800.000,4248499.318,-10.613 
671800.000,4248299.318,-10.677 
671800.000,4248099.318,-10.782 
671800.000,4247899.318,-10.848 
671800.000,4247699.318,-10.932 
671800.000,4247499.318,-11.073 
671800.000,4247299.318,-11.187 
671800.000,4247099.318,-11.292 
671800.000,4246899.318,-11.382 
671800.000,4246699.318,-11.527 
671800.000,4246499.318,-11.627 
671800.000,4246299.318,-11.707 
671800.000,4246099.318,-11.861 
671800.000,4245899.318,-11.999 
671800.000,4245699.318,-12.103 
672000.000,4281299.318,-11.398 
672000.000,4281099.318,-11.458 
672000.000,4280899.318,-11.494 
672000.000,4280699.318,-11.602 
672000.000,4280499.318,-11.621 
672000.000,4280299.318,-11.656 
672000.000,4280099.318,-11.663 
672000.000,4279899.318,-11.69 
672000.000,4279699.318,-11.717 
672000.000,4279499.318,-11.737 
672000.000,4279299.318,-11.757 
672000.000,4279099.318,-11.767 
672000.000,4278899.318,-11.865 
672000.000,4278699.318,-11.925 
672000.000,4278499.318,-12.041 
672000.000,4278299.318,-12.133 
672000.000,4278099.318,-12.486 
672000.000,4277899.318,-12.715 
672000.000,4277699.318,-12.728 
672000.000,4277499.318,-12.816 
672000.000,4277299.318,-13.112 
672000.000,4277099.318,-13.378 
672000.000,4276899.318,-13.532 
672000.000,4276699.318,-13.608 
672000.000,4276499.318,-13.715 
672000.000,4276299.318,-13.776 
672000.000,4276099.318,-13.816 
672000.000,4275899.318,-13.913 
672000.000,4275699.318,-13.984 
672000.000,4275499.318,-14.083 
672000.000,4275299.318,-14.105 
672000.000,4275099.318,-14.144 
672000.000,4274899.318,-14.132 
672000.000,4274699.318,-13.973 
672000.000,4274499.318,-13.18 
672000.000,4274299.318,-12.661 
672000.000,4274099.318,-12.56 
672000.000,4273899.318,-12.596 
672000.000,4273699.318,-12.618 
672000.000,4273499.318,-12.615 
672000.000,4273299.318,-12.602 
672000.000,4273099.318,-12.582 
672000.000,4272899.318,-12.587 
672000.000,4272699.318,-12.589 
672000.000,4272499.318,-12.555 
672000.000,4272299.318,-12.538 
672000.000,4272099.318,-12.536 
672000.000,4271899.318,-12.514 
672000.000,4271699.318,-12.504 
672000.000,4271499.318,-12.481 
672000.000,4271299.318,-12.459 
672000.000,4271099.318,-12.451 
672000.000,4270899.318,-12.443 
672000.000,4270699.318,-12.47 
672000.000,4270499.318,-12.477 
672000.000,4270299.318,-12.474 
672000.000,4270099.318,-12.498 
672000.000,4269899.318,-12.479 
672000.000,4269699.318,-12.491 
672000.000,4269499.318,-12.442 
672000.000,4269299.318,-12.4 
672000.000,4269099.318,-12.367 
672000.000,4268899.318,-12.353 
672000.000,4268699.318,-12.28 
672000.000,4268499.318,-12.145 
672000.000,4268299.318,-12.002 
672000.000,4268099.318,-11.736 
672000.000,4267899.318,-11.571 
672000.000,4267699.318,-11.303 
672000.000,4267499.318,-11.18 
672000.000,4267299.318,-10.955 
672000.000,4267099.318,-10.939 
672000.000,4266899.318,-11.014 
672000.000,4266699.318,-11.292 
672000.000,4266499.318,-11.477 
672000.000,4266299.318,-11.59 
672000.000,4266099.318,-11.71 
672000.000,4265899.318,-11.939 
672000.000,4265699.318,-12.038 
672000.000,4265499.318,-12.082 
672000.000,4265299.318,-12.091 
672000.000,4265099.318,-12.195 
672000.000,4264899.318,-12.203 
672000.000,4264699.318,-12.227 
672000.000,4264499.318,-12.192 
672000.000,4264299.318,-12.094 
672000.000,4264099.318,-12.034 
672000.000,4263899.318,-11.967 
672000.000,4263699.318,-11.899 
672000.000,4263499.318,-11.728 
672000.000,4263299.318,-11.744 
672000.000,4263099.318,-11.689 
672000.000,4262899.318,-11.639 
672000.000,4262699.318,-11.625 
672000.000,4262499.318,-11.64 
672000.000,4262299.318,-11.68 
672000.000,4262099.318,-11.603 
672000.000,4261899.318,-11.608 
672000.000,4261699.318,-11.535 
672000.000,4261499.318,-11.498 
672000.000,4261299.318,-11.476 
672000.000,4261099.318,-11.448 
672000.000,4260899.318,-11.491 
672000.000,4260699.318,-11.457 
672000.000,4260499.318,-11.378 
672000.000,4260299.318,-11.331 
672000.000,4260099.318,-11.332 
672000.000,4259899.318,-11.331 
672000.000,4259699.318,-11.3 
672000.000,4259499.318,-11.226 
672000.000,4259299.318,-11.193 
672000.000,4259099.318,-11.172 
672000.000,4258899.318,-11.178 
672000.000,4258699.318,-11.165 
672000.000,4258499.318,-11.148 
672000.000,4258299.318,-11.137 
672000.000,4258099.318,-11.071 
672000.000,4257899.318,-11.025 
672000.000,4257699.318,-10.894 
672000.000,4257499.318,-10.858 
672000.000,4257299.318,-10.924 
672000.000,4257099.318,-10.904 
672000.000,4256899.318,-10.978 
672000.000,4256699.318,-11.085 
672000.000,4256499.318,-10.969 
672000.000,4256299.318,-10.882 
672000.000,4256099.318,-10.791 
672000.000,4255899.318,-10.688 
672000.000,4255699.318,-10.649 
672000.000,4255499.318,-10.577 
672000.000,4255299.318,-10.449 
672000.000,4255099.318,-10.36 
672000.000,4254899.318,-10.316 
672000.000,4254699.318,-10.278 
672000.000,4254499.318,-10.283 
672000.000,4254299.318,-10.292 
672000.000,4254099.318,-10.321 
672000.000,4253899.318,-10.309 
672000.000,4253699.318,-10.308 
672000.000,4253499.318,-10.289 
672000.000,4253299.318,-10.307 
672000.000,4253099.318,-10.322 
672000.000,4252899.318,-10.379 
672000.000,4252699.318,-10.395 
672000.000,4252499.318,-10.407 
672000.000,4252299.318,-10.442 
672000.000,4252099.318,-10.494 
672000.000,4251899.318,-10.506 
672000.000,4251699.318,-10.561 
672000.000,4251499.318,-10.553 
672000.000,4251299.318,-10.558 
672000.000,4251099.318,-10.52 
672000.000,4250899.318,-10.443 
672000.000,4250699.318,-10.434 
672000.000,4250499.318,-10.482 
672000.000,4250299.318,-10.549 
672000.000,4250099.318,-10.578 
672000.000,4249899.318,-10.593 
672000.000,4249699.318,-10.629 
672000.000,4249499.318,-10.635 
672000.000,4249299.318,-10.677 
672000.000,4249099.318,-10.714 
672000.000,4248899.318,-10.748 
672000.000,4248699.318,-10.779 
672000.000,4248499.318,-10.827 
672000.000,4248299.318,-10.84 
672000.000,4248099.318,-10.951 
672000.000,4247899.318,-11.034 
672000.000,4247699.318,-11.126 
672000.000,4247499.318,-11.222 
672000.000,4247299.318,-11.337 
672000.000,4247099.318,-11.444 
672000.000,4246899.318,-11.57 
672000.000,4246699.318,-11.685 
672000.000,4246499.318,-11.767 
672000.000,4246299.318,-11.92 
672000.000,4246099.318,-12.027 
672000.000,4245899.318,-12.166 
672000.000,4245699.318,-12.295 
672200.000,4281299.318,-11.42 
672200.000,4281099.318,-11.492 
672200.000,4280899.318,-11.583 
672200.000,4280699.318,-11.682 
672200.000,4280499.318,-11.68 
672200.000,4280299.318,-11.702 
672200.000,4280099.318,-11.765 
672200.000,4279899.318,-11.769 
672200.000,4279699.318,-11.798 
672200.000,4279499.318,-11.786 
672200.000,4279299.318,-11.775 
672200.000,4279099.318,-11.802 
672200.000,4278899.318,-11.9 
672200.000,4278699.318,-12.013 
672200.000,4278499.318,-12.189 
672200.000,4278299.318,-12.579 
672200.000,4278099.318,-12.861 
672200.000,4277899.318,-13.003 
672200.000,4277699.318,-13.033 
672200.000,4277499.318,-13.154 
672200.000,4277299.318,-13.23 
672200.000,4277099.318,-13.407 
672200.000,4276899.318,-13.495 
672200.000,4276699.318,-13.607 
672200.000,4276499.318,-13.727 
672200.000,4276299.318,-13.788 
672200.000,4276099.318,-13.842 
672200.000,4275899.318,-13.869 
672200.000,4275699.318,-13.954 
672200.000,4275499.318,-14.047 
672200.000,4275299.318,-14.09 
672200.000,4275099.318,-14.139 
672200.000,4274899.318,-14.133 
672200.000,4274699.318,-14.121 
672200.000,4274499.318,-13.643 
672200.000,4274299.318,-12.794 
672200.000,4274099.318,-12.598 
672200.000,4273899.318,-12.578 
672200.000,4273699.318,-12.576 
672200.000,4273499.318,-12.594 
672200.000,4273299.318,-12.604 
672200.000,4273099.318,-12.626 
672200.000,4272899.318,-12.591 
672200.000,4272699.318,-12.577 
672200.000,4272499.318,-12.567 
672200.000,4272299.318,-12.569 
672200.000,4272099.318,-12.55 
672200.000,4271899.318,-12.516 
672200.000,4271699.318,-12.514 
672200.000,4271499.318,-12.483 
672200.000,4271299.318,-12.483 
672200.000,4271099.318,-12.468 
672200.000,4270899.318,-12.47 
672200.000,4270699.318,-12.474 
672200.000,4270499.318,-12.509 
672200.000,4270299.318,-12.501 
672200.000,4270099.318,-12.516 
672200.000,4269899.318,-12.524 
672200.000,4269699.318,-12.507 
672200.000,4269499.318,-12.492 
672200.000,4269299.318,-12.485 
672200.000,4269099.318,-12.461 
672200.000,4268899.318,-12.437 
672200.000,4268699.318,-12.398 
672200.000,4268499.318,-12.325 
672200.000,4268299.318,-12.184 
672200.000,4268099.318,-12.056 
672200.000,4267899.318,-11.848 
672200.000,4267699.318,-11.636 
672200.000,4267499.318,-11.346 
672200.000,4267299.318,-11.205 
672200.000,4267099.318,-11.074 
672200.000,4266899.318,-11.135 
672200.000,4266699.318,-11.341 
672200.000,4266499.318,-11.537 
672200.000,4266299.318,-11.651 
672200.000,4266099.318,-11.724 
672200.000,4265899.318,-11.84 
672200.000,4265699.318,-12.119 
672200.000,4265499.318,-12.115 
672200.000,4265299.318,-12.149 
672200.000,4265099.318,-12.212 
672200.000,4264899.318,-12.306 
672200.000,4264699.318,-12.299 
672200.000,4264499.318,-12.296 
672200.000,4264299.318,-12.255 
672200.000,4264099.318,-12.265 
672200.000,4263899.318,-12.154 
672200.000,4263699.318,-12.103 
672200.000,4263499.318,-12.062 
672200.000,4263299.318,-11.959 
672200.000,4263099.318,-11.91 
672200.000,4262899.318,-11.871 
672200.000,4262699.318,-11.89 
672200.000,4262499.318,-11.876 
672200.000,4262299.318,-11.944 
672200.000,4262099.318,-11.866 
672200.000,4261899.318,-11.819 
672200.000,4261699.318,-11.792 
672200.000,4261499.318,-11.763 
672200.000,4261299.318,-11.701 
672200.000,4261099.318,-11.688 
672200.000,4260899.318,-11.689 
672200.000,4260699.318,-11.725 
672200.000,4260499.318,-11.713 
672200.000,4260299.318,-11.63 
672200.000,4260099.318,-11.552 
672200.000,4259899.318,-11.476 
672200.000,4259699.318,-11.486 
672200.000,4259499.318,-11.482 
672200.000,4259299.318,-11.449 
672200.000,4259099.318,-11.471 
672200.000,4258899.318,-11.457 
672200.000,4258699.318,-11.419 
672200.000,4258499.318,-11.358 
672200.000,4258299.318,-11.344 
672200.000,4258099.318,-11.336 
672200.000,4257899.318,-11.296 
672200.000,4257699.318,-11.097 
672200.000,4257499.318,-11.077 
672200.000,4257299.318,-11.288 
672200.000,4257099.318,-11.312 
672200.000,4256899.318,-11.263 
672200.000,4256699.318,-11.305 
672200.000,4256499.318,-11.307 
672200.000,4256299.318,-11.119 
672200.000,4256099.318,-11.059 
672200.000,4255899.318,-10.944 
672200.000,4255699.318,-10.913 
672200.000,4255499.318,-10.808 
672200.000,4255299.318,-10.694 
672200.000,4255099.318,-10.574 
672200.000,4254899.318,-10.545 
672200.000,4254699.318,-10.524 
672200.000,4254499.318,-10.544 
672200.000,4254299.318,-10.585 
672200.000,4254099.318,-10.607 
672200.000,4253899.318,-10.614 
672200.000,4253699.318,-10.603 
672200.000,4253499.318,-10.618 
