639275.000,4253974.318,-0.699 
639275.000,4253924.318,-0.706 
639275.000,4253874.318,-0.71 
639275.000,4253824.318,-0.714 
639275.000,4253774.318,-0.718 
639275.000,4253724.318,-0.721 
639275.000,4253674.318,-0.725 
639275.000,4253624.318,-0.729 
639275.000,4253574.318,-0.734 
639275.000,4253524.318,-0.739 
639275.000,4253474.318,-0.742 
639275.000,4253424.318,-0.747 
639275.000,4253374.318,-0.752 
639275.000,4253324.318,-0.757 
639275.000,4253274.318,-0.761 
639275.000,4253224.318,-0.767 
639275.000,4253174.318,-0.775 
639275.000,4253124.318,-0.783 
639275.000,4253074.318,-0.793 
639275.000,4253024.318,-0.798 
639275.000,4252974.318,-0.803 
639275.000,4252924.318,-0.808 
639275.000,4252874.318,-0.812 
639275.000,4252824.318,-0.816 
639275.000,4252774.318,-0.819 
639275.000,4252724.318,-0.823 
639275.000,4252674.318,-0.826 
639275.000,4252624.318,-0.831 
639275.000,4252574.318,-0.836 
639275.000,4252524.318,-0.843 
639275.000,4252474.318,-0.852 
639275.000,4252424.318,-0.86 
639275.000,4252374.318,-0.87 
639275.000,4252324.318,-0.874 
639275.000,4252274.318,-0.879 
639275.000,4252224.318,-0.883 
639275.000,4252174.318,-0.889 
639275.000,4252124.318,-0.892 
639275.000,4252074.318,-0.898 
639275.000,4252024.318,-0.902 
639275.000,4251974.318,-0.906 
639275.000,4251924.318,-0.908 
639275.000,4251874.318,-0.91 
639275.000,4251824.318,-0.913 
639275.000,4251774.318,-0.917 
639275.000,4251724.318,-0.921 
639275.000,4251674.318,-0.925 
639275.000,4251624.318,-0.929 
639275.000,4251574.318,-0.933 
639275.000,4251524.318,-0.937 
639275.000,4251474.318,-0.941 
639275.000,4251424.318,-0.944 
639275.000,4251374.318,-0.947 
639275.000,4251324.318,-0.946 
639275.000,4251274.318,-0.947 
639275.000,4251224.318,-0.948 
639275.000,4251174.318,-0.95 
639275.000,4251124.318,-0.951 
639275.000,4251074.318,-0.953 
639275.000,4251024.318,-0.953 
639275.000,4250974.318,-0.954 
639275.000,4250924.318,-0.954 
639275.000,4250874.318,-0.957 
639275.000,4250824.318,-0.957 
639275.000,4250774.318,-0.959 
639275.000,4250724.318,-0.962 
639275.000,4250674.318,-0.964 
639275.000,4250624.318,-0.967 
639275.000,4250574.318,-0.968 
639275.000,4250524.318,-0.969 
639275.000,4250474.318,-0.969 
639275.000,4250424.318,-0.97 
639275.000,4250374.318,-0.974 
639275.000,4250324.318,-0.977 
639275.000,4250274.318,-0.979 
639275.000,4250224.318,-0.98 
639275.000,4250174.318,-0.982 
639275.000,4250124.318,-0.985 
639275.000,4250074.318,-0.988 
639275.000,4250024.318,-0.989 
639275.000,4249974.318,-0.992 
639275.000,4249924.318,-0.995 
639275.000,4249874.318,-0.998 
639275.000,4249824.318,-1.001 
639275.000,4249774.318,-1.005 
639275.000,4249724.318,-1.008 
639275.000,4249674.318,-1.01 
639275.000,4249624.318,-1.01 
639275.000,4249574.318,-1.013 
639275.000,4249524.318,-1.015 
639275.000,4249474.318,-1.02 
639275.000,4249424.318,-1.024 
639275.000,4249374.318,-1.028 
639275.000,4249324.318,-1.032 
639275.000,4249274.318,-1.035 
639275.000,4249224.318,-1.039 
639275.000,4249174.318,-1.042 
639275.000,4249124.318,-1.047 
639275.000,4249074.318,-1.053 
639275.000,4249024.318,-1.061 
639275.000,4248974.318,-1.071 
639275.000,4248924.318,-1.088 
639275.000,4248874.318,-1.116 
639275.000,4248824.318,-1.115 
639275.000,4248774.318,-1.119 
639275.000,4248724.318,-1.124 
639275.000,4248674.318,-1.131 
639275.000,4248624.318,-1.141 
639275.000,4248574.318,-1.158 
639275.000,4248524.318,-1.225 
639275.000,4248474.318,-1.344 
639275.000,4248424.318,-1.445 
639275.000,4248374.318,-1.495 
639275.000,4248324.318,-1.525 
639275.000,4248274.318,-1.54 
639275.000,4248224.318,-1.552 
639275.000,4248174.318,-1.561 
639275.000,4248124.318,-1.567 
639275.000,4248074.318,-1.582 
639275.000,4248024.318,-1.595 
639275.000,4247974.318,-1.609 
639275.000,4247924.318,-1.638 
639275.000,4247874.318,-1.647 
639275.000,4247824.318,-1.662 
639275.000,4247774.318,-1.698 
639275.000,4247724.318,-1.688 
639275.000,4247674.318,-1.707 
639275.000,4247624.318,-1.728 
639275.000,4247574.318,-1.75 
639275.000,4247524.318,-1.772 
639275.000,4247474.318,-1.795 
639325.000,4274724.318,-1.73 
639325.000,4274674.318,-1.545 
639325.000,4274624.318,-1.339 
639325.000,4274574.318,-1.187 
639325.000,4274524.318,-1.025 
639325.000,4274474.318,-0.9 
639325.000,4274424.318,-0.855 
639325.000,4274374.318,-0.826 
639325.000,4274324.318,-0.806 
639325.000,4274274.318,-0.789 
639325.000,4274224.318,-0.777 
639325.000,4274174.318,-0.767 
639325.000,4274124.318,-0.759 
639325.000,4274074.318,-0.749 
639325.000,4274024.318,-0.741 
639325.000,4273974.318,-0.733 
639325.000,4273924.318,-0.724 
639325.000,4273874.318,-0.717 
639325.000,4273824.318,-0.707 
639325.000,4273774.318,-0.7 
639325.000,4273724.318,-0.694 
639325.000,4273674.318,-0.687 
639325.000,4273624.318,-0.68 
639325.000,4273574.318,-0.674 
639325.000,4273524.318,-0.66 
639325.000,4267674.318,-0.316 
639325.000,4267624.318,-0.318 
639325.000,4267574.318,-0.32 
639325.000,4267524.318,-0.32 
639325.000,4267474.318,-0.321 
639325.000,4267424.318,-0.321 
639325.000,4267374.318,-0.319 
639325.000,4267324.318,-0.316 
639325.000,4267274.318,-0.315 
639325.000,4267224.318,-0.317 
639325.000,4267174.318,-0.325 
639325.000,4267124.318,-0.324 
639325.000,4267074.318,-0.312 
639325.000,4267024.318,-0.323 
639325.000,4266974.318,-0.323 
639325.000,4266924.318,-0.321 
639325.000,4266874.318,-0.321 
639325.000,4266824.318,-0.324 
639325.000,4266774.318,-0.306 
639325.000,4266724.318,-0.305 
639325.000,4266674.318,-0.324 
639325.000,4266624.318,-0.324 
639325.000,4266574.318,-0.323 
639325.000,4266524.318,-0.326 
639325.000,4266474.318,-0.331 
639325.000,4266424.318,-0.339 
639325.000,4254074.318,-0.705 
639325.000,4254024.318,-0.71 
639325.000,4253974.318,-0.716 
639325.000,4253924.318,-0.72 
639325.000,4253874.318,-0.723 
639325.000,4253824.318,-0.726 
639325.000,4253774.318,-0.729 
639325.000,4253724.318,-0.73 
639325.000,4253674.318,-0.736 
639325.000,4253624.318,-0.742 
639325.000,4253574.318,-0.746 
639325.000,4253524.318,-0.752 
639325.000,4253474.318,-0.756 
639325.000,4253424.318,-0.76 
639325.000,4253374.318,-0.764 
639325.000,4253324.318,-0.769 
639325.000,4253274.318,-0.774 
639325.000,4253224.318,-0.782 
639325.000,4253174.318,-0.792 
639325.000,4253124.318,-0.798 
639325.000,4253074.318,-0.803 
639325.000,4253024.318,-0.807 
639325.000,4252974.318,-0.811 
639325.000,4252924.318,-0.817 
639325.000,4252874.318,-0.822 
639325.000,4252824.318,-0.826 
639325.000,4252774.318,-0.829 
639325.000,4252724.318,-0.834 
639325.000,4252674.318,-0.837 
639325.000,4252624.318,-0.845 
639325.000,4252574.318,-0.851 
639325.000,4252524.318,-0.858 
639325.000,4252474.318,-0.866 
639325.000,4252424.318,-0.874 
639325.000,4252374.318,-0.88 
639325.000,4252324.318,-0.883 
639325.000,4252274.318,-0.888 
639325.000,4252224.318,-0.892 
639325.000,4252174.318,-0.895 
639325.000,4252124.318,-0.901 
639325.000,4252074.318,-0.905 
639325.000,4252024.318,-0.907 
639325.000,4251974.318,-0.91 
639325.000,4251924.318,-0.913 
639325.000,4251874.318,-0.916 
639325.000,4251824.318,-0.92 
639325.000,4251774.318,-0.923 
639325.000,4251724.318,-0.927 
639325.000,4251674.318,-0.932 
639325.000,4251624.318,-0.936 
639325.000,4251574.318,-0.939 
639325.000,4251524.318,-0.942 
639325.000,4251474.318,-0.946 
639325.000,4251424.318,-0.947 
639325.000,4251374.318,-0.947 
639325.000,4251324.318,-0.948 
639325.000,4251274.318,-0.949 
639325.000,4251224.318,-0.951 
639325.000,4251174.318,-0.952 
639325.000,4251124.318,-0.953 
639325.000,4251074.318,-0.954 
639325.000,4251024.318,-0.955 
639325.000,4250974.318,-0.955 
639325.000,4250924.318,-0.957 
639325.000,4250874.318,-0.959 
639325.000,4250824.318,-0.961 
639325.000,4250774.318,-0.963 
639325.000,4250724.318,-0.965 
639325.000,4250674.318,-0.968 
639325.000,4250624.318,-0.968 
639325.000,4250574.318,-0.969 
639325.000,4250524.318,-0.97 
639325.000,4250474.318,-0.972 
639325.000,4250424.318,-0.976 
639325.000,4250374.318,-0.978 
639325.000,4250324.318,-0.979 
639325.000,4250274.318,-0.981 
639325.000,4250224.318,-0.982 
639325.000,4250174.318,-0.985 
639325.000,4250124.318,-0.988 
639325.000,4250074.318,-0.991 
639325.000,4250024.318,-0.993 
639325.000,4249974.318,-0.995 
639325.000,4249924.318,-0.997 
639325.000,4249874.318,-1.001 
639325.000,4249824.318,-1.004 
639325.000,4249774.318,-1.006 
639325.000,4249724.318,-1.009 
639325.000,4249674.318,-1.011 
639325.000,4249624.318,-1.012 
639325.000,4249574.318,-1.014 
639325.000,4249524.318,-1.018 
639325.000,4249474.318,-1.023 
639325.000,4249424.318,-1.026 
639325.000,4249374.318,-1.03 
639325.000,4249324.318,-1.034 
639325.000,4249274.318,-1.039 
639325.000,4249224.318,-1.042 
639325.000,4249174.318,-1.046 
639325.000,4249124.318,-1.051 
639325.000,4249074.318,-1.06 
639325.000,4249024.318,-1.069 
639325.000,4248974.318,-1.079 
639325.000,4248924.318,-1.109 
639325.000,4248874.318,-1.114 
639325.000,4248824.318,-1.112 
639325.000,4248774.318,-1.124 
639325.000,4248724.318,-1.132 
639325.000,4248674.318,-1.143 
639325.000,4248624.318,-1.16 
639325.000,4248574.318,-1.222 
639325.000,4248524.318,-1.344 
639325.000,4248474.318,-1.446 
639325.000,4248424.318,-1.479 
639325.000,4248374.318,-1.515 
639325.000,4248324.318,-1.536 
639325.000,4248274.318,-1.545 
639325.000,4248224.318,-1.558 
639325.000,4248174.318,-1.569 
639325.000,4248124.318,-1.582 
639325.000,4248074.318,-1.595 
639325.000,4248024.318,-1.61 
639325.000,4247974.318,-1.628 
639325.000,4247924.318,-1.638 
639325.000,4247874.318,-1.681 
639325.000,4247824.318,-1.697 
639325.000,4247774.318,-1.745 
639325.000,4247724.318,-1.703 
639325.000,4247674.318,-1.722 
639325.000,4247624.318,-1.742 
639325.000,4247574.318,-1.765 
639325.000,4247524.318,-1.784 
639375.000,4274724.318,-1.769 
639375.000,4274674.318,-1.567 
639375.000,4274624.318,-1.359 
639375.000,4274574.318,-1.195 
639375.000,4274524.318,-1.028 
639375.000,4274474.318,-0.919 
639375.000,4274424.318,-0.864 
639375.000,4274374.318,-0.835 
639375.000,4274324.318,-0.812 
639375.000,4274274.318,-0.795 
639375.000,4274224.318,-0.784 
639375.000,4274174.318,-0.774 
639375.000,4274124.318,-0.765 
639375.000,4274074.318,-0.759 
639375.000,4274024.318,-0.747 
639375.000,4273974.318,-0.74 
639375.000,4273924.318,-0.732 
639375.000,4273874.318,-0.723 
639375.000,4273824.318,-0.716 
639375.000,4273774.318,-0.71 
639375.000,4273724.318,-0.701 
639375.000,4273674.318,-0.694 
639375.000,4273624.318,-0.687 
639375.000,4273574.318,-0.686 
639375.000,4267524.318,-0.322 
639375.000,4267474.318,-0.325 
639375.000,4267424.318,-0.327 
639375.000,4267374.318,-0.326 
639375.000,4267324.318,-0.326 
639375.000,4267274.318,-0.326 
639375.000,4267224.318,-0.33 
639375.000,4267174.318,-0.33 
639375.000,4267124.318,-0.338 
639375.000,4267074.318,-0.334 
639375.000,4267024.318,-0.327 
639375.000,4266974.318,-0.326 
639375.000,4266924.318,-0.326 
639375.000,4266874.318,-0.326 
639375.000,4266824.318,-0.331 
639375.000,4266774.318,-0.335 
639375.000,4266724.318,-0.341 
639375.000,4266674.318,-0.331 
639375.000,4266624.318,-0.33 
639375.000,4266574.318,-0.332 
639375.000,4266524.318,-0.336 
639375.000,4266474.318,-0.343 
639375.000,4266424.318,-0.35 
639375.000,4266374.318,-0.345 
639375.000,4266324.318,-0.343 
639375.000,4266274.318,-0.342 
639375.000,4266224.318,-0.341 
639375.000,4266174.318,-0.342 
639375.000,4266124.318,-0.344 
639375.000,4266074.318,-0.345 
639375.000,4266024.318,-0.344 
639375.000,4254174.318,-0.715 
639375.000,4254124.318,-0.715 
639375.000,4254074.318,-0.718 
639375.000,4254024.318,-0.724 
639375.000,4253974.318,-0.728 
639375.000,4253924.318,-0.73 
639375.000,4253874.318,-0.734 
639375.000,4253824.318,-0.736 
639375.000,4253774.318,-0.739 
639375.000,4253724.318,-0.742 
639375.000,4253674.318,-0.747 
639375.000,4253624.318,-0.753 
639375.000,4253574.318,-0.76 
639375.000,4253524.318,-0.764 
639375.000,4253474.318,-0.768 
639375.000,4253424.318,-0.771 
639375.000,4253374.318,-0.775 
639375.000,4253324.318,-0.78 
639375.000,4253274.318,-0.79 
639375.000,4253224.318,-0.801 
639375.000,4253174.318,-0.804 
639375.000,4253124.318,-0.808 
639375.000,4253074.318,-0.813 
639375.000,4253024.318,-0.817 
639375.000,4252974.318,-0.821 
639375.000,4252924.318,-0.826 
639375.000,4252874.318,-0.831 
639375.000,4252824.318,-0.836 
639375.000,4252774.318,-0.842 
639375.000,4252724.318,-0.847 
639375.000,4252674.318,-0.853 
639375.000,4252624.318,-0.858 
639375.000,4252574.318,-0.863 
639375.000,4252524.318,-0.87 
639375.000,4252474.318,-0.874 
639375.000,4252424.318,-0.88 
639375.000,4252374.318,-0.887 
639375.000,4252324.318,-0.89 
639375.000,4252274.318,-0.893 
639375.000,4252224.318,-0.9 
639375.000,4252174.318,-0.903 
639375.000,4252124.318,-0.907 
639375.000,4252074.318,-0.909 
639375.000,4252024.318,-0.912 
639375.000,4251974.318,-0.916 
639375.000,4251924.318,-0.919 
639375.000,4251874.318,-0.922 
639375.000,4251824.318,-0.926 
639375.000,4251774.318,-0.929 
639375.000,4251724.318,-0.933 
639375.000,4251674.318,-0.938 
639375.000,4251624.318,-0.942 
639375.000,4251574.318,-0.945 
639375.000,4251524.318,-0.948 
639375.000,4251474.318,-0.949 
639375.000,4251424.318,-0.949 
639375.000,4251374.318,-0.949 
639375.000,4251324.318,-0.95 
639375.000,4251274.318,-0.952 
639375.000,4251224.318,-0.953 
639375.000,4251174.318,-0.953 
639375.000,4251124.318,-0.954 
639375.000,4251074.318,-0.955 
639375.000,4251024.318,-0.956 
639375.000,4250974.318,-0.958 
639375.000,4250924.318,-0.959 
639375.000,4250874.318,-0.962 
639375.000,4250824.318,-0.964 
639375.000,4250774.318,-0.967 
639375.000,4250724.318,-0.969 
639375.000,4250674.318,-0.969 
639375.000,4250624.318,-0.969 
639375.000,4250574.318,-0.97 
639375.000,4250524.318,-0.974 
639375.000,4250474.318,-0.977 
639375.000,4250424.318,-0.979 
639375.000,4250374.318,-0.98 
639375.000,4250324.318,-0.981 
639375.000,4250274.318,-0.983 
639375.000,4250224.318,-0.986 
639375.000,4250174.318,-0.988 
639375.000,4250124.318,-0.991 
639375.000,4250074.318,-0.994 
639375.000,4250024.318,-0.996 
639375.000,4249974.318,-0.998 
639375.000,4249924.318,-1 
639375.000,4249874.318,-1.003 
639375.000,4249824.318,-1.006 
639375.000,4249774.318,-1.008 
639375.000,4249724.318,-1.01 
639375.000,4249674.318,-1.012 
639375.000,4249624.318,-1.014 
639375.000,4249574.318,-1.016 
639375.000,4249524.318,-1.02 
639375.000,4249474.318,-1.024 
639375.000,4249424.318,-1.028 
639375.000,4249374.318,-1.032 
639375.000,4249324.318,-1.036 
639375.000,4249274.318,-1.042 
639375.000,4249224.318,-1.046 
639375.000,4249174.318,-1.052 
639375.000,4249124.318,-1.058 
639375.000,4249074.318,-1.068 
639375.000,4249024.318,-1.08 
639375.000,4248974.318,-1.114 
639375.000,4248924.318,-1.107 
639375.000,4248874.318,-1.113 
639375.000,4248824.318,-1.128 
639375.000,4248774.318,-1.134 
639375.000,4248724.318,-1.142 
639375.000,4248674.318,-1.159 
639375.000,4248624.318,-1.219 
639375.000,4248574.318,-1.334 
639375.000,4248524.318,-1.432 
639375.000,4248474.318,-1.488 
639375.000,4248424.318,-1.512 
639375.000,4248374.318,-1.528 
639375.000,4248324.318,-1.543 
639375.000,4248274.318,-1.553 
639375.000,4248224.318,-1.569 
639375.000,4248174.318,-1.595 
639375.000,4248124.318,-1.597 
639375.000,4248074.318,-1.611 
639375.000,4248024.318,-1.624 
639375.000,4247974.318,-1.647 
639375.000,4247924.318,-1.668 
639375.000,4247874.318,-1.711 
639375.000,4247824.318,-1.704 
639375.000,4247774.318,-1.738 
639375.000,4247724.318,-1.718 
639375.000,4247674.318,-1.738 
639375.000,4247624.318,-1.759 
639375.000,4247574.318,-1.778 
639375.000,4247524.318,-1.792 
639425.000,4274824.318,-1.779 
639425.000,4274774.318,-1.581 
639425.000,4274724.318,-1.567 
639425.000,4274674.318,-1.409 
639425.000,4274624.318,-1.202 
639425.000,4274574.318,-1.089 
639425.000,4274524.318,-0.992 
639425.000,4274474.318,-0.906 
639425.000,4274424.318,-0.865 
639425.000,4274374.318,-0.838 
639425.000,4274324.318,-0.817 
639425.000,4274274.318,-0.8 
639425.000,4274224.318,-0.788 
639425.000,4274174.318,-0.778 
639425.000,4274124.318,-0.772 
639425.000,4274074.318,-0.759 
639425.000,4274024.318,-0.754 
639425.000,4273974.318,-0.744 
639425.000,4273924.318,-0.736 
639425.000,4273874.318,-0.73 
639425.000,4273824.318,-0.725 
639425.000,4273774.318,-0.719 
639425.000,4273724.318,-0.712 
639425.000,4273674.318,-0.705 
639425.000,4273624.318,-0.689 
639425.000,4273574.318,-0.688 
639425.000,4267274.318,-0.343 
639425.000,4267224.318,-0.349 
639425.000,4267174.318,-0.347 
639425.000,4267124.318,-0.343 
639425.000,4267074.318,-0.334 
639425.000,4267024.318,-0.339 
639425.000,4266974.318,-0.342 
639425.000,4266924.318,-0.347 
639425.000,4266874.318,-0.35 
639425.000,4266824.318,-0.357 
639425.000,4266774.318,-0.348 
639425.000,4266724.318,-0.36 
639425.000,4266674.318,-0.363 
639425.000,4266624.318,-0.346 
639425.000,4266574.318,-0.354 
639425.000,4266524.318,-0.361 
639425.000,4266474.318,-0.36 
639425.000,4266424.318,-0.358 
639425.000,4266374.318,-0.353 
639425.000,4266324.318,-0.351 
639425.000,4266274.318,-0.35 
639425.000,4266224.318,-0.351 
639425.000,4266174.318,-0.35 
639425.000,4266124.318,-0.35 
639425.000,4266074.318,-0.35 
639425.000,4266024.318,-0.35 
639425.000,4265974.318,-0.351 
639425.000,4265924.318,-0.351 
639425.000,4265874.318,-0.35 
639425.000,4265824.318,-0.352 
639425.000,4265774.318,-0.351 
639425.000,4265724.318,-0.354 
639425.000,4265674.318,-0.356 
639425.000,4265624.318,-0.357 
639425.000,4254274.318,-0.719 
639425.000,4254224.318,-0.718 
639425.000,4254174.318,-0.724 
639425.000,4254124.318,-0.727 
639425.000,4254074.318,-0.732 
639425.000,4254024.318,-0.736 
639425.000,4253974.318,-0.738 
639425.000,4253924.318,-0.74 
639425.000,4253874.318,-0.743 
639425.000,4253824.318,-0.746 
639425.000,4253774.318,-0.75 
639425.000,4253724.318,-0.754 
639425.000,4253674.318,-0.76 
639425.000,4253624.318,-0.765 
639425.000,4253574.318,-0.771 
639425.000,4253524.318,-0.773 
639425.000,4253474.318,-0.78 
639425.000,4253424.318,-0.782 
639425.000,4253374.318,-0.789 
639425.000,4253324.318,-0.798 
639425.000,4253274.318,-0.805 
639425.000,4253224.318,-0.811 
639425.000,4253174.318,-0.815 
639425.000,4253124.318,-0.82 
639425.000,4253074.318,-0.822 
639425.000,4253024.318,-0.824 
639425.000,4252974.318,-0.83 
639425.000,4252924.318,-0.834 
639425.000,4252874.318,-0.841 
639425.000,4252824.318,-0.847 
639425.000,4252774.318,-0.853 
639425.000,4252724.318,-0.859 
639425.000,4252674.318,-0.864 
639425.000,4252624.318,-0.868 
639425.000,4252574.318,-0.873 
639425.000,4252524.318,-0.877 
639425.000,4252474.318,-0.885 
639425.000,4252424.318,-0.888 
639425.000,4252374.318,-0.892 
639425.000,4252324.318,-0.897 
639425.000,4252274.318,-0.902 
639425.000,4252224.318,-0.906 
639425.000,4252174.318,-0.909 
639425.000,4252124.318,-0.912 
639425.000,4252074.318,-0.914 
639425.000,4252024.318,-0.918 
639425.000,4251974.318,-0.922 
639425.000,4251924.318,-0.925 
639425.000,4251874.318,-0.928 
639425.000,4251824.318,-0.932 
639425.000,4251774.318,-0.936 
639425.000,4251724.318,-0.939 
639425.000,4251674.318,-0.944 
639425.000,4251624.318,-0.947 
639425.000,4251574.318,-0.95 
639425.000,4251524.318,-0.95 
639425.000,4251474.318,-0.95 
639425.000,4251424.318,-0.951 
639425.000,4251374.318,-0.952 
639425.000,4251324.318,-0.952 
639425.000,4251274.318,-0.953 
639425.000,4251224.318,-0.954 
639425.000,4251174.318,-0.955 
639425.000,4251124.318,-0.956 
639425.000,4251074.318,-0.956 
639425.000,4251024.318,-0.958 
639425.000,4250974.318,-0.96 
639425.000,4250924.318,-0.963 
639425.000,4250874.318,-0.966 
639425.000,4250824.318,-0.968 
639425.000,4250774.318,-0.969 
639425.000,4250724.318,-0.969 
639425.000,4250674.318,-0.97 
639425.000,4250624.318,-0.973 
639425.000,4250574.318,-0.975 
639425.000,4250524.318,-0.978 
639425.000,4250474.318,-0.98 
639425.000,4250424.318,-0.981 
639425.000,4250374.318,-0.982 
639425.000,4250324.318,-0.984 
639425.000,4250274.318,-0.986 
639425.000,4250224.318,-0.989 
639425.000,4250174.318,-0.991 
639425.000,4250124.318,-0.994 
639425.000,4250074.318,-0.998 
639425.000,4250024.318,-0.999 
639425.000,4249974.318,-1.001 
639425.000,4249924.318,-1.002 
639425.000,4249874.318,-1.005 
639425.000,4249824.318,-1.007 
639425.000,4249774.318,-1.01 
639425.000,4249724.318,-1.012 
639425.000,4249674.318,-1.014 
639425.000,4249624.318,-1.016 
639425.000,4249574.318,-1.019 
639425.000,4249524.318,-1.022 
639425.000,4249474.318,-1.025 
639425.000,4249424.318,-1.03 
639425.000,4249374.318,-1.035 
639425.000,4249324.318,-1.04 
639425.000,4249274.318,-1.045 
639425.000,4249224.318,-1.052 
639425.000,4249174.318,-1.059 
639425.000,4249124.318,-1.068 
639425.000,4249074.318,-1.076 
639425.000,4249024.318,-1.108 
639425.000,4248974.318,-1.112 
639425.000,4248924.318,-1.117 
639425.000,4248874.318,-1.122 
639425.000,4248824.318,-1.132 
639425.000,4248774.318,-1.145 
639425.000,4248724.318,-1.156 
639425.000,4248674.318,-1.216 
639425.000,4248624.318,-1.331 
639425.000,4248574.318,-1.427 
639425.000,4248524.318,-1.476 
639425.000,4248474.318,-1.503 
639425.000,4248424.318,-1.524 
639425.000,4248374.318,-1.536 
639425.000,4248324.318,-1.549 
639425.000,4248274.318,-1.567 
639425.000,4248224.318,-1.584 
639425.000,4248174.318,-1.656 
639425.000,4248124.318,-1.609 
639425.000,4248074.318,-1.626 
639425.000,4248024.318,-1.641 
639425.000,4247974.318,-1.675 
639425.000,4247924.318,-1.686 
639425.000,4247874.318,-1.693 
639425.000,4247824.318,-1.705 
639425.000,4247774.318,-1.719 
639425.000,4247724.318,-1.736 
639425.000,4247674.318,-1.755 
639425.000,4247624.318,-1.775 
639425.000,4247574.318,-1.796 
639475.000,4274824.318,-1.785 
639475.000,4274774.318,-1.561 
639475.000,4274724.318,-1.437 
639475.000,4274674.318,-1.24 
639475.000,4274624.318,-1.095 
639475.000,4274574.318,-0.977 
639475.000,4274524.318,-0.938 
639475.000,4274474.318,-0.901 
639475.000,4274424.318,-0.872 
639475.000,4274374.318,-0.848 
639475.000,4274324.318,-0.826 
639475.000,4274274.318,-0.812 
639475.000,4274224.318,-0.801 
639475.000,4274174.318,-0.791 
639475.000,4274124.318,-0.783 
639475.000,4274074.318,-0.772 
639475.000,4274024.318,-0.765 
639475.000,4273974.318,-0.758 
639475.000,4273924.318,-0.748 
639475.000,4273874.318,-0.743 
639475.000,4273824.318,-0.737 
639475.000,4273774.318,-0.73 
639475.000,4273724.318,-0.723 
639475.000,4273674.318,-0.711 
639475.000,4273624.318,-0.712 
639475.000,4267074.318,-0.355 
639475.000,4267024.318,-0.351 
639475.000,4266974.318,-0.354 
639475.000,4266924.318,-0.352 
639475.000,4266874.318,-0.363 
639475.000,4266824.318,-0.364 
639475.000,4266774.318,-0.364 
639475.000,4266724.318,-0.366 
639475.000,4266674.318,-0.368 
639475.000,4266624.318,-0.368 
639475.000,4266574.318,-0.367 
639475.000,4266524.318,-0.365 
639475.000,4266474.318,-0.366 
639475.000,4266424.318,-0.364 
639475.000,4266374.318,-0.363 
639475.000,4266324.318,-0.36 
639475.000,4266274.318,-0.359 
639475.000,4266224.318,-0.358 
639475.000,4266174.318,-0.356 
639475.000,4266124.318,-0.357 
639475.000,4266074.318,-0.357 
639475.000,4266024.318,-0.357 
639475.000,4265974.318,-0.358 
639475.000,4265924.318,-0.359 
639475.000,4265874.318,-0.36 
639475.000,4265824.318,-0.36 
639475.000,4265774.318,-0.36 
639475.000,4265724.318,-0.361 
639475.000,4265674.318,-0.363 
639475.000,4265624.318,-0.363 
639475.000,4265574.318,-0.363 
639475.000,4265524.318,-0.363 
639475.000,4265474.318,-0.363 
639475.000,4265424.318,-0.366 
639475.000,4254324.318,-0.725 
639475.000,4254274.318,-0.727 
639475.000,4254224.318,-0.732 
639475.000,4254174.318,-0.735 
639475.000,4254124.318,-0.739 
639475.000,4254074.318,-0.743 
639475.000,4254024.318,-0.745 
639475.000,4253974.318,-0.748 
639475.000,4253924.318,-0.752 
639475.000,4253874.318,-0.755 
639475.000,4253824.318,-0.757 
639475.000,4253774.318,-0.762 
639475.000,4253724.318,-0.766 
639475.000,4253674.318,-0.772 
639475.000,4253624.318,-0.775 
639475.000,4253574.318,-0.78 
639475.000,4253524.318,-0.784 
639475.000,4253474.318,-0.789 
639475.000,4253424.318,-0.797 
639475.000,4253374.318,-0.803 
639475.000,4253324.318,-0.808 
639475.000,4253274.318,-0.815 
639475.000,4253224.318,-0.82 
639475.000,4253174.318,-0.823 
639475.000,4253124.318,-0.828 
639475.000,4253074.318,-0.83 
639475.000,4253024.318,-0.835 
639475.000,4252974.318,-0.839 
639475.000,4252924.318,-0.846 
639475.000,4252874.318,-0.852 
639475.000,4252824.318,-0.858 
639475.000,4252774.318,-0.862 
639475.000,4252724.318,-0.865 
639475.000,4252674.318,-0.872 
639475.000,4252624.318,-0.876 
639475.000,4252574.318,-0.882 
639475.000,4252524.318,-0.886 
639475.000,4252474.318,-0.891 
639475.000,4252424.318,-0.896 
639475.000,4252374.318,-0.9 
639475.000,4252324.318,-0.905 
639475.000,4252274.318,-0.908 
639475.000,4252224.318,-0.913 
639475.000,4252174.318,-0.913 
639475.000,4252124.318,-0.917 
639475.000,4252074.318,-0.92 
639475.000,4252024.318,-0.924 
639475.000,4251974.318,-0.927 
639475.000,4251924.318,-0.93 
639475.000,4251874.318,-0.933 
639475.000,4251824.318,-0.938 
639475.000,4251774.318,-0.941 
639475.000,4251724.318,-0.945 
639475.000,4251674.318,-0.949 
639475.000,4251624.318,-0.95 
639475.000,4251574.318,-0.951 
639475.000,4251524.318,-0.951 
639475.000,4251474.318,-0.952 
639475.000,4251424.318,-0.953 
639475.000,4251374.318,-0.955 
639475.000,4251324.318,-0.954 
639475.000,4251274.318,-0.955 
639475.000,4251224.318,-0.956 
639475.000,4251174.318,-0.956 
639475.000,4251124.318,-0.957 
639475.000,4251074.318,-0.958 
639475.000,4251024.318,-0.96 
639475.000,4250974.318,-0.963 
639475.000,4250924.318,-0.967 
639475.000,4250874.318,-0.969 
639475.000,4250824.318,-0.97 
639475.000,4250774.318,-0.969 
639475.000,4250724.318,-0.971 
639475.000,4250674.318,-0.973 
639475.000,4250624.318,-0.977 
639475.000,4250574.318,-0.98 
639475.000,4250524.318,-0.981 
639475.000,4250474.318,-0.982 
639475.000,4250424.318,-0.983 
639475.000,4250374.318,-0.985 
639475.000,4250324.318,-0.987 
639475.000,4250274.318,-0.99 
639475.000,4250224.318,-0.992 
639475.000,4250174.318,-0.995 
639475.000,4250124.318,-0.998 
639475.000,4250074.318,-1 
639475.000,4250024.318,-1.002 
639475.000,4249974.318,-1.003 
639475.000,4249924.318,-1.005 
639475.000,4249874.318,-1.007 
639475.000,4249824.318,-1.01 
639475.000,4249774.318,-1.011 
639475.000,4249724.318,-1.013 
639475.000,4249674.318,-1.016 
639475.000,4249624.318,-1.019 
639475.000,4249574.318,-1.02 
639475.000,4249524.318,-1.022 
639475.000,4249474.318,-1.027 
639475.000,4249424.318,-1.033 
639475.000,4249374.318,-1.038 
639475.000,4249324.318,-1.043 
639475.000,4249274.318,-1.05 
639475.000,4249224.318,-1.059 
639475.000,4249174.318,-1.068 
639475.000,4249124.318,-1.076 
639475.000,4249074.318,-1.105 
639475.000,4249024.318,-1.109 
639475.000,4248974.318,-1.116 
639475.000,4248924.318,-1.118 
639475.000,4248874.318,-1.129 
639475.000,4248824.318,-1.144 
639475.000,4248774.318,-1.156 
639475.000,4248724.318,-1.216 
639475.000,4248674.318,-1.326 
639475.000,4248624.318,-1.426 
639475.000,4248574.318,-1.478 
639475.000,4248524.318,-1.501 
639475.000,4248474.318,-1.523 
639475.000,4248424.318,-1.536 
639475.000,4248374.318,-1.549 
639475.000,4248324.318,-1.563 
639475.000,4248274.318,-1.579 
639475.000,4248224.318,-1.59 
639475.000,4248174.318,-1.721 
639475.000,4248124.318,-1.638 
639475.000,4248074.318,-1.642 
639475.000,4248024.318,-1.668 
639475.000,4247974.318,-1.694 
639475.000,4247924.318,-1.723 
639475.000,4247874.318,-1.707 
639475.000,4247824.318,-1.72 
639475.000,4247774.318,-1.736 
639475.000,4247724.318,-1.756 
639475.000,4247674.318,-1.773 
639475.000,4247624.318,-1.794 
639525.000,4274874.318,-1.536 
639525.000,4274824.318,-1.469 
639525.000,4274774.318,-1.485 
639525.000,4274724.318,-1.365 
639525.000,4274674.318,-1.209 
639525.000,4274624.318,-1.028 
639525.000,4274574.318,-0.956 
639525.000,4274524.318,-0.914 
639525.000,4274474.318,-0.892 
639525.000,4274424.318,-0.869 
639525.000,4274374.318,-0.848 
639525.000,4274324.318,-0.832 
639525.000,4274274.318,-0.819 
639525.000,4274224.318,-0.809 
639525.000,4274174.318,-0.8 
639525.000,4274124.318,-0.793 
639525.000,4274074.318,-0.783 
639525.000,4274024.318,-0.775 
639525.000,4273974.318,-0.767 
639525.000,4273924.318,-0.76 
639525.000,4273874.318,-0.753 
639525.000,4273824.318,-0.747 
639525.000,4273774.318,-0.74 
639525.000,4273724.318,-0.735 
639525.000,4273674.318,-0.723 
639525.000,4266424.318,-0.367 
639525.000,4266374.318,-0.365 
639525.000,4266324.318,-0.364 
639525.000,4266274.318,-0.363 
639525.000,4266224.318,-0.363 
639525.000,4266174.318,-0.363 
639525.000,4266124.318,-0.364 
639525.000,4266074.318,-0.364 
639525.000,4266024.318,-0.365 
639525.000,4265974.318,-0.365 
639525.000,4265924.318,-0.366 
639525.000,4265874.318,-0.367 
639525.000,4265824.318,-0.367 
639525.000,4265774.318,-0.368 
639525.000,4265724.318,-0.369 
639525.000,4265674.318,-0.37 
639525.000,4265624.318,-0.37 
639525.000,4265574.318,-0.371 
639525.000,4265524.318,-0.371 
639525.000,4265474.318,-0.371 
639525.000,4265424.318,-0.372 
639525.000,4265374.318,-0.373 
639525.000,4265324.318,-0.375 
639525.000,4254424.318,-0.731 
639525.000,4254374.318,-0.729 
639525.000,4254324.318,-0.734 
639525.000,4254274.318,-0.74 
639525.000,4254224.318,-0.743 
639525.000,4254174.318,-0.747 
639525.000,4254124.318,-0.749 
639525.000,4254074.318,-0.753 
639525.000,4254024.318,-0.755 
639525.000,4253974.318,-0.757 
639525.000,4253924.318,-0.761 
639525.000,4253874.318,-0.765 
639525.000,4253824.318,-0.77 
639525.000,4253774.318,-0.775 
639525.000,4253724.318,-0.778 
639525.000,4253674.318,-0.78 
639525.000,4253624.318,-0.784 
639525.000,4253574.318,-0.789 
639525.000,4253524.318,-0.796 
639525.000,4253474.318,-0.807 
639525.000,4253424.318,-0.812 
639525.000,4253374.318,-0.814 
639525.000,4253324.318,-0.817 
639525.000,4253274.318,-0.823 
639525.000,4253224.318,-0.829 
639525.000,4253174.318,-0.832 
639525.000,4253124.318,-0.838 
639525.000,4253074.318,-0.84 
639525.000,4253024.318,-0.844 
639525.000,4252974.318,-0.849 
639525.000,4252924.318,-0.854 
639525.000,4252874.318,-0.861 
639525.000,4252824.318,-0.866 
639525.000,4252774.318,-0.87 
639525.000,4252724.318,-0.873 
639525.000,4252674.318,-0.877 
639525.000,4252624.318,-0.881 
639525.000,4252574.318,-0.887 
639525.000,4252524.318,-0.893 
639525.000,4252474.318,-0.899 
639525.000,4252424.318,-0.902 
639525.000,4252374.318,-0.907 
639525.000,4252324.318,-0.91 
639525.000,4252274.318,-0.913 
639525.000,4252224.318,-0.916 
639525.000,4252174.318,-0.919 
639525.000,4252124.318,-0.922 
639525.000,4252074.318,-0.926 
639525.000,4252024.318,-0.929 
639525.000,4251974.318,-0.933 
639525.000,4251924.318,-0.935 
639525.000,4251874.318,-0.939 
639525.000,4251824.318,-0.942 
639525.000,4251774.318,-0.945 
639525.000,4251724.318,-0.948 
639525.000,4251674.318,-0.951 
639525.000,4251624.318,-0.951 
639525.000,4251574.318,-0.952 
639525.000,4251524.318,-0.954 
639525.000,4251474.318,-0.955 
639525.000,4251424.318,-0.956 
639525.000,4251374.318,-0.956 
639525.000,4251324.318,-0.957 
639525.000,4251274.318,-0.957 
639525.000,4251224.318,-0.957 
639525.000,4251174.318,-0.958 
639525.000,4251124.318,-0.959 
639525.000,4251074.318,-0.961 
639525.000,4251024.318,-0.964 
639525.000,4250974.318,-0.968 
639525.000,4250924.318,-0.97 
639525.000,4250874.318,-0.971 
639525.000,4250824.318,-0.97 
639525.000,4250774.318,-0.971 
639525.000,4250724.318,-0.974 
639525.000,4250674.318,-0.977 
639525.000,4250624.318,-0.98 
639525.000,4250574.318,-0.982 
639525.000,4250524.318,-0.984 
639525.000,4250474.318,-0.984 
639525.000,4250424.318,-0.986 
639525.000,4250374.318,-0.988 
639525.000,4250324.318,-0.99 
639525.000,4250274.318,-0.993 
639525.000,4250224.318,-0.995 
639525.000,4250174.318,-0.998 
639525.000,4250124.318,-1.001 
639525.000,4250074.318,-1.003 
639525.000,4250024.318,-1.004 
639525.000,4249974.318,-1.005 
639525.000,4249924.318,-1.008 
639525.000,4249874.318,-1.01 
639525.000,4249824.318,-1.012 
639525.000,4249774.318,-1.014 
639525.000,4249724.318,-1.015 
639525.000,4249674.318,-1.017 
639525.000,4249624.318,-1.019 
639525.000,4249574.318,-1.021 
639525.000,4249524.318,-1.024 
639525.000,4249474.318,-1.028 
639525.000,4249424.318,-1.033 
639525.000,4249374.318,-1.04 
639525.000,4249324.318,-1.048 
639525.000,4249274.318,-1.058 
639525.000,4249224.318,-1.067 
639525.000,4249174.318,-1.076 
639525.000,4249124.318,-1.098 
639525.000,4249074.318,-1.108 
639525.000,4249024.318,-1.111 
639525.000,4248974.318,-1.116 
639525.000,4248924.318,-1.127 
639525.000,4248874.318,-1.141 
639525.000,4248824.318,-1.161 
639525.000,4248774.318,-1.214 
639525.000,4248724.318,-1.323 
639525.000,4248674.318,-1.426 
639525.000,4248624.318,-1.474 
639525.000,4248574.318,-1.499 
639525.000,4248524.318,-1.52 
639525.000,4248474.318,-1.538 
639525.000,4248424.318,-1.548 
639525.000,4248374.318,-1.564 
639525.000,4248324.318,-1.58 
639525.000,4248274.318,-1.593 
639525.000,4248224.318,-1.609 
639525.000,4248174.318,-1.655 
639525.000,4248124.318,-1.7 
639525.000,4248074.318,-1.657 
639525.000,4248024.318,-1.674 
639525.000,4247974.318,-1.736 
639525.000,4247924.318,-1.725 
639525.000,4247874.318,-1.728 
639525.000,4247824.318,-1.745 
639525.000,4247774.318,-1.76 
639525.000,4247724.318,-1.776 
639525.000,4247674.318,-1.793 
639575.000,4274824.318,-1.578 
639575.000,4274774.318,-1.401 
639575.000,4274724.318,-1.28 
639575.000,4274674.318,-1.16 
639575.000,4274624.318,-1.001 
639575.000,4274574.318,-0.942 
639575.000,4274524.318,-0.911 
639575.000,4274474.318,-0.889 
639575.000,4274424.318,-0.871 
639575.000,4274374.318,-0.852 
639575.000,4274324.318,-0.84 
639575.000,4274274.318,-0.828 
639575.000,4274224.318,-0.818 
639575.000,4274174.318,-0.81 
639575.000,4274124.318,-0.802 
639575.000,4274074.318,-0.793 
639575.000,4274024.318,-0.787 
639575.000,4273974.318,-0.779 
639575.000,4273924.318,-0.771 
639575.000,4273874.318,-0.763 
639575.000,4273824.318,-0.758 
639575.000,4273774.318,-0.751 
639575.000,4273724.318,-0.743 
639575.000,4273674.318,-0.736 
639575.000,4266124.318,-0.365 
639575.000,4266074.318,-0.366 
639575.000,4266024.318,-0.369 
639575.000,4265974.318,-0.368 
639575.000,4265924.318,-0.37 
639575.000,4265874.318,-0.371 
639575.000,4265824.318,-0.372 
639575.000,4265774.318,-0.374 
639575.000,4265724.318,-0.376 
639575.000,4265674.318,-0.377 
639575.000,4265624.318,-0.378 
639575.000,4265574.318,-0.378 
639575.000,4265524.318,-0.378 
639575.000,4265474.318,-0.378 
639575.000,4265424.318,-0.38 
639575.000,4265374.318,-0.38 
639575.000,4265324.318,-0.381 
639575.000,4265274.318,-0.382 
639575.000,4265224.318,-0.384 
639575.000,4254474.318,-0.735 
639575.000,4254424.318,-0.739 
639575.000,4254374.318,-0.743 
639575.000,4254324.318,-0.748 
639575.000,4254274.318,-0.752 
639575.000,4254224.318,-0.753 
639575.000,4254174.318,-0.757 
639575.000,4254124.318,-0.76 
639575.000,4254074.318,-0.764 
639575.000,4254024.318,-0.765 
639575.000,4253974.318,-0.768 
639575.000,4253924.318,-0.773 
639575.000,4253874.318,-0.777 
639575.000,4253824.318,-0.78 
639575.000,4253774.318,-0.782 
639575.000,4253724.318,-0.785 
639575.000,4253674.318,-0.79 
639575.000,4253624.318,-0.799 
639575.000,4253574.318,-0.805 
639575.000,4253524.318,-0.811 
639575.000,4253474.318,-0.815 
639575.000,4253424.318,-0.819 
639575.000,4253374.318,-0.822 
639575.000,4253324.318,-0.827 
639575.000,4253274.318,-0.832 
639575.000,4253224.318,-0.836 
639575.000,4253174.318,-0.84 
639575.000,4253124.318,-0.846 
639575.000,4253074.318,-0.852 
639575.000,4253024.318,-0.855 
639575.000,4252974.318,-0.859 
639575.000,4252924.318,-0.863 
639575.000,4252874.318,-0.868 
639575.000,4252824.318,-0.872 
639575.000,4252774.318,-0.873 
639575.000,4252724.318,-0.879 
639575.000,4252674.318,-0.886 
639575.000,4252624.318,-0.889 
639575.000,4252574.318,-0.896 
639575.000,4252524.318,-0.901 
639575.000,4252474.318,-0.905 
639575.000,4252424.318,-0.908 
639575.000,4252374.318,-0.912 
639575.000,4252324.318,-0.914 
639575.000,4252274.318,-0.918 
639575.000,4252224.318,-0.922 
639575.000,4252174.318,-0.925 
639575.000,4252124.318,-0.929 
639575.000,4252074.318,-0.932 
639575.000,4252024.318,-0.936 
639575.000,4251974.318,-0.938 
639575.000,4251924.318,-0.942 
639575.000,4251874.318,-0.944 
639575.000,4251824.318,-0.947 
639575.000,4251774.318,-0.949 
639575.000,4251724.318,-0.948 
639575.000,4251674.318,-0.951 
639575.000,4251624.318,-0.953 
639575.000,4251574.318,-0.955 
639575.000,4251524.318,-0.957 
639575.000,4251474.318,-0.96 
639575.000,4251424.318,-0.959 
639575.000,4251374.318,-0.958 
639575.000,4251324.318,-0.959 
639575.000,4251274.318,-0.959 
639575.000,4251224.318,-0.96 
639575.000,4251174.318,-0.961 
639575.000,4251124.318,-0.963 
639575.000,4251074.318,-0.966 
639575.000,4251024.318,-0.969 
639575.000,4250974.318,-0.971 
639575.000,4250924.318,-0.973 
639575.000,4250874.318,-0.973 
639575.000,4250824.318,-0.972 
639575.000,4250774.318,-0.974 
639575.000,4250724.318,-0.978 
639575.000,4250674.318,-0.981 
639575.000,4250624.318,-0.983 
639575.000,4250574.318,-0.984 
639575.000,4250524.318,-0.985 
639575.000,4250474.318,-0.987 
639575.000,4250424.318,-0.989 
639575.000,4250374.318,-0.992 
639575.000,4250324.318,-0.993 
639575.000,4250274.318,-0.996 
639575.000,4250224.318,-0.999 
639575.000,4250174.318,-1.001 
639575.000,4250124.318,-1.003 
639575.000,4250074.318,-1.005 
639575.000,4250024.318,-1.007 
639575.000,4249974.318,-1.008 
639575.000,4249924.318,-1.011 
639575.000,4249874.318,-1.012 
639575.000,4249824.318,-1.014 
639575.000,4249774.318,-1.016 
639575.000,4249724.318,-1.017 
639575.000,4249674.318,-1.018 
639575.000,4249624.318,-1.02 
639575.000,4249574.318,-1.022 
639575.000,4249524.318,-1.026 
639575.000,4249474.318,-1.03 
639575.000,4249424.318,-1.035 
639575.000,4249374.318,-1.043 
639575.000,4249324.318,-1.054 
639575.000,4249274.318,-1.064 
639575.000,4249224.318,-1.076 
639575.000,4249174.318,-1.093 
639575.000,4249124.318,-1.102 
639575.000,4249074.318,-1.109 
639575.000,4249024.318,-1.116 
639575.000,4248974.318,-1.125 
639575.000,4248924.318,-1.143 
639575.000,4248874.318,-1.158 
639575.000,4248824.318,-1.212 
639575.000,4248774.318,-1.32 
639575.000,4248724.318,-1.422 
639575.000,4248674.318,-1.479 
639575.000,4248624.318,-1.505 
639575.000,4248574.318,-1.522 
639575.000,4248524.318,-1.535 
639575.000,4248474.318,-1.55 
639575.000,4248424.318,-1.563 
639575.000,4248374.318,-1.581 
639575.000,4248324.318,-1.595 
639575.000,4248274.318,-1.612 
639575.000,4248224.318,-1.631 
639575.000,4248174.318,-1.652 
639575.000,4248124.318,-1.678 
639575.000,4248074.318,-1.68 
639575.000,4248024.318,-1.697 
639575.000,4247974.318,-1.718 
639575.000,4247924.318,-1.727 
639575.000,4247874.318,-1.742 
639575.000,4247824.318,-1.755 
639575.000,4247774.318,-1.78 
639625.000,4274974.318,-1.784 
639625.000,4274924.318,-1.75 
639625.000,4274874.318,-1.67 
639625.000,4274824.318,-1.562 
639625.000,4274774.318,-1.371 
639625.000,4274724.318,-1.238 
639625.000,4274674.318,-1.088 
639625.000,4274624.318,-0.974 
639625.000,4274574.318,-0.934 
639625.000,4274524.318,-0.911 
639625.000,4274474.318,-0.89 
639625.000,4274424.318,-0.874 
639625.000,4274374.318,-0.859 
639625.000,4274324.318,-0.848 
639625.000,4274274.318,-0.836 
639625.000,4274224.318,-0.829 
639625.000,4274174.318,-0.818 
639625.000,4274124.318,-0.811 
639625.000,4274074.318,-0.805 
639625.000,4274024.318,-0.797 
639625.000,4273974.318,-0.788 
639625.000,4273924.318,-0.779 
639625.000,4273874.318,-0.772 
639625.000,4273824.318,-0.763 
639625.000,4273774.318,-0.757 
639625.000,4273724.318,-0.753 
639625.000,4265624.318,-0.382 
639625.000,4265574.318,-0.383 
639625.000,4265524.318,-0.385 
639625.000,4265474.318,-0.386 
639625.000,4265424.318,-0.387 
639625.000,4265374.318,-0.388 
639625.000,4265324.318,-0.388 
639625.000,4265274.318,-0.39 
639625.000,4265224.318,-0.39 
639625.000,4265174.318,-0.39 
639625.000,4265124.318,-0.392 
639625.000,4254574.318,-0.742 
639625.000,4254524.318,-0.74 
639625.000,4254474.318,-0.746 
639625.000,4254424.318,-0.752 
639625.000,4254374.318,-0.754 
639625.000,4254324.318,-0.758 
639625.000,4254274.318,-0.76 
639625.000,4254224.318,-0.763 
639625.000,4254174.318,-0.766 
639625.000,4254124.318,-0.769 
639625.000,4254074.318,-0.772 
639625.000,4254024.318,-0.776 
639625.000,4253974.318,-0.78 
639625.000,4253924.318,-0.784 
639625.000,4253874.318,-0.786 
639625.000,4253824.318,-0.791 
639625.000,4253774.318,-0.79 
639625.000,4253724.318,-0.794 
639625.000,4253674.318,-0.805 
639625.000,4253624.318,-0.81 
639625.000,4253574.318,-0.816 
639625.000,4253524.318,-0.822 
639625.000,4253474.318,-0.825 
639625.000,4253424.318,-0.828 
639625.000,4253374.318,-0.832 
639625.000,4253324.318,-0.837 
639625.000,4253274.318,-0.84 
639625.000,4253224.318,-0.845 
639625.000,4253174.318,-0.85 
639625.000,4253124.318,-0.858 
639625.000,4253074.318,-0.862 
639625.000,4253024.318,-0.865 
639625.000,4252974.318,-0.867 
639625.000,4252924.318,-0.87 
639625.000,4252874.318,-0.875 
639625.000,4252824.318,-0.877 
639625.000,4252774.318,-0.886 
639625.000,4252724.318,-0.887 
639625.000,4252674.318,-0.894 
639625.000,4252624.318,-0.896 
639625.000,4252574.318,-0.902 
639625.000,4252524.318,-0.906 
639625.000,4252474.318,-0.91 
639625.000,4252424.318,-0.912 
639625.000,4252374.318,-0.916 
639625.000,4252324.318,-0.919 
639625.000,4252274.318,-0.924 
639625.000,4252224.318,-0.928 
639625.000,4252174.318,-0.93 
639625.000,4252124.318,-0.934 
639625.000,4252074.318,-0.938 
639625.000,4252024.318,-0.942 
639625.000,4251974.318,-0.945 
639625.000,4251924.318,-0.949 
639625.000,4251874.318,-0.951 
639625.000,4251824.318,-0.951 
639625.000,4251774.318,-0.95 
639625.000,4251724.318,-0.951 
639625.000,4251674.318,-0.953 
639625.000,4251624.318,-0.958 
639625.000,4251574.318,-0.96 
639625.000,4251524.318,-0.96 
639625.000,4251474.318,-0.96 
639625.000,4251424.318,-0.96 
639625.000,4251374.318,-0.961 
639625.000,4251324.318,-0.961 
639625.000,4251274.318,-0.962 
639625.000,4251224.318,-0.963 
639625.000,4251174.318,-0.965 
639625.000,4251124.318,-0.967 
639625.000,4251074.318,-0.97 
639625.000,4251024.318,-0.972 
639625.000,4250974.318,-0.974 
639625.000,4250924.318,-0.974 
639625.000,4250874.318,-0.974 
639625.000,4250824.318,-0.976 
639625.000,4250774.318,-0.979 
639625.000,4250724.318,-0.982 
639625.000,4250674.318,-0.984 
639625.000,4250624.318,-0.985 
639625.000,4250574.318,-0.987 
639625.000,4250524.318,-0.989 
639625.000,4250474.318,-0.991 
639625.000,4250424.318,-0.993 
639625.000,4250374.318,-0.995 
639625.000,4250324.318,-0.998 
639625.000,4250274.318,-0.999 
639625.000,4250224.318,-1.001 
639625.000,4250174.318,-1.003 
639625.000,4250124.318,-1.005 
639625.000,4250074.318,-1.007 
639625.000,4250024.318,-1.009 
639625.000,4249974.318,-1.012 
639625.000,4249924.318,-1.013 
639625.000,4249874.318,-1.015 
639625.000,4249824.318,-1.016 
639625.000,4249774.318,-1.017 
639625.000,4249724.318,-1.018 
639625.000,4249674.318,-1.02 
639625.000,4249624.318,-1.022 
639625.000,4249574.318,-1.024 
639625.000,4249524.318,-1.028 
639625.000,4249474.318,-1.033 
639625.000,4249424.318,-1.039 
639625.000,4249374.318,-1.046 
639625.000,4249324.318,-1.058 
639625.000,4249274.318,-1.07 
639625.000,4249224.318,-1.089 
639625.000,4249174.318,-1.099 
639625.000,4249124.318,-1.106 
639625.000,4249074.318,-1.116 
639625.000,4249024.318,-1.128 
639625.000,4248974.318,-1.138 
639625.000,4248924.318,-1.158 
639625.000,4248874.318,-1.202 
639625.000,4248824.318,-1.317 
639625.000,4248774.318,-1.424 
639625.000,4248724.318,-1.482 
639625.000,4248674.318,-1.513 
639625.000,4248624.318,-1.522 
639625.000,4248574.318,-1.538 
639625.000,4248524.318,-1.55 
639625.000,4248474.318,-1.564 
639625.000,4248424.318,-1.58 
639625.000,4248374.318,-1.599 
639625.000,4248324.318,-1.617 
639625.000,4248274.318,-1.635 
639625.000,4248224.318,-1.653 
639625.000,4248174.318,-1.672 
639625.000,4248124.318,-1.684 
639625.000,4248074.318,-1.737 
639625.000,4248024.318,-1.722 
639625.000,4247974.318,-1.73 
639625.000,4247924.318,-1.747 
639625.000,4247874.318,-1.765 
639625.000,4247824.318,-1.783 
639675.000,4274974.318,-1.675 
639675.000,4274924.318,-1.552 
639675.000,4274874.318,-1.456 
639675.000,4274824.318,-1.366 
639675.000,4274774.318,-1.276 
639675.000,4274724.318,-1.15 
639675.000,4274674.318,-1.012 
639675.000,4274624.318,-0.962 
639675.000,4274574.318,-0.93 
639675.000,4274524.318,-0.907 
639675.000,4274474.318,-0.889 
639675.000,4274424.318,-0.875 
639675.000,4274374.318,-0.862 
639675.000,4274324.318,-0.853 
639675.000,4274274.318,-0.844 
639675.000,4274224.318,-0.836 
639675.000,4274174.318,-0.826 
639675.000,4274124.318,-0.819 
639675.000,4274074.318,-0.813 
639675.000,4274024.318,-0.804 
639675.000,4273974.318,-0.797 
639675.000,4273924.318,-0.791 
639675.000,4273874.318,-0.783 
639675.000,4273824.318,-0.776 
639675.000,4273774.318,-0.769 
639675.000,4273724.318,-0.763 
639675.000,4273674.318,-0.758 
639675.000,4273474.318,-0.733 
639675.000,4273424.318,-0.728 
639675.000,4273374.318,-0.725 
639675.000,4273324.318,-0.713 
639675.000,4273274.318,-0.714 
639675.000,4265474.318,-0.39 
639675.000,4265424.318,-0.393 
639675.000,4265374.318,-0.396 
639675.000,4265324.318,-0.396 
639675.000,4265274.318,-0.396 
639675.000,4265224.318,-0.397 
639675.000,4265174.318,-0.398 
639675.000,4265124.318,-0.398 
639675.000,4265074.318,-0.398 
639675.000,4265024.318,-0.399 
639675.000,4254674.318,-0.745 
639675.000,4254624.318,-0.745 
639675.000,4254574.318,-0.752 
639675.000,4254524.318,-0.756 
639675.000,4254474.318,-0.76 
639675.000,4254424.318,-0.763 
639675.000,4254374.318,-0.765 
639675.000,4254324.318,-0.767 
639675.000,4254274.318,-0.769 
639675.000,4254224.318,-0.773 
639675.000,4254174.318,-0.776 
639675.000,4254124.318,-0.779 
639675.000,4254074.318,-0.785 
639675.000,4254024.318,-0.789 
639675.000,4253974.318,-0.792 
639675.000,4253924.318,-0.792 
639675.000,4253874.318,-0.795 
639675.000,4253824.318,-0.798 
639675.000,4253774.318,-0.805 
639675.000,4253724.318,-0.812 
639675.000,4253674.318,-0.814 
639675.000,4253624.318,-0.822 
639675.000,4253574.318,-0.825 
639675.000,4253524.318,-0.828 
639675.000,4253474.318,-0.833 
639675.000,4253424.318,-0.837 
639675.000,4253374.318,-0.841 
639675.000,4253324.318,-0.844 
639675.000,4253274.318,-0.849 
639675.000,4253224.318,-0.854 
639675.000,4253174.318,-0.861 
639675.000,4253124.318,-0.867 
639675.000,4253074.318,-0.87 
639675.000,4253024.318,-0.872 
639675.000,4252974.318,-0.875 
639675.000,4252924.318,-0.879 
