816240.000,4452661.520,-565.510
816240.000,4452561.520,-562.890
816240.000,4452461.520,-561.960
816240.000,4452361.520,-559.260
816240.000,4452261.520,-557.690
816240.000,4452161.520,-555.430
816240.000,4452061.520,-552.490
816240.000,4451961.520,-549.790
816240.000,4451861.520,-546.680
816240.000,4451761.520,-543.970
816240.000,4451661.520,-533.910
816240.000,4451561.520,-511.810
816240.000,4451461.520,-474.520
816240.000,4451361.520,-432.480
816240.000,4451261.520,-387.880
816240.000,4451161.520,-365.610
816240.000,4451061.520,-348.550
816240.000,4450961.520,-329.160
816240.000,4450861.520,-309.120
816240.000,4450761.520,-297.790
816240.000,4450661.520,-264.380
816240.000,4450561.520,-251.030
816240.000,4450461.520,-246.030
816240.000,4450361.520,-236.460
816240.000,4450261.520,-233.140
816240.000,4450161.520,-210.390
816240.000,4450061.520,-191.960
816240.000,4449961.520,-184.360
816240.000,4449861.520,-178.020
816240.000,4449761.520,-174.820
816240.000,4449661.520,-173.400
816240.000,4449561.520,-171.910
816240.000,4449461.520,-170.980
816240.000,4449361.520,-171.220
816240.000,4449261.520,-173.050
816240.000,4449161.520,-178.930
816240.000,4449061.520,-184.100
816240.000,4448961.520,-189.820
816240.000,4448861.520,-192.050
816240.000,4448761.520,-198.780
816240.000,4448661.520,-205.370
816240.000,4448561.520,-234.170
816240.000,4448461.520,-257.950
816240.000,4448361.520,-278.350
816240.000,4448261.520,-301.480
816240.000,4448161.520,-324.400
816240.000,4448061.520,-339.100
816240.000,4447961.520,-349.270
816240.000,4447861.520,-337.860
816240.000,4447761.520,-347.160
816240.000,4447661.520,-333.200
816240.000,4447561.520,-311.820
816240.000,4447461.520,-308.120
816240.000,4447361.520,-300.690
816240.000,4447261.520,-279.800
816240.000,4447161.520,-275.640
816240.000,4447061.520,-255.790
816240.000,4446961.520,-256.970
816240.000,4446861.520,-250.540
816240.000,4446761.520,-232.780
816240.000,4446661.520,-213.900
816240.000,4446561.520,-200.660
816240.000,4446461.520,-183.780
816240.000,4446361.520,-160.660
816240.000,4446261.520,-161.630
816240.000,4446161.520,-154.040
816240.000,4446061.520,-163.140
816240.000,4445961.520,-166.370
816240.000,4445861.520,-156.680
816240.000,4444861.520,-161.030
816240.000,4444761.520,-171.310
816240.000,4444661.520,-177.190
816240.000,4444561.520,-188.070
816240.000,4444461.520,-195.670
816240.000,4444361.520,-184.870
816240.000,4444261.520,-166.720
816240.000,4444161.520,-157.570
816240.000,4444061.520,-151.320
816240.000,4416161.520,-151.650
816240.000,4416061.520,-153.780
816240.000,4415961.520,-155.450
816240.000,4415861.520,-156.850
816240.000,4415761.520,-158.870
816240.000,4415661.520,-160.770
816240.000,4415561.520,-161.580
816240.000,4415461.520,-162.440
816240.000,4415361.520,-163.810
816240.000,4415261.520,-164.850
816240.000,4415161.520,-165.950
816240.000,4415061.520,-166.500
816240.000,4414961.520,-168.870
816240.000,4414861.520,-170.330
816240.000,4414761.520,-171.330
816240.000,4414661.520,-172.220
816240.000,4414561.520,-172.360
816240.000,4414461.520,-172.570
816240.000,4414361.520,-173.860
816240.000,4414261.520,-174.610
816240.000,4414161.520,-174.520
816240.000,4414061.520,-176.310
816240.000,4413961.520,-177.610
816240.000,4413861.520,-179.300
816240.000,4413761.520,-180.920
816240.000,4413661.520,-183.530
816240.000,4413561.520,-185.980
816240.000,4413461.520,-188.360
816240.000,4413361.520,-191.720
816240.000,4413261.520,-194.580
816240.000,4413161.520,-197.430
816240.000,4413061.520,-200.290
816240.000,4412961.520,-203.240
816240.000,4412861.520,-206.390
816240.000,4412761.520,-208.350
816240.000,4412661.520,-211.460
816240.000,4412561.520,-214.240
816240.000,4412461.520,-216.560
816240.000,4412361.520,-219.080
816240.000,4412261.520,-222.070
816240.000,4412161.520,-225.460
816240.000,4412061.520,-227.010
816240.000,4411961.520,-227.740
816240.000,4411861.520,-229.550
816240.000,4411761.520,-233.800
816240.000,4411661.520,-239.720
816240.000,4411561.520,-246.410
816240.000,4411461.520,-252.770
816240.000,4411361.520,-258.820
816240.000,4411261.520,-265.020
816340.000,4465261.520,-649.840
816340.000,4465161.520,-648.800
816340.000,4465061.520,-647.610
816340.000,4464961.520,-646.600
816340.000,4464861.520,-646.040
816340.000,4464761.520,-645.730
816340.000,4464661.520,-645.290
816340.000,4464561.520,-645.500
816340.000,4464461.520,-646.040
816340.000,4464361.520,-646.480
816340.000,4464261.520,-647.130
816340.000,4464161.520,-647.250
816340.000,4464061.520,-646.780
816340.000,4463961.520,-646.900
816340.000,4463861.520,-647.780
816340.000,4463761.520,-647.940
816340.000,4463661.520,-647.130
816340.000,4463561.520,-645.450
816340.000,4463461.520,-642.630
816340.000,4463361.520,-640.040
816340.000,4463261.520,-637.730
816340.000,4463161.520,-636.100
816340.000,4463061.520,-635.290
816340.000,4462961.520,-633.920
816340.000,4462861.520,-632.520
816340.000,4462761.520,-631.020
816340.000,4462661.520,-629.650
816340.000,4462561.520,-627.880
816340.000,4462461.520,-626.090
816340.000,4462361.520,-623.610
816340.000,4462261.520,-620.540
816340.000,4462161.520,-617.890
816340.000,4462061.520,-615.410
816340.000,4461961.520,-612.670
816340.000,4461861.520,-610.050
816340.000,4461761.520,-607.330
816340.000,4461661.520,-605.630
816340.000,4461561.520,-604.220
816340.000,4461461.520,-603.270
816340.000,4461361.520,-601.810
816340.000,4461261.520,-600.220
816340.000,4461161.520,-599.250
816340.000,4461061.520,-598.760
816340.000,4460961.520,-598.860
816340.000,4460861.520,-598.930
816340.000,4460761.520,-599.180
816340.000,4460661.520,-599.500
816340.000,4460561.520,-599.290
816340.000,4460461.520,-598.740
816340.000,4460361.520,-597.420
816340.000,4460261.520,-595.760
816340.000,4460161.520,-594.230
816340.000,4460061.520,-592.610
816340.000,4459961.520,-590.780
816340.000,4459861.520,-589.340
816340.000,4459761.520,-587.940
816340.000,4459661.520,-586.130
816340.000,4459561.520,-584.480
816340.000,4459461.520,-582.460
816340.000,4459361.520,-579.790
816340.000,4459261.520,-576.240
816340.000,4459161.520,-572.850
816340.000,4459061.520,-568.780
816340.000,4458961.520,-563.010
816340.000,4458861.520,-548.140
816340.000,4458761.520,-533.630
816340.000,4458661.520,-521.160
816340.000,4458561.520,-509.950
816340.000,4458461.520,-500.500
816340.000,4458361.520,-492.270
816340.000,4458261.520,-484.590
816340.000,4458161.520,-480.690
816340.000,4458061.520,-485.980
816340.000,4457961.520,-496.090
816340.000,4457861.520,-497.010
816340.000,4457761.520,-495.230
816340.000,4457661.520,-492.860
816340.000,4457561.520,-484.910
816340.000,4457461.520,-470.010
816340.000,4457361.520,-452.640
816340.000,4457261.520,-435.080
816340.000,4457161.520,-420.760
816340.000,4457061.520,-412.150
816340.000,4456961.520,-410.700
816340.000,4456861.520,-413.030
816340.000,4456761.520,-425.430
816340.000,4456661.520,-442.630
816340.000,4456561.520,-463.180
816340.000,4456461.520,-476.370
816340.000,4456361.520,-486.590
816340.000,4456261.520,-501.870
816340.000,4456161.520,-506.690
816340.000,4456061.520,-501.150
816340.000,4455961.520,-487.840
816340.000,4455861.520,-482.550
816340.000,4455761.520,-479.180
816340.000,4455661.520,-478.560
816340.000,4455561.520,-472.420
816340.000,4455461.520,-465.940
816340.000,4455361.520,-458.230
816340.000,4455261.520,-457.610
816340.000,4455161.520,-476.370
816340.000,4455061.520,-503.860
816340.000,4454961.520,-514.270
816340.000,4454861.520,-509.710
816340.000,4454761.520,-507.210
816340.000,4454661.520,-512.520
816340.000,4454561.520,-527.410
816340.000,4454461.520,-538.790
816340.000,4454361.520,-548.330
816340.000,4454261.520,-555.180
816340.000,4454161.520,-561.840
816340.000,4454061.520,-566.650
816340.000,4453961.520,-568.040
816340.000,4453861.520,-567.630
816340.000,4453761.520,-569.870
816340.000,4453661.520,-573.760
816340.000,4453561.520,-578.100
816340.000,4453461.520,-585.410
816340.000,4453361.520,-588.540
816340.000,4453261.520,-590.420
816340.000,4453161.520,-589.710
816340.000,4453061.520,-588.450
816340.000,4452961.520,-588.290
816340.000,4452861.520,-580.160
816340.000,4452761.520,-571.990
816340.000,4452661.520,-567.770
816340.000,4452561.520,-565.120
816340.000,4452461.520,-562.080
816340.000,4452361.520,-559.260
816340.000,4452261.520,-556.430
816340.000,4452161.520,-554.640
816340.000,4452061.520,-551.260
816340.000,4451961.520,-548.260
816340.000,4451861.520,-544.290
816340.000,4451761.520,-540.360
816340.000,4451661.520,-529.710
816340.000,4451561.520,-501.360
816340.000,4451461.520,-454.500
816340.000,4451361.520,-413.860
816340.000,4451261.520,-390.300
816340.000,4451161.520,-376.730
816340.000,4451061.520,-355.280
816340.000,4450961.520,-350.990
816340.000,4450861.520,-341.330
816340.000,4450761.520,-322.590
816340.000,4450661.520,-294.440
816340.000,4450561.520,-265.910
816340.000,4450461.520,-252.620
816340.000,4450361.520,-239.070
816340.000,4450261.520,-233.030
816340.000,4450161.520,-220.840
816340.000,4450061.520,-202.220
816340.000,4449961.520,-201.360
816340.000,4449861.520,-197.940
816340.000,4449761.520,-197.810
816340.000,4449661.520,-200.590
816340.000,4449561.520,-201.270
816340.000,4449461.520,-199.360
816340.000,4449361.520,-196.040
816340.000,4449261.520,-191.090
816340.000,4449161.520,-191.840
816340.000,4449061.520,-198.920
816340.000,4448961.520,-207.370
816340.000,4448861.520,-214.320
816340.000,4448761.520,-217.610
816340.000,4448661.520,-229.110
816340.000,4448561.520,-256.990
816340.000,4448461.520,-282.470
816340.000,4448361.520,-295.160
816340.000,4448261.520,-315.060
816340.000,4448161.520,-327.670
816340.000,4448061.520,-342.720
816340.000,4447961.520,-350.840
816340.000,4447861.520,-357.770
816340.000,4447761.520,-359.250
816340.000,4447661.520,-350.750
816340.000,4447561.520,-328.370
816340.000,4447461.520,-318.830
816340.000,4447361.520,-309.630
816340.000,4447261.520,-293.750
816340.000,4447161.520,-288.760
816340.000,4447061.520,-268.300
816340.000,4446961.520,-272.390
816340.000,4446861.520,-257.570
816340.000,4446761.520,-229.550
816340.000,4446661.520,-208.880
816340.000,4446561.520,-188.470
816340.000,4446461.520,-181.690
816340.000,4446361.520,-165.990
816340.000,4446261.520,-156.850
816340.000,4446161.520,-157.660
816340.000,4446061.520,-169.960
816340.000,4445961.520,-181.360
816340.000,4445861.520,-178.580
816340.000,4445761.520,-164.230
816340.000,4444861.520,-171.470
816340.000,4444761.520,-185.690
816340.000,4444661.520,-195.850
816340.000,4444561.520,-201.940
816340.000,4444461.520,-207.420
816340.000,4444361.520,-194.180
816340.000,4444261.520,-178.070
816340.000,4444161.520,-173.430
816340.000,4444061.520,-165.440
816340.000,4443961.520,-153.090
816340.000,4416361.520,-150.420
816340.000,4416261.520,-153.010
816340.000,4416161.520,-155.310
816340.000,4416061.520,-157.360
816340.000,4415961.520,-158.380
816340.000,4415861.520,-160.310
816340.000,4415761.520,-162.330
816340.000,4415661.520,-163.090
816340.000,4415561.520,-163.110
816340.000,4415461.520,-165.210
816340.000,4415361.520,-166.720
816340.000,4415261.520,-166.870
816340.000,4415161.520,-168.810
816340.000,4415061.520,-170.150
816340.000,4414961.520,-171.940
816340.000,4414861.520,-173.980
816340.000,4414761.520,-174.650
816340.000,4414661.520,-174.120
816340.000,4414561.520,-174.590
816340.000,4414461.520,-175.400
816340.000,4414361.520,-176.680
816340.000,4414261.520,-177.760
816340.000,4414161.520,-178.600
816340.000,4414061.520,-179.930
816340.000,4413961.520,-181.550
816340.000,4413861.520,-182.940
816340.000,4413761.520,-185.690
816340.000,4413661.520,-187.770
816340.000,4413561.520,-190.170
816340.000,4413461.520,-192.910
816340.000,4413361.520,-195.710
816340.000,4413261.520,-198.600
816340.000,4413161.520,-201.520
816340.000,4413061.520,-204.750
816340.000,4412961.520,-207.930
816340.000,4412861.520,-210.500
816340.000,4412761.520,-213.290
816340.000,4412661.520,-215.430
816340.000,4412561.520,-217.940
816340.000,4412461.520,-219.730
816340.000,4412361.520,-222.690
816340.000,4412261.520,-225.780
816340.000,4412161.520,-227.970
816340.000,4412061.520,-229.290
816340.000,4411961.520,-230.870
816340.000,4411861.520,-233.890
816340.000,4411761.520,-239.160
816340.000,4411661.520,-244.060
816340.000,4411561.520,-248.720
816340.000,4411461.520,-254.740
816340.000,4411361.520,-260.990
816340.000,4411261.520,-266.070
816440.000,4464961.520,-649.700
816440.000,4464861.520,-649.060
816440.000,4464761.520,-649.170
816440.000,4464661.520,-649.450
816440.000,4464561.520,-648.640
816440.000,4464461.520,-648.690
816440.000,4464361.520,-649.200
816440.000,4464261.520,-649.640
816440.000,4464161.520,-649.640
816440.000,4463661.520,-649.610
816440.000,4463561.520,-647.080
816440.000,4463461.520,-644.990
816440.000,4463361.520,-642.200
816440.000,4463261.520,-639.980
816440.000,4463161.520,-638.090
816440.000,4463061.520,-637.470
816440.000,4462961.520,-636.540
816440.000,4462861.520,-635.450
816440.000,4462761.520,-634.010
816440.000,4462661.520,-633.150
816440.000,4462561.520,-631.730
816440.000,4462461.520,-630.020
816440.000,4462361.520,-627.490
816440.000,4462261.520,-624.950
816440.000,4462161.520,-622.680
816440.000,4462061.520,-620.150
816440.000,4461961.520,-617.960
816440.000,4461861.520,-615.290
816440.000,4461761.520,-612.860
816440.000,4461661.520,-611.230
816440.000,4461561.520,-609.330
816440.000,4461461.520,-608.370
816440.000,4461361.520,-607.100
816440.000,4461261.520,-605.150
816440.000,4461161.520,-604.730
816440.000,4461061.520,-603.870
816440.000,4460961.520,-604.360
816440.000,4460861.520,-604.200
816440.000,4460761.520,-603.620
816440.000,4460661.520,-602.920
816440.000,4460561.520,-602.010
816440.000,4460461.520,-600.940
816440.000,4460361.520,-599.510
816440.000,4460261.520,-597.370
816440.000,4460161.520,-595.610
816440.000,4460061.520,-594.280
816440.000,4459961.520,-592.820
816440.000,4459861.520,-591.150
816440.000,4459761.520,-590.150
816440.000,4459661.520,-588.660
816440.000,4459561.520,-587.010
816440.000,4459461.520,-584.530
816440.000,4459361.520,-581.250
816440.000,4459261.520,-577.890
816440.000,4459161.520,-574.080
816440.000,4459061.520,-570.230
816440.000,4458961.520,-562.940
816440.000,4458861.520,-546.940
816440.000,4458761.520,-535.250
816440.000,4458661.520,-524.340
816440.000,4458561.520,-513.730
816440.000,4458461.520,-504.530
816440.000,4458361.520,-496.590
816440.000,4458261.520,-492.720
816440.000,4458161.520,-491.600
816440.000,4458061.520,-503.330
816440.000,4457961.520,-509.130
816440.000,4457861.520,-510.230
816440.000,4457761.520,-510.360
816440.000,4457661.520,-509.020
816440.000,4457561.520,-500.080
816440.000,4457461.520,-487.820
816440.000,4457361.520,-476.670
816440.000,4457261.520,-461.230
816440.000,4457161.520,-446.970
816440.000,4457061.520,-432.650
816440.000,4456961.520,-428.800
816440.000,4456861.520,-435.720
816440.000,4456761.520,-448.160
816440.000,4456661.520,-473.890
816440.000,4456561.520,-500.500
816440.000,4456461.520,-509.200
816440.000,4456361.520,-512.010
816440.000,4456261.520,-512.130
816440.000,4456161.520,-512.220
816440.000,4456061.520,-507.280
816440.000,4455961.520,-494.860
816440.000,4455861.520,-485.990
816440.000,4455761.520,-482.450
816440.000,4455661.520,-480.220
816440.000,4455561.520,-477.410
816440.000,4455461.520,-471.890
816440.000,4455361.520,-466.740
816440.000,4455261.520,-467.460
816440.000,4455161.520,-494.620
816440.000,4455061.520,-514.750
816440.000,4454961.520,-525.410
816440.000,4454861.520,-518.330
816440.000,4454761.520,-518.950
816440.000,4454661.520,-522.110
816440.000,4454561.520,-530.840
816440.000,4454461.520,-542.410
816440.000,4454361.520,-551.930
816440.000,4454261.520,-563.660
816440.000,4454161.520,-568.370
816440.000,4454061.520,-568.020
816440.000,4453961.520,-569.760
816440.000,4453861.520,-571.320
816440.000,4453761.520,-573.620
816440.000,4453661.520,-575.290
816440.000,4453561.520,-579.890
816440.000,4453461.520,-585.870
816440.000,4453361.520,-589.990
816440.000,4453261.520,-592.510
816440.000,4453161.520,-592.750
816440.000,4453061.520,-591.170
816440.000,4452961.520,-590.130
816440.000,4452861.520,-586.890
816440.000,4452761.520,-578.470
816440.000,4452661.520,-570.640
816440.000,4452561.520,-566.300
816440.000,4452461.520,-562.030
816440.000,4452361.520,-559.410
816440.000,4452261.520,-556.760
816440.000,4452161.520,-553.860
816440.000,4452061.520,-551.300
816440.000,4451961.520,-546.840
816440.000,4451861.520,-541.150
816440.000,4451761.520,-536.880
816440.000,4451661.520,-527.360
816440.000,4451561.520,-494.110
816440.000,4451461.520,-447.440
816440.000,4451361.520,-412.290
816440.000,4451261.520,-397.560
816440.000,4451161.520,-380.870
816440.000,4451061.520,-375.710
816440.000,4450961.520,-377.550
816440.000,4450861.520,-358.690
816440.000,4450761.520,-345.140
816440.000,4450661.520,-321.800
816440.000,4450561.520,-283.580
816440.000,4450461.520,-258.590
816440.000,4450361.520,-243.660
816440.000,4450261.520,-231.990
816440.000,4450161.520,-224.410
816440.000,4450061.520,-214.040
816440.000,4449961.520,-215.820
816440.000,4449861.520,-213.110
816440.000,4449761.520,-212.090
816440.000,4449661.520,-212.940
816440.000,4449561.520,-214.290
816440.000,4449461.520,-212.640
816440.000,4449361.520,-207.720
816440.000,4449261.520,-208.840
816440.000,4449161.520,-212.500
816440.000,4449061.520,-220.840
816440.000,4448961.520,-225.000
816440.000,4448861.520,-230.330
816440.000,4448761.520,-235.510
816440.000,4448661.520,-239.780
816440.000,4448561.520,-262.980
816440.000,4448461.520,-285.930
816440.000,4448361.520,-314.490
816440.000,4448261.520,-336.360
816440.000,4448161.520,-349.480
816440.000,4448061.520,-352.980
816440.000,4447961.520,-362.040
816440.000,4447861.520,-364.660
816440.000,4447761.520,-369.450
816440.000,4447661.520,-357.980
816440.000,4447561.520,-346.220
816440.000,4447461.520,-335.500
816440.000,4447361.520,-323.420
816440.000,4447261.520,-310.790
816440.000,4447161.520,-298.040
816440.000,4447061.520,-289.920
816440.000,4446961.520,-285.440
816440.000,4446861.520,-256.200
816440.000,4446761.520,-223.700
816440.000,4446661.520,-207.160
816440.000,4446561.520,-202.470
816440.000,4446461.520,-194.620
816440.000,4446361.520,-180.390
816440.000,4446261.520,-195.550
816440.000,4446161.520,-173.380
816440.000,4446061.520,-175.370
816440.000,4445961.520,-194.850
816440.000,4445861.520,-193.690
816440.000,4445761.520,-180.460
816440.000,4445661.520,-161.950
816440.000,4444961.520,-162.650
816440.000,4444861.520,-185.410
816440.000,4444761.520,-197.950
816440.000,4444661.520,-210.990
816440.000,4444561.520,-219.730
816440.000,4444461.520,-219.380
816440.000,4444361.520,-204.210
816440.000,4444261.520,-192.420
816440.000,4444161.520,-191.610
816440.000,4444061.520,-177.600
816440.000,4443961.520,-161.140
816440.000,4416561.520,-150.160
816440.000,4416461.520,-152.940
816440.000,4416361.520,-154.760
816440.000,4416261.520,-156.450
816440.000,4416161.520,-158.070
816440.000,4416061.520,-159.720
816440.000,4415961.520,-162.460
816440.000,4415861.520,-165.300
816440.000,4415761.520,-166.950
816440.000,4415661.520,-167.660
816440.000,4415561.520,-168.320
816440.000,4415461.520,-170.450
816440.000,4415361.520,-170.470
816440.000,4415261.520,-171.310
816440.000,4415161.520,-173.030
816440.000,4415061.520,-175.160
816440.000,4414961.520,-176.580
816440.000,4414861.520,-176.950
816440.000,4414761.520,-177.720
816440.000,4414661.520,-177.680
816440.000,4414561.520,-177.700
816440.000,4414461.520,-178.370
816440.000,4414361.520,-179.630
816440.000,4414261.520,-180.600
816440.000,4414161.520,-181.710
816440.000,4414061.520,-183.090
816440.000,4413961.520,-184.760
816440.000,4413861.520,-187.050
816440.000,4413761.520,-189.010
816440.000,4413661.520,-191.370
816440.000,4413561.520,-193.950
816440.000,4413461.520,-196.600
816440.000,4413361.520,-199.480
816440.000,4413261.520,-202.800
816440.000,4413161.520,-206.100
816440.000,4413061.520,-209.070
816440.000,4412961.520,-211.880
816440.000,4412861.520,-214.760
816440.000,4412761.520,-217.260
816440.000,4412661.520,-219.240
816440.000,4412561.520,-221.560
816440.000,4412461.520,-224.600
816440.000,4412361.520,-227.780
816440.000,4412261.520,-229.990
816440.000,4412161.520,-231.480
816440.000,4412061.520,-234.220
816440.000,4411961.520,-237.320
816440.000,4411861.520,-241.000
816440.000,4411761.520,-243.990
816440.000,4411661.520,-247.680
816440.000,4411561.520,-252.020
816440.000,4411461.520,-255.530
816440.000,4411361.520,-258.500
816440.000,4411261.520,-262.150
816540.000,4463461.520,-648.110
816540.000,4463361.520,-644.940
816540.000,4463261.520,-642.410
816540.000,4463161.520,-640.690
816540.000,4463061.520,-639.890
816540.000,4462961.520,-639.160
816540.000,4462861.520,-638.400
816540.000,4462761.520,-637.440
816540.000,4462661.520,-636.590
816540.000,4462561.520,-635.750
816540.000,4462461.520,-633.910
816540.000,4462361.520,-631.320
816540.000,4462261.520,-629.160
816540.000,4462161.520,-627.620
816540.000,4462061.520,-625.560
816540.000,4461961.520,-623.370
816540.000,4461861.520,-620.560
816540.000,4461761.520,-618.360
816540.000,4461661.520,-616.530
816540.000,4461561.520,-614.530
816540.000,4461461.520,-612.780
816540.000,4461361.520,-611.190
816540.000,4461261.520,-610.510
816540.000,4461161.520,-609.100
816540.000,4461061.520,-609.810
816540.000,4460961.520,-609.600
816540.000,4460861.520,-608.280
816540.000,4460761.520,-606.770
816540.000,4460661.520,-605.840
816540.000,4460561.520,-604.680
816540.000,4460461.520,-603.480
816540.000,4460361.520,-601.640
816540.000,4460261.520,-599.480
816540.000,4460161.520,-598.090
816540.000,4460061.520,-596.630
816540.000,4459961.520,-595.280
816540.000,4459861.520,-593.740
816540.000,4459761.520,-592.400
816540.000,4459661.520,-591.030
816540.000,4459561.520,-589.220
816540.000,4459461.520,-586.730
816540.000,4459361.520,-583.500
816540.000,4459261.520,-579.750
816540.000,4459161.520,-575.630
816540.000,4459061.520,-570.500
816540.000,4458961.520,-562.560
816540.000,4458861.520,-548.840
816540.000,4458761.520,-537.900
816540.000,4458661.520,-529.030
816540.000,4458561.520,-519.350
816540.000,4458461.520,-511.060
816540.000,4458361.520,-505.170
816540.000,4458261.520,-502.280
816540.000,4458161.520,-503.190
816540.000,4458061.520,-512.870
816540.000,4457961.520,-520.630
816540.000,4457861.520,-521.390
816540.000,4457761.520,-522.120
816540.000,4457661.520,-519.230
816540.000,4457561.520,-516.080
816540.000,4457461.520,-516.860
816540.000,4457361.520,-513.290
816540.000,4457261.520,-507.480
816540.000,4457161.520,-492.050
816540.000,4457061.520,-475.370
816540.000,4456961.520,-456.930
816540.000,4456861.520,-463.880
816540.000,4456761.520,-476.840
816540.000,4456661.520,-500.500
816540.000,4456561.520,-518.400
816540.000,4456461.520,-522.340
816540.000,4456361.520,-523.740
816540.000,4456261.520,-520.140
816540.000,4456161.520,-516.500
816540.000,4456061.520,-512.500
816540.000,4455961.520,-502.560
816540.000,4455861.520,-492.120
816540.000,4455761.520,-486.640
816540.000,4455661.520,-483.900
816540.000,4455561.520,-481.640
816540.000,4455461.520,-479.130
816540.000,4455361.520,-475.630
816540.000,4455261.520,-477.090
816540.000,4455161.520,-510.080
816540.000,4455061.520,-526.180
816540.000,4454961.520,-532.420
816540.000,4454861.520,-530.030
816540.000,4454761.520,-533.370
816540.000,4454661.520,-535.020
816540.000,4454561.520,-536.700
816540.000,4454461.520,-545.870
816540.000,4454361.520,-556.850
816540.000,4454261.520,-566.460
816540.000,4454161.520,-570.570
816540.000,4454061.520,-573.800
816540.000,4453961.520,-573.710
816540.000,4453861.520,-575.500
816540.000,4453761.520,-576.570
816540.000,4453661.520,-577.260
816540.000,4453561.520,-578.660
816540.000,4453461.520,-583.110
816540.000,4453361.520,-588.730
816540.000,4453261.520,-594.190
816540.000,4453161.520,-596.190
816540.000,4453061.520,-594.880
816540.000,4452961.520,-593.230
816540.000,4452861.520,-590.120
816540.000,4452761.520,-588.820
816540.000,4452661.520,-574.290
816540.000,4452561.520,-568.230
816540.000,4452461.520,-563.420
816540.000,4452361.520,-559.800
816540.000,4452261.520,-556.220
816540.000,4452161.520,-553.160
816540.000,4452061.520,-549.610
816540.000,4451961.520,-546.360
816540.000,4451861.520,-542.240
816540.000,4451761.520,-538.790
816540.000,4451661.520,-528.920
816540.000,4451561.520,-494.180
816540.000,4451461.520,-450.580
816540.000,4451361.520,-425.360
816540.000,4451261.520,-408.660
816540.000,4451161.520,-388.560
816540.000,4451061.520,-396.780
816540.000,4450961.520,-388.630
816540.000,4450861.520,-369.070
816540.000,4450761.520,-360.020
816540.000,4450661.520,-343.300
816540.000,4450561.520,-299.760
816540.000,4450461.520,-266.020
816540.000,4450361.520,-243.600
816540.000,4450261.520,-229.250
816540.000,4450161.520,-226.440
816540.000,4450061.520,-227.390
816540.000,4449961.520,-232.330
816540.000,4449861.520,-226.710
816540.000,4449761.520,-223.090
816540.000,4449661.520,-220.740
816540.000,4449561.520,-219.870
816540.000,4449461.520,-215.990
816540.000,4449361.520,-213.800
816540.000,4449261.520,-220.000
816540.000,4449161.520,-227.220
816540.000,4449061.520,-235.510
816540.000,4448961.520,-239.670
816540.000,4448861.520,-244.680
816540.000,4448761.520,-249.680
816540.000,4448661.520,-251.560
816540.000,4448561.520,-266.100
816540.000,4448461.520,-287.200
816540.000,4448361.520,-316.480
816540.000,4448261.520,-335.540
816540.000,4448161.520,-354.230
816540.000,4448061.520,-367.800
816540.000,4447961.520,-371.530
816540.000,4447861.520,-373.130
816540.000,4447761.520,-382.350
816540.000,4447661.520,-367.080
816540.000,4447561.520,-358.560
816540.000,4447461.520,-353.790
816540.000,4447361.520,-340.380
816540.000,4447261.520,-326.280
816540.000,4447161.520,-312.120
816540.000,4447061.520,-308.150
816540.000,4446961.520,-282.250
816540.000,4446861.520,-254.670
816540.000,4446761.520,-233.050
816540.000,4446661.520,-220.580
816540.000,4446561.520,-214.110
816540.000,4446461.520,-201.240
816540.000,4446361.520,-178.250
816540.000,4446261.520,-187.470
816540.000,4446161.520,-190.100
816540.000,4446061.520,-192.540
816540.000,4445961.520,-207.440
816540.000,4445861.520,-211.200
816540.000,4445761.520,-195.990
816540.000,4445661.520,-176.580
816540.000,4445561.520,-157.490
816540.000,4444961.520,-164.790
816540.000,4444861.520,-194.410
816540.000,4444761.520,-207.120
816540.000,4444661.520,-218.630
816540.000,4444561.520,-228.080
816540.000,4444461.520,-231.010
816540.000,4444361.520,-216.500
816540.000,4444261.520,-209.280
816540.000,4444161.520,-203.120
816540.000,4444061.520,-191.120
816540.000,4443961.520,-180.140
816540.000,4443861.520,-155.430
816540.000,4416661.520,-150.570
816540.000,4416561.520,-153.320
816540.000,4416461.520,-155.730
816540.000,4416361.520,-157.030
816540.000,4416261.520,-160.170
816540.000,4416161.520,-162.110
816540.000,4416061.520,-165.110
816540.000,4415961.520,-168.340
816540.000,4415861.520,-171.520
816540.000,4415761.520,-172.490
816540.000,4415661.520,-172.680
816540.000,4415561.520,-173.520
816540.000,4415461.520,-175.070
816540.000,4415361.520,-176.370
816540.000,4415261.520,-177.400
816540.000,4415161.520,-178.970
816540.000,4415061.520,-180.860
816540.000,4414961.520,-181.600
816540.000,4414861.520,-181.090
816540.000,4414761.520,-180.830
816540.000,4414661.520,-180.270
816540.000,4414561.520,-181.110
816540.000,4414461.520,-182.430
816540.000,4414361.520,-183.060
816540.000,4414261.520,-183.660
816540.000,4414161.520,-184.780
816540.000,4414061.520,-186.660
816540.000,4413961.520,-188.860
816540.000,4413861.520,-190.820
816540.000,4413761.520,-192.880
816540.000,4413661.520,-195.390
816540.000,4413561.520,-198.110
816540.000,4413461.520,-200.800
816540.000,4413361.520,-204.140
816540.000,4413261.520,-207.760
816540.000,4413161.520,-210.580
816540.000,4413061.520,-213.130
816540.000,4412961.520,-216.050
816540.000,4412861.520,-219.440
816540.000,4412761.520,-221.100
816540.000,4412661.520,-223.810
816540.000,4412561.520,-227.150
816540.000,4412461.520,-229.940
816540.000,4412361.520,-232.290
816540.000,4412261.520,-234.150
816540.000,4412161.520,-236.630
816540.000,4412061.520,-240.350
816540.000,4411961.520,-242.940
816540.000,4411861.520,-245.500
816540.000,4411761.520,-247.770
816540.000,4411661.520,-252.020
816540.000,4411561.520,-255.830
816540.000,4411461.520,-257.880
816540.000,4411361.520,-260.920
816540.000,4411261.520,-265.100
816640.000,4463361.520,-648.980
816640.000,4463261.520,-646.060
816640.000,4463161.520,-643.920
816640.000,4463061.520,-642.670
816640.000,4462961.520,-642.410
816640.000,4462861.520,-641.650
816640.000,4462761.520,-641.260
816640.000,4462661.520,-640.610
816640.000,4462561.520,-639.770
816640.000,4462461.520,-637.650
816640.000,4462361.520,-635.940
816640.000,4462261.520,-634.010
816640.000,4462161.520,-632.780
816640.000,4462061.520,-631.020
816640.000,4461961.520,-628.250
816640.000,4461861.520,-625.970
816640.000,4461761.520,-623.540
816640.000,4461661.520,-621.450
816640.000,4461561.520,-619.800
816640.000,4461461.520,-616.810
816640.000,4461361.520,-615.080
816640.000,4461261.520,-615.290
816640.000,4461161.520,-615.250
816640.000,4461061.520,-614.550
816640.000,4460961.520,-612.740
816640.000,4460861.520,-611.880
816640.000,4460761.520,-610.120
816640.000,4460661.520,-608.650
816640.000,4460561.520,-607.380
816640.000,4460461.520,-605.730
816640.000,4460361.520,-603.660
816640.000,4460261.520,-601.810
816640.000,4460161.520,-600.670
816640.000,4460061.520,-599.200
816640.000,4459961.520,-597.990
816640.000,4459861.520,-596.530
816640.000,4459761.520,-595.140
816640.000,4459661.520,-593.680
816640.000,4459561.520,-591.570
816640.000,4459461.520,-589.060
816640.000,4459361.520,-585.870
816640.000,4459261.520,-582.000
816640.000,4459161.520,-576.750
816640.000,4459061.520,-569.650
816640.000,4458961.520,-560.770
816640.000,4458861.520,-550.700
816640.000,4458761.520,-541.970
816640.000,4458661.520,-533.810
816640.000,4458561.520,-525.530
816640.000,4458461.520,-519.070
816640.000,4458361.520,-515.570
816640.000,4458261.520,-513.800
816640.000,4458161.520,-514.550
816640.000,4458061.520,-524.710
816640.000,4457961.520,-529.240
816640.000,4457861.520,-529.100
816640.000,4457761.520,-528.340
816640.000,4457661.520,-530.680
816640.000,4457561.520,-530.130
816640.000,4457461.520,-532.100
816640.000,4457361.520,-527.850
816640.000,4457261.520,-525.620
816640.000,4457161.520,-524.650
816640.000,4457061.520,-515.270
816640.000,4456961.520,-500.200
816640.000,4456861.520,-504.560
816640.000,4456761.520,-514.380
816640.000,4456661.520,-521.690
816640.000,4456561.520,-525.950
816640.000,4456461.520,-527.890
816640.000,4456361.520,-528.640
816640.000,4456261.520,-524.070
816640.000,4456161.520,-520.020
816640.000,4456061.520,-514.270
816640.000,4455961.520,-507.180
816640.000,4455861.520,-499.010
816640.000,4455761.520,-493.620
816640.000,4455661.520,-490.810
816640.000,4455561.520,-486.780
816640.000,4455461.520,-484.130
816640.000,4455361.520,-483.340
816640.000,4455261.520,-489.810
816640.000,4455161.520,-520.460
816640.000,4455061.520,-536.470
816640.000,4454961.520,-536.650
816640.000,4454861.520,-541.250
816640.000,4454761.520,-544.260
816640.000,4454661.520,-546.610
816640.000,4454561.520,-545.710
816640.000,4454461.520,-551.740
816640.000,4454361.520,-559.150
816640.000,4454261.520,-569.250
816640.000,4454161.520,-572.570
816640.000,4454061.520,-577.220
816640.000,4453961.520,-577.490
816640.000,4453861.520,-579.580
816640.000,4453761.520,-580.630
816640.000,4453661.520,-581.600
816640.000,4453561.520,-581.020
816640.000,4453461.520,-583.110
816640.000,4453361.520,-589.660
816640.000,4453261.520,-594.880
816640.000,4453161.520,-597.990
816640.000,4453061.520,-598.740
816640.000,4452961.520,-596.110
816640.000,4452861.520,-596.180
816640.000,4452761.520,-596.000
816640.000,4452661.520,-580.120
816640.000,4452561.520,-568.790
816640.000,4452461.520,-563.240
816640.000,4452361.520,-558.820
816640.000,4452261.520,-555.800
816640.000,4452161.520,-551.860
816640.000,4452061.520,-548.810
816640.000,4451961.520,-545.710
816640.000,4451861.520,-542.530
816640.000,4451761.520,-539.340
816640.000,4451661.520,-533.840
816640.000,4451561.520,-498.590
816640.000,4451461.520,-447.560
816640.000,4451361.520,-426.910
816640.000,4451261.520,-410.520
816640.000,4451161.520,-399.580
816640.000,4451061.520,-415.070
816640.000,4450961.520,-400.230
816640.000,4450861.520,-387.400
816640.000,4450761.520,-378.680
816640.000,4450661.520,-353.770
816640.000,4450561.520,-319.430
816640.000,4450461.520,-289.660
816640.000,4450361.520,-254.480
816640.000,4450261.520,-233.910
816640.000,4450161.520,-241.740
816640.000,4450061.520,-248.630
816640.000,4449961.520,-250.790
816640.000,4449861.520,-246.730
816640.000,4449761.520,-239.780
816640.000,4449661.520,-234.100
816640.000,4449561.520,-227.200
816640.000,4449461.520,-219.310
816640.000,4449361.520,-217.980
816640.000,4449261.520,-229.290
816640.000,4449161.520,-240.970
816640.000,4449061.520,-251.770
816640.000,4448961.520,-263.210
816640.000,4448861.520,-273.690
816640.000,4448761.520,-289.970
816640.000,4448661.520,-289.570
816640.000,4448561.520,-304.170
816640.000,4448461.520,-301.800
816640.000,4448361.520,-325.160
816640.000,4448261.520,-337.790
816640.000,4448161.520,-351.660
816640.000,4448061.520,-366.870
816640.000,4447961.520,-381.630
816640.000,4447861.520,-386.030
816640.000,4447761.520,-394.150
816640.000,4447661.520,-378.340
816640.000,4447561.520,-367.260
816640.000,4447461.520,-362.040
816640.000,4447361.520,-350.980
816640.000,4447261.520,-336.260
816640.000,4447161.520,-336.840
816640.000,4447061.520,-320.340
816640.000,4446961.520,-293.560
816640.000,4446861.520,-267.390
816640.000,4446761.520,-245.290
816640.000,4446661.520,-231.700
816640.000,4446561.520,-221.190
816640.000,4446461.520,-202.080
816640.000,4446361.520,-182.870
816640.000,4446261.520,-164.580
816640.000,4446161.520,-177.390
816640.000,4446061.520,-196.850
816640.000,4445961.520,-213.940
816640.000,4445861.520,-220.510
816640.000,4445761.520,-207.190
816640.000,4445661.520,-190.330
816640.000,4445561.520,-168.780
816640.000,4445461.520,-155.240
816640.000,4444961.520,-157.920
816640.000,4444861.520,-192.350
816640.000,4444761.520,-215.130
816640.000,4444661.520,-228.940
816640.000,4444561.520,-231.270
816640.000,4444461.520,-242.530
816640.000,4444361.520,-232.560
816640.000,4444261.520,-224.270
816640.000,4444161.520,-211.880
816640.000,4444061.520,-195.200
816640.000,4443961.520,-169.550
816640.000,4416861.520,-150.140
816640.000,4416761.520,-152.570
816640.000,4416661.520,-154.320
816640.000,4416561.520,-156.700
816640.000,4416461.520,-159.940
816640.000,4416361.520,-163.000
816640.000,4416261.520,-165.720
816640.000,4416161.520,-169.010
816640.000,4416061.520,-173.120
816640.000,4415961.520,-176.820
816640.000,4415861.520,-178.070
816640.000,4415761.520,-177.680
816640.000,4415661.520,-177.840
816640.000,4415561.520,-179.340
816640.000,4415461.520,-182.500
816640.000,4415361.520,-183.480
816640.000,4415261.520,-183.110
816640.000,4415161.520,-184.170
816640.000,4415061.520,-184.940
816640.000,4414961.520,-185.100
816640.000,4414861.520,-184.130
816640.000,4414761.520,-183.270
816640.000,4414661.520,-183.730
816640.000,4414561.520,-184.540
816640.000,4414461.520,-184.890
816640.000,4414361.520,-185.570
816640.000,4414261.520,-187.400
816640.000,4414161.520,-189.470
816640.000,4414061.520,-191.440
816640.000,4413961.520,-192.830
816640.000,4413861.520,-194.620
816640.000,4413761.520,-197.020
816640.000,4413661.520,-199.660
816640.000,4413561.520,-202.610
816640.000,4413461.520,-205.980
816640.000,4413361.520,-209.070
816640.000,4413261.520,-212.150
816640.000,4413161.520,-214.690
816640.000,4413061.520,-217.800
816640.000,4412961.520,-221.030
816640.000,4412861.520,-223.280
816640.000,4412761.520,-225.970
816640.000,4412661.520,-228.450
816640.000,4412561.520,-231.560
816640.000,4412461.520,-234.860
816640.000,4412361.520,-236.440
816640.000,4412261.520,-239.070
816640.000,4412161.520,-242.590
816640.000,4412061.520,-244.970
816640.000,4411961.520,-247.470
816640.000,4411861.520,-249.070
816640.000,4411761.520,-253.420
816640.000,4411661.520,-257.780
816640.000,4411561.520,-260.190
816640.000,4411461.520,-263.070
816640.000,4411361.520,-265.450
816640.000,4411261.520,-268.790
816740.000,4463161.520,-647.940
816740.000,4463061.520,-646.090
816740.000,4462961.520,-645.920
816740.000,4462861.520,-645.250
816740.000,4462761.520,-645.060
816740.000,4462661.520,-644.430
816740.000,4462561.520,-643.510
816740.000,4462461.520,-641.580
816740.000,4462361.520,-640.120
816740.000,4462261.520,-639.160
816740.000,4462161.520,-638.980
816740.000,4462061.520,-635.640
816740.000,4461961.520,-633.260
816740.000,4461861.520,-630.570
816740.000,4461761.520,-628.070
816740.000,4461661.520,-625.720
816740.000,4461561.520,-623.030
816740.000,4461461.520,-620.570
816740.000,4461361.520,-619.890
816740.000,4461261.520,-618.150
816740.000,4461161.520,-618.690
816740.000,4461061.520,-617.200
816740.000,4460961.520,-616.180
816740.000,4460861.520,-614.580
816740.000,4460761.520,-613.090
816740.000,4460661.520,-611.440
816740.000,4460561.520,-609.910
816740.000,4460461.520,-608.230
816740.000,4460361.520,-606.360
816740.000,4460261.520,-604.820
816740.000,4460161.520,-603.340
816740.000,4460061.520,-601.920
816740.000,4459961.520,-600.370
816740.000,4459861.520,-599.200
816740.000,4459761.520,-597.760
816740.000,4459661.520,-596.330
816740.000,4459561.520,-594.420
816740.000,4459461.520,-591.980
816740.000,4459361.520,-588.080
816740.000,4459261.520,-583.570
816740.000,4459161.520,-577.350
816740.000,4459061.520,-569.550
816740.000,4458961.520,-560.170
816740.000,4458861.520,-551.790
816740.000,4458761.520,-545.200
816740.000,4458661.520,-540.010
816740.000,4458561.520,-534.160
816740.000,4458461.520,-527.800
816740.000,4458361.520,-525.880
816740.000,4458261.520,-525.850
816740.000,4458161.520,-530.750
816740.000,4458061.520,-534.560
816740.000,4457961.520,-535.680
816740.000,4457861.520,-532.380
816740.000,4457761.520,-530.730
816740.000,4457661.520,-534.160
816740.000,4457561.520,-536.390
816740.000,4457461.520,-537.120
816740.000,4457361.520,-535.680
816740.000,4457261.520,-532.590
816740.000,4457161.520,-534.540
816740.000,4457061.520,-533.310
816740.000,4456961.520,-528.450
816740.000,4456861.520,-530.700
816740.000,4456761.520,-533.880
816740.000,4456661.520,-533.170
816740.000,4456561.520,-532.260
816740.000,4456461.520,-531.310
816740.000,4456361.520,-529.610
816740.000,4456261.520,-526.940
816740.000,4456161.520,-523.130
816740.000,4456061.520,-517.930
816740.000,4455961.520,-511.600
816740.000,4455861.520,-504.740
816740.000,4455761.520,-500.450
816740.000,4455661.520,-497.730
816740.000,4455561.520,-493.880
816740.000,4455461.520,-490.840
816740.000,4455361.520,-490.700
816740.000,4455261.520,-502.030
816740.000,4455161.520,-529.010
816740.000,4455061.520,-541.380
816740.000,4454961.520,-546.770
816740.000,4454861.520,-553.580
816740.000,4454761.520,-556.800
816740.000,4454661.520,-559.570
816740.000,4454561.520,-556.450
816740.000,4454461.520,-560.940
816740.000,4454361.520,-566.000
816740.000,4454261.520,-566.420
816740.000,4454161.520,-574.270
816740.000,4454061.520,-580.110
816740.000,4453961.520,-581.510
816740.000,4453861.520,-582.110
816740.000,4453761.520,-583.410
816740.000,4453661.520,-584.900
816740.000,4453561.520,-584.790
816740.000,4453461.520,-584.570
816740.000,4453361.520,-590.010
816740.000,4453261.520,-595.420
816740.000,4453161.520,-599.340
816740.000,4453061.520,-601.020
816740.000,4452961.520,-598.370
816740.000,4452861.520,-600.020
816740.000,4452761.520,-600.230
816740.000,4452661.520,-592.380
816740.000,4452561.520,-571.290
816740.000,4452461.520,-563.750
816740.000,4452361.520,-558.540
816740.000,4452261.520,-554.860
816740.000,4452161.520,-552.160
816740.000,4452061.520,-548.420
816740.000,4451961.520,-544.660
816740.000,4451861.520,-541.960
816740.000,4451761.520,-539.500
816740.000,4451661.520,-527.060
816740.000,4451561.520,-502.560
816740.000,4451461.520,-464.970
816740.000,4451361.520,-425.940
816740.000,4451261.520,-412.930
816740.000,4451161.520,-417.760
816740.000,4451061.520,-427.610
816740.000,4450961.520,-409.290
816740.000,4450861.520,-398.490
816740.000,4450761.520,-380.060
816740.000,4450661.520,-355.070
816740.000,4450561.520,-331.740
816740.000,4450461.520,-309.770
816740.000,4450361.520,-265.240
816740.000,4450261.520,-246.890
816740.000,4450161.520,-258.830
816740.000,4450061.520,-270.530
816740.000,4449961.520,-273.600
816740.000,4449861.520,-266.750
816740.000,4449761.520,-259.780
816740.000,4449661.520,-250.090
816740.000,4449561.520,-239.410
816740.000,4449461.520,-224.860
816740.000,4449361.520,-221.390
816740.000,4449261.520,-230.520
816740.000,4449161.520,-248.290
816740.000,4449061.520,-264.580
816740.000,4448961.520,-284.250
816740.000,4448861.520,-304.970
816740.000,4448761.520,-332.530
816740.000,4448661.520,-334.540
816740.000,4448561.520,-339.770
816740.000,4448461.520,-340.560
816740.000,4448361.520,-334.310
816740.000,4448261.520,-345.780
816740.000,4448161.520,-361.900
816740.000,4448061.520,-377.130
816740.000,4447961.520,-390.640
816740.000,4447861.520,-402.930
816740.000,4447761.520,-406.130
816740.000,4447661.520,-394.040
816740.000,4447561.520,-379.030
816740.000,4447461.520,-369.490
816740.000,4447361.520,-355.100
816740.000,4447261.520,-351.450
816740.000,4447161.520,-352.430
816740.000,4447061.520,-319.760
816740.000,4446961.520,-303.730
816740.000,4446861.520,-283.740
816740.000,4446761.520,-252.950
816740.000,4446661.520,-231.570
816740.000,4446561.520,-214.640
816740.000,4446461.520,-195.580
816740.000,4446361.520,-184.080
816740.000,4446261.520,-172.700
816740.000,4446161.520,-167.660
816740.000,4446061.520,-188.350
816740.000,4445961.520,-211.200
816740.000,4445861.520,-227.340
816740.000,4445761.520,-221.020
816740.000,4445661.520,-203.490
816740.000,4445561.520,-191.960
816740.000,4445461.520,-173.450
816740.000,4445361.520,-157.640
816740.000,4444961.520,-156.150
816740.000,4444861.520,-186.190
816740.000,4444761.520,-222.930
816740.000,4444661.520,-242.690
816740.000,4444561.520,-252.490
816740.000,4444461.520,-251.540
816740.000,4444361.520,-244.110
816740.000,4444261.520,-228.940
816740.000,4444161.520,-205.910
816740.000,4444061.520,-185.870
816740.000,4443961.520,-167.290
816740.000,4423061.520,-151.360
816740.000,4416961.520,-150.210
816740.000,4416861.520,-152.740
816740.000,4416761.520,-156.470
816740.000,4416661.520,-159.400
816740.000,4416561.520,-162.330
816740.000,4416461.520,-165.830
816740.000,4416361.520,-169.390
816740.000,4416261.520,-173.030
816740.000,4416161.520,-177.350
816740.000,4416061.520,-180.970
816740.000,4415961.520,-182.520
816740.000,4415861.520,-182.670
816740.000,4415761.520,-182.570
816740.000,4415661.520,-183.620
816740.000,4415561.520,-186.820
816740.000,4415461.520,-192.320
816740.000,4415361.520,-191.460
816740.000,4415261.520,-188.930
816740.000,4415161.520,-188.150
816740.000,4415061.520,-188.290
816740.000,4414961.520,-188.680
816740.000,4414861.520,-187.960
816740.000,4414761.520,-187.450
816740.000,4414661.520,-187.170
816740.000,4414561.520,-187.190
816740.000,4414461.520,-188.190
816740.000,4414361.520,-189.910
816740.000,4414261.520,-191.400
816740.000,4414161.520,-192.970
816740.000,4414061.520,-194.280
816740.000,4413961.520,-196.020
816740.000,4413861.520,-198.450
816740.000,4413761.520,-201.480
816740.000,4413661.520,-204.330
816740.000,4413561.520,-207.610
816740.000,4413461.520,-210.830
816740.000,4413361.520,-214.540
816740.000,4413261.520,-217.240
816740.000,4413161.520,-220.300
816740.000,4413061.520,-223.000
816740.000,4412961.520,-224.600
816740.000,4412861.520,-227.550
816740.000,4412761.520,-230.110
816740.000,4412661.520,-233.100
816740.000,4412561.520,-236.630
816740.000,4412461.520,-238.910
816740.000,4412361.520,-240.480
816740.000,4412261.520,-243.480
816740.000,4412161.520,-247.190
816740.000,4412061.520,-251.910
816740.000,4411961.520,-254.710
816740.000,4411861.520,-256.920
816740.000,4411761.520,-260.130
816740.000,4411661.520,-262.770
816740.000,4411561.520,-263.610
816740.000,4411461.520,-266.370
816740.000,4411361.520,-270.160
816740.000,4411261.520,-273.130
816840.000,4462961.520,-649.730
816840.000,4462861.520,-649.100
816840.000,4462761.520,-649.120
816840.000,4462661.520,-647.710
816840.000,4462561.520,-647.730
816840.000,4462461.520,-646.010
816840.000,4462361.520,-644.580
816840.000,4462261.520,-644.130
816840.000,4462161.520,-642.480
816840.000,4462061.520,-640.300
816840.000,4461961.520,-637.630
816840.000,4461861.520,-634.800
816840.000,4461761.520,-632.220
816840.000,4461661.520,-629.570
816840.000,4461561.520,-627.040
816840.000,4461461.520,-624.650
816840.000,4461361.520,-622.450
816840.000,4461261.520,-622.220
816840.000,4461161.520,-622.440
816840.000,4461061.520,-620.470
816840.000,4460961.520,-619.310
816840.000,4460861.520,-617.750
816840.000,4460761.520,-615.900
816840.000,4460661.520,-614.070
816840.000,4460561.520,-612.090
816840.000,4460461.520,-610.760
816840.000,4460361.520,-609.400
816840.000,4460261.520,-607.820
816840.000,4460161.520,-606.210
816840.000,4460061.520,-604.660
816840.000,4459961.520,-603.040
816840.000,4459861.520,-601.660
816840.000,4459761.520,-600.250
816840.000,4459661.520,-599.040
816840.000,4459561.520,-597.780
816840.000,4459461.520,-595.860
816840.000,4459361.520,-591.170
816840.000,4459261.520,-585.060
816840.000,4459161.520,-578.070
816840.000,4459061.520,-569.990
816840.000,4458961.520,-561.140
816840.000,4458861.520,-554.830
816840.000,4458761.520,-549.300
816840.000,4458661.520,-545.310
816840.000,4458561.520,-542.570
816840.000,4458461.520,-539.200
816840.000,4458361.520,-536.790
816840.000,4458261.520,-538.130
816840.000,4458161.520,-541.150
816840.000,4458061.520,-540.870
816840.000,4457961.520,-538.510
816840.000,4457861.520,-533.230
816840.000,4457761.520,-532.610
816840.000,4457661.520,-536.760
816840.000,4457561.520,-539.720
816840.000,4457461.520,-542.640
816840.000,4457361.520,-545.420
816840.000,4457261.520,-541.660
816840.000,4457161.520,-539.740
816840.000,4457061.520,-540.160
816840.000,4456961.520,-538.490
816840.000,4456861.520,-539.340
816840.000,4456761.520,-541.290
816840.000,4456661.520,-539.250
816840.000,4456561.520,-537.420
816840.000,4456461.520,-535.440
816840.000,4456361.520,-532.290
816840.000,4456261.520,-528.540
816840.000,4456161.520,-524.340
