820490.000,4459111.520,-710.330
820490.000,4458911.520,-714.510
820490.000,4458711.520,-717.190
820490.000,4458511.520,-717.310
820490.000,4458311.520,-717.380
820490.000,4458111.520,-713.050
820490.000,4457911.520,-711.010
820490.000,4457711.520,-706.720
820490.000,4457511.520,-703.330
820490.000,4457311.520,-704.230
820490.000,4457111.520,-707.090
820490.000,4456911.520,-707.080
820490.000,4456711.520,-709.270
820490.000,4456511.520,-709.640
820490.000,4456311.520,-707.380
820490.000,4456111.520,-706.140
820490.000,4455911.520,-703.150
820490.000,4455711.520,-700.130
820490.000,4455511.520,-699.640
820490.000,4455311.520,-699.920
820490.000,4455111.520,-700.280
820490.000,4454911.520,-695.640
820490.000,4454711.520,-695.640
820490.000,4454511.520,-696.450
820490.000,4454311.520,-695.040
820490.000,4454111.520,-693.070
820490.000,4453911.520,-690.240
820490.000,4453711.520,-687.810
820490.000,4453511.520,-684.360
820490.000,4453311.520,-680.630
820490.000,4453111.520,-676.580
820490.000,4452911.520,-672.760
820490.000,4452711.520,-666.630
820490.000,4452511.520,-661.990
820490.000,4452311.520,-655.330
820490.000,4452111.520,-641.720
820490.000,4451911.520,-626.260
820490.000,4451711.520,-617.530
820490.000,4451511.520,-607.350
820490.000,4449711.520,-623.480
820490.000,4449511.520,-626.070
820490.000,4449311.520,-625.820
820490.000,4449111.520,-624.560
820490.000,4448911.520,-623.830
820490.000,4448711.520,-620.110
820490.000,4448511.520,-612.960
820690.000,4466511.520,-746.620
820690.000,4466311.520,-744.760
820690.000,4466111.520,-742.730
820690.000,4465911.520,-740.550
820690.000,4465711.520,-737.540
820690.000,4465511.520,-733.570
820690.000,4465311.520,-731.290
820690.000,4465111.520,-728.900
820690.000,4464911.520,-726.810
820690.000,4464711.520,-724.220
820690.000,4464511.520,-723.660
820690.000,4464311.520,-722.920
820690.000,4464111.520,-723.040
820690.000,4463911.520,-723.360
820690.000,4463711.520,-723.480
820690.000,4463511.520,-723.990
820690.000,4463311.520,-722.930
820690.000,4463111.520,-717.960
820690.000,4462911.520,-715.180
820690.000,4462711.520,-712.840
820690.000,4462511.520,-711.080
820690.000,4462311.520,-709.110
820690.000,4462111.520,-707.520
820690.000,4461911.520,-704.740
820690.000,4461711.520,-703.820
820690.000,4461511.520,-701.530
820690.000,4461311.520,-700.270
820690.000,4461111.520,-699.470
820690.000,4460911.520,-699.260
820690.000,4460711.520,-700.060
820690.000,4460511.520,-701.910
820690.000,4460311.520,-702.960
820690.000,4460111.520,-703.210
820690.000,4459911.520,-704.020
820690.000,4459711.520,-706.780
820690.000,4459511.520,-708.150
820690.000,4459311.520,-711.170
820690.000,4459111.520,-715.470
820690.000,4458911.520,-719.660
820690.000,4458711.520,-723.570
820690.000,4458511.520,-724.510
820690.000,4458311.520,-720.850
820690.000,4458111.520,-716.770
820690.000,4457911.520,-712.950
820690.000,4457711.520,-709.800
820690.000,4457511.520,-707.720
820690.000,4457311.520,-709.840
820690.000,4457111.520,-712.460
820690.000,4456911.520,-712.540
820690.000,4456711.520,-712.470
820690.000,4456511.520,-710.750
820690.000,4456311.520,-709.290
820690.000,4456111.520,-709.100
820690.000,4455911.520,-706.900
820690.000,4455711.520,-706.260
820690.000,4455511.520,-706.520
820690.000,4455311.520,-706.520
820690.000,4455111.520,-705.220
820690.000,4454911.520,-700.090
820690.000,4454711.520,-697.910
820690.000,4454511.520,-698.030
820690.000,4454311.520,-695.960
820690.000,4454111.520,-694.400
820690.000,4453911.520,-691.760
820690.000,4453711.520,-688.990
820690.000,4453511.520,-685.850
820690.000,4453311.520,-682.570
820690.000,4453111.520,-679.250
820690.000,4452911.520,-675.350
820690.000,4452711.520,-670.290
820690.000,4452511.520,-666.350
820690.000,4452311.520,-660.110
820690.000,4452111.520,-647.970
820690.000,4451911.520,-635.560
820690.000,4451711.520,-624.440
820690.000,4451511.520,-611.100
820690.000,4449911.520,-620.720
820690.000,4449711.520,-626.780
820690.000,4449511.520,-627.770
820690.000,4449311.520,-625.940
820690.000,4449111.520,-625.200
820690.000,4448911.520,-624.200
820690.000,4448711.520,-620.800
820690.000,4448511.520,-616.670
820690.000,4448311.520,-606.470
820890.000,4466511.520,-754.050
820890.000,4466311.520,-751.190
820890.000,4466111.520,-747.890
820890.000,4465911.520,-745.840
820890.000,4465711.520,-742.310
820890.000,4465511.520,-738.600
820890.000,4465311.520,-735.070
820890.000,4465111.520,-731.780
820890.000,4464911.520,-729.900
820890.000,4464711.520,-728.410
820890.000,4464511.520,-726.330
820890.000,4464311.520,-724.900
820890.000,4464111.520,-725.720
820890.000,4463911.520,-726.440
820890.000,4463711.520,-725.710
820890.000,4463511.520,-724.760
820890.000,4463311.520,-722.830
820890.000,4463111.520,-720.230
820890.000,4462911.520,-718.820
820890.000,4462711.520,-716.510
820890.000,4462511.520,-715.620
820890.000,4462311.520,-713.400
820890.000,4462111.520,-711.250
820890.000,4461911.520,-709.350
820890.000,4461711.520,-706.400
820890.000,4461511.520,-704.040
820890.000,4461311.520,-704.270
820890.000,4461111.520,-703.930
820890.000,4460911.520,-703.550
820890.000,4460711.520,-703.700
820890.000,4460511.520,-705.040
820890.000,4460311.520,-705.500
820890.000,4460111.520,-708.270
820890.000,4459911.520,-709.660
820890.000,4459711.520,-710.680
820890.000,4459511.520,-711.140
820890.000,4459311.520,-715.070
820890.000,4459111.520,-720.630
820890.000,4458911.520,-724.670
820890.000,4458711.520,-726.270
820890.000,4458511.520,-726.450
820890.000,4458311.520,-723.250
820890.000,4458111.520,-721.570
820890.000,4457911.520,-715.760
820890.000,4457711.520,-709.670
820890.000,4457511.520,-714.160
820890.000,4457311.520,-716.290
820890.000,4457111.520,-716.600
820890.000,4456911.520,-716.990
820890.000,4456711.520,-715.130
820890.000,4456511.520,-712.820
820890.000,4456311.520,-712.340
820890.000,4456111.520,-711.640
820890.000,4455911.520,-709.160
820890.000,4455711.520,-709.130
820890.000,4455511.520,-709.490
820890.000,4455311.520,-710.000
820890.000,4455111.520,-708.040
820890.000,4454911.520,-706.820
820890.000,4454711.520,-702.570
820890.000,4454511.520,-701.710
820890.000,4454311.520,-699.350
820890.000,4454111.520,-696.710
820890.000,4453911.520,-694.380
820890.000,4453711.520,-690.860
820890.000,4453511.520,-689.080
820890.000,4453311.520,-686.610
820890.000,4453111.520,-683.910
820890.000,4452911.520,-679.890
820890.000,4452711.520,-674.700
820890.000,4452511.520,-669.030
820890.000,4452311.520,-661.170
820890.000,4452111.520,-651.420
820890.000,4451911.520,-638.660
820890.000,4451711.520,-625.130
820890.000,4451511.520,-613.080
820890.000,4451311.520,-605.480
820890.000,4450311.520,-602.400
820890.000,4450111.520,-621.030
820890.000,4449911.520,-630.820
820890.000,4449711.520,-629.810
820890.000,4449511.520,-629.080
820890.000,4449311.520,-628.430
820890.000,4449111.520,-627.710
820890.000,4448911.520,-625.710
820890.000,4448711.520,-622.810
820890.000,4448511.520,-617.110
820890.000,4448311.520,-615.770
820890.000,4448111.520,-604.890
821090.000,4466511.520,-757.630
821090.000,4466311.520,-756.850
821090.000,4466111.520,-753.930
821090.000,4465911.520,-751.730
821090.000,4465711.520,-748.110
821090.000,4465511.520,-745.240
821090.000,4465311.520,-740.810
821090.000,4465111.520,-737.440
821090.000,4464911.520,-734.430
821090.000,4464711.520,-731.910
821090.000,4464511.520,-729.330
821090.000,4464311.520,-729.260
821090.000,4464111.520,-729.110
821090.000,4463911.520,-729.060
821090.000,4463711.520,-729.060
821090.000,4463511.520,-728.410
821090.000,4463311.520,-727.000
821090.000,4463111.520,-726.410
821090.000,4462911.520,-722.760
821090.000,4462711.520,-721.670
821090.000,4462511.520,-719.320
821090.000,4462311.520,-717.150
821090.000,4462111.520,-715.900
821090.000,4461911.520,-713.300
821090.000,4461711.520,-711.180
821090.000,4461511.520,-709.390
821090.000,4461311.520,-708.920
821090.000,4461111.520,-708.340
821090.000,4460911.520,-708.740
821090.000,4460711.520,-708.660
821090.000,4460511.520,-710.400
821090.000,4460311.520,-711.860
821090.000,4460111.520,-713.460
821090.000,4459911.520,-715.910
821090.000,4459711.520,-715.690
821090.000,4459511.520,-717.220
821090.000,4459311.520,-715.330
821090.000,4459111.520,-722.660
821090.000,4458911.520,-729.270
821090.000,4458711.520,-731.350
821090.000,4458511.520,-729.810
821090.000,4458311.520,-727.120
821090.000,4458111.520,-726.340
821090.000,4457911.520,-726.310
821090.000,4457711.520,-718.050
821090.000,4457511.520,-723.380
821090.000,4457311.520,-722.220
821090.000,4457111.520,-721.690
821090.000,4456911.520,-720.410
821090.000,4456711.520,-717.840
821090.000,4456511.520,-715.690
821090.000,4456311.520,-715.680
821090.000,4456111.520,-715.720
821090.000,4455911.520,-713.350
821090.000,4455711.520,-712.870
821090.000,4455511.520,-711.830
821090.000,4455311.520,-710.840
821090.000,4455111.520,-709.240
821090.000,4454911.520,-709.140
821090.000,4454711.520,-708.660
821090.000,4454511.520,-706.510
821090.000,4454311.520,-703.820
821090.000,4454111.520,-700.480
821090.000,4453911.520,-697.950
821090.000,4453711.520,-694.920
821090.000,4453511.520,-693.130
821090.000,4453311.520,-690.900
821090.000,4453111.520,-687.770
821090.000,4452911.520,-683.780
821090.000,4452711.520,-679.580
821090.000,4452511.520,-672.360
821090.000,4452311.520,-662.880
821090.000,4452111.520,-651.280
821090.000,4451911.520,-639.580
821090.000,4451711.520,-626.230
821090.000,4451511.520,-617.870
821090.000,4451311.520,-611.860
821090.000,4451111.520,-607.590
821090.000,4450911.520,-609.000
821090.000,4450711.520,-609.930
821090.000,4450511.520,-613.820
821090.000,4450311.520,-624.500
821090.000,4450111.520,-633.130
821090.000,4449911.520,-634.250
821090.000,4449711.520,-633.670
821090.000,4449511.520,-632.840
821090.000,4449311.520,-631.830
821090.000,4449111.520,-631.570
821090.000,4448911.520,-629.290
821090.000,4448711.520,-624.850
821090.000,4448511.520,-618.450
821090.000,4448311.520,-616.110
821090.000,4448111.520,-612.440
821090.000,4447911.520,-607.550
821090.000,4447711.520,-602.610
821090.000,4447511.520,-601.830
821090.000,4447311.520,-603.120
821090.000,4447111.520,-606.300
821090.000,4446911.520,-606.190
821290.000,4466511.520,-761.060
821290.000,4466311.520,-758.290
821290.000,4466111.520,-756.870
821290.000,4465911.520,-755.420
821290.000,4465711.520,-753.440
821290.000,4465511.520,-751.350
821290.000,4465311.520,-746.580
821290.000,4465111.520,-742.100
821290.000,4464911.520,-738.810
821290.000,4464711.520,-736.020
821290.000,4464511.520,-734.310
821290.000,4464311.520,-732.660
821290.000,4464111.520,-732.940
821290.000,4463911.520,-733.780
821290.000,4463711.520,-733.300
821290.000,4463511.520,-733.820
821290.000,4463311.520,-730.130
821290.000,4463111.520,-730.820
821290.000,4462911.520,-727.730
821290.000,4462711.520,-726.080
821290.000,4462511.520,-724.650
821290.000,4462311.520,-723.120
821290.000,4462111.520,-722.050
821290.000,4461911.520,-718.700
821290.000,4461711.520,-716.510
821290.000,4461511.520,-715.930
821290.000,4461311.520,-714.960
821290.000,4461111.520,-714.990
821290.000,4460911.520,-714.580
821290.000,4460711.520,-715.460
821290.000,4460511.520,-716.970
821290.000,4460311.520,-718.070
821290.000,4460111.520,-719.510
821290.000,4459911.520,-720.840
821290.000,4459711.520,-721.280
821290.000,4459511.520,-720.730
821290.000,4459311.520,-725.760
821290.000,4459111.520,-730.450
821290.000,4458911.520,-732.690
821290.000,4458711.520,-734.970
821290.000,4458511.520,-733.810
821290.000,4458311.520,-732.460
821290.000,4458111.520,-731.940
821290.000,4457911.520,-732.170
821290.000,4457711.520,-729.660
821290.000,4457511.520,-728.860
821290.000,4457311.520,-728.300
821290.000,4457111.520,-725.790
821290.000,4456911.520,-722.800
821290.000,4456711.520,-720.530
821290.000,4456511.520,-719.770
821290.000,4456311.520,-719.300
821290.000,4456111.520,-718.250
821290.000,4455911.520,-715.820
821290.000,4455711.520,-714.150
821290.000,4455511.520,-712.270
821290.000,4455311.520,-711.050
821290.000,4455111.520,-711.600
821290.000,4454911.520,-712.150
821290.000,4454711.520,-708.990
821290.000,4454511.520,-708.000
821290.000,4454311.520,-706.350
821290.000,4454111.520,-705.850
821290.000,4453911.520,-702.330
821290.000,4453711.520,-699.020
821290.000,4453511.520,-697.220
821290.000,4453311.520,-695.200
821290.000,4453111.520,-692.420
821290.000,4452911.520,-687.590
821290.000,4452711.520,-684.660
821290.000,4452511.520,-676.270
821290.000,4452311.520,-664.170
821290.000,4452111.520,-654.150
821290.000,4451911.520,-643.110
821290.000,4451711.520,-631.660
821290.000,4451511.520,-625.490
821290.000,4451311.520,-618.520
821290.000,4451111.520,-616.050
821290.000,4450911.520,-619.950
821290.000,4450711.520,-624.600
821290.000,4450511.520,-630.500
821290.000,4450311.520,-635.090
821290.000,4450111.520,-639.990
821290.000,4449911.520,-640.610
821290.000,4449711.520,-640.020
821290.000,4449511.520,-638.210
821290.000,4449311.520,-637.460
821290.000,4449111.520,-637.230
821290.000,4448911.520,-634.820
821290.000,4448711.520,-629.470
821290.000,4448511.520,-623.690
821290.000,4448311.520,-620.080
821290.000,4448111.520,-614.490
821290.000,4447911.520,-607.660
821290.000,4447711.520,-604.350
821290.000,4447511.520,-607.160
821290.000,4447311.520,-607.390
821290.000,4447111.520,-608.730
821290.000,4446911.520,-610.780
821290.000,4446711.520,-604.160
821290.000,4446511.520,-600.900
821490.000,4466511.520,-763.810
821490.000,4466311.520,-761.960
821490.000,4466111.520,-760.170
821490.000,4465911.520,-757.270
821490.000,4465711.520,-754.630
821490.000,4465511.520,-752.930
821490.000,4465311.520,-748.490
821490.000,4465111.520,-745.580
821490.000,4464911.520,-743.160
821490.000,4464711.520,-740.720
821490.000,4464511.520,-738.230
821490.000,4464311.520,-736.840
821490.000,4464111.520,-737.330
821490.000,4463911.520,-737.500
821490.000,4463711.520,-737.200
821490.000,4463511.520,-738.680
821490.000,4463311.520,-737.290
821490.000,4463111.520,-736.500
821490.000,4462911.520,-734.490
821490.000,4462711.520,-732.530
821490.000,4462511.520,-730.200
821490.000,4462311.520,-729.660
821490.000,4462111.520,-729.650
821490.000,4461911.520,-726.320
821490.000,4461711.520,-724.960
821490.000,4461511.520,-722.660
821490.000,4461311.520,-721.590
821490.000,4461111.520,-723.310
821490.000,4460911.520,-722.500
821490.000,4460711.520,-723.160
821490.000,4460511.520,-724.740
821490.000,4460311.520,-727.070
821490.000,4460111.520,-726.890
821490.000,4459911.520,-728.630
821490.000,4459711.520,-728.640
821490.000,4459511.520,-730.650
821490.000,4459311.520,-726.440
821490.000,4459111.520,-737.280
821490.000,4458911.520,-737.100
821490.000,4458711.520,-737.480
821490.000,4458511.520,-737.880
821490.000,4458311.520,-737.250
821490.000,4458111.520,-736.180
821490.000,4457911.520,-737.290
821490.000,4457711.520,-735.260
821490.000,4457511.520,-733.090
821490.000,4457311.520,-730.580
821490.000,4457111.520,-727.150
821490.000,4456911.520,-726.970
821490.000,4456711.520,-726.100
821490.000,4456511.520,-725.040
821490.000,4456311.520,-723.480
821490.000,4456111.520,-720.620
821490.000,4455911.520,-719.030
821490.000,4455711.520,-715.340
821490.000,4455511.520,-714.680
821490.000,4455311.520,-716.070
821490.000,4455111.520,-714.450
821490.000,4454911.520,-714.270
821490.000,4454711.520,-712.040
821490.000,4454511.520,-708.350
821490.000,4454311.520,-707.590
821490.000,4454111.520,-706.510
821490.000,4453911.520,-704.730
821490.000,4453711.520,-702.840
821490.000,4453511.520,-701.730
821490.000,4453311.520,-699.220
821490.000,4453111.520,-696.620
821490.000,4452911.520,-692.580
821490.000,4452711.520,-691.220
821490.000,4452511.520,-684.740
821490.000,4452311.520,-670.180
821490.000,4452111.520,-658.160
821490.000,4451911.520,-648.960
821490.000,4451711.520,-640.670
821490.000,4451511.520,-634.500
821490.000,4451311.520,-630.090
821490.000,4451111.520,-627.810
821490.000,4450911.520,-632.320
821490.000,4450711.520,-639.210
821490.000,4450511.520,-642.740
821490.000,4450311.520,-642.890
821490.000,4450111.520,-644.800
821490.000,4449911.520,-644.870
821490.000,4449711.520,-643.780
821490.000,4449511.520,-641.610
821490.000,4449311.520,-640.140
821490.000,4449111.520,-640.680
821490.000,4448911.520,-638.440
821490.000,4448711.520,-634.360
821490.000,4448511.520,-627.860
821490.000,4448311.520,-621.730
821490.000,4448111.520,-618.110
821490.000,4447911.520,-612.030
821490.000,4447711.520,-606.620
821490.000,4447511.520,-609.530
821490.000,4447311.520,-611.170
821490.000,4447111.520,-611.730
821490.000,4446911.520,-612.680
821490.000,4446711.520,-609.330
821490.000,4446511.520,-604.340
821490.000,4446311.520,-602.330
821690.000,4466511.520,-767.630
821690.000,4466311.520,-765.550
821690.000,4466111.520,-763.080
821690.000,4465911.520,-760.190
821690.000,4465711.520,-757.890
821690.000,4465511.520,-754.280
821690.000,4465311.520,-750.580
821690.000,4465111.520,-747.690
821690.000,4464911.520,-744.840
821690.000,4464711.520,-741.740
821690.000,4464511.520,-739.100
821690.000,4464311.520,-738.590
821690.000,4464111.520,-738.950
821690.000,4463911.520,-740.160
821690.000,4463711.520,-740.710
821690.000,4463511.520,-741.230
821690.000,4463311.520,-739.590
821690.000,4463111.520,-739.070
821690.000,4462911.520,-739.260
821690.000,4462711.520,-738.640
821690.000,4462511.520,-734.770
821690.000,4462311.520,-735.050
821690.000,4462111.520,-736.080
821690.000,4461911.520,-734.300
821690.000,4461711.520,-731.730
821690.000,4461511.520,-729.640
821690.000,4461311.520,-731.010
821690.000,4461111.520,-731.150
821690.000,4460911.520,-731.680
821690.000,4460711.520,-732.110
821690.000,4460511.520,-732.740
821690.000,4460311.520,-734.720
821690.000,4460111.520,-735.880
821690.000,4459911.520,-736.990
821690.000,4459711.520,-736.310
821690.000,4459511.520,-736.690
821690.000,4459311.520,-738.010
821690.000,4459111.520,-742.740
821690.000,4458911.520,-741.870
821690.000,4458711.520,-739.640
821690.000,4458511.520,-741.630
821690.000,4458311.520,-742.220
821690.000,4458111.520,-742.710
821690.000,4457911.520,-741.980
821690.000,4457711.520,-740.600
821690.000,4457511.520,-736.920
821690.000,4457311.520,-734.490
821690.000,4457111.520,-731.920
821690.000,4456911.520,-732.660
821690.000,4456711.520,-732.080
821690.000,4456511.520,-729.600
821690.000,4456311.520,-728.270
821690.000,4456111.520,-725.340
821690.000,4455911.520,-720.920
821690.000,4455711.520,-717.910
821690.000,4455511.520,-719.610
821690.000,4455311.520,-719.290
821690.000,4455111.520,-718.330
821690.000,4454911.520,-717.600
821690.000,4454711.520,-714.630
821690.000,4454511.520,-711.300
821690.000,4454311.520,-709.600
821690.000,4454111.520,-708.700
821690.000,4453911.520,-706.730
821690.000,4453711.520,-704.750
821690.000,4453511.520,-703.760
821690.000,4453311.520,-701.930
821690.000,4453111.520,-698.230
821690.000,4452911.520,-696.770
821690.000,4452711.520,-693.090
821690.000,4452511.520,-686.540
821690.000,4452311.520,-676.380
821690.000,4452111.520,-661.650
821690.000,4451911.520,-650.960
821690.000,4451711.520,-645.630
821690.000,4451511.520,-642.700
821690.000,4451311.520,-638.780
821690.000,4451111.520,-637.760
821690.000,4450911.520,-641.210
821690.000,4450711.520,-646.350
821690.000,4450511.520,-648.270
821690.000,4450311.520,-647.230
821690.000,4450111.520,-647.150
821690.000,4449911.520,-649.240
821690.000,4449711.520,-648.000
821690.000,4449511.520,-646.020
821690.000,4449311.520,-645.320
821690.000,4449111.520,-644.690
821690.000,4448911.520,-643.030
821690.000,4448711.520,-637.980
821690.000,4448511.520,-630.230
821690.000,4448311.520,-623.950
821690.000,4448111.520,-621.440
821690.000,4447911.520,-617.540
821690.000,4447711.520,-613.600
821690.000,4447511.520,-612.160
821690.000,4447311.520,-614.870
821690.000,4447111.520,-615.460
821690.000,4446911.520,-615.850
821690.000,4446711.520,-615.680
821690.000,4446511.520,-608.940
821690.000,4446311.520,-604.590
821690.000,4445911.520,-600.880
821690.000,4445711.520,-600.680
821890.000,4466511.520,-770.340
821890.000,4466311.520,-768.340
821890.000,4466111.520,-766.330
821890.000,4465911.520,-763.980
821890.000,4465711.520,-760.550
821890.000,4465511.520,-757.420
821890.000,4465311.520,-754.530
821890.000,4465111.520,-751.600
821890.000,4464911.520,-748.840
821890.000,4464711.520,-745.100
821890.000,4464511.520,-741.500
821890.000,4464311.520,-740.760
821890.000,4464111.520,-741.100
821890.000,4463911.520,-742.130
821890.000,4463711.520,-742.840
821890.000,4463511.520,-741.690
821890.000,4463311.520,-742.410
821890.000,4463111.520,-741.970
821890.000,4462911.520,-741.330
821890.000,4462711.520,-740.820
821890.000,4462511.520,-738.150
821890.000,4462311.520,-738.960
821890.000,4462111.520,-738.840
821890.000,4461911.520,-737.430
821890.000,4461711.520,-736.790
821890.000,4461511.520,-734.910
821890.000,4461311.520,-733.360
821890.000,4461111.520,-736.140
821890.000,4460911.520,-736.810
821890.000,4460711.520,-738.590
821890.000,4460511.520,-739.280
821890.000,4460311.520,-740.240
821890.000,4460111.520,-741.890
821890.000,4459911.520,-743.120
821890.000,4459711.520,-744.090
821890.000,4459511.520,-746.680
821890.000,4459311.520,-745.730
821890.000,4459111.520,-746.330
821890.000,4458911.520,-745.780
821890.000,4458711.520,-745.040
821890.000,4458511.520,-744.140
821890.000,4458311.520,-746.040
821890.000,4458111.520,-745.480
821890.000,4457911.520,-743.290
821890.000,4457711.520,-741.220
821890.000,4457511.520,-738.080
821890.000,4457311.520,-736.900
821890.000,4457111.520,-736.260
821890.000,4456911.520,-735.370
821890.000,4456711.520,-733.450
821890.000,4456511.520,-732.240
821890.000,4456311.520,-730.790
821890.000,4456111.520,-729.860
821890.000,4455911.520,-725.610
821890.000,4455711.520,-724.990
821890.000,4455511.520,-723.700
821890.000,4455311.520,-722.720
821890.000,4455111.520,-722.790
821890.000,4454911.520,-723.210
821890.000,4454711.520,-720.450
821890.000,4454511.520,-716.890
821890.000,4454311.520,-713.310
821890.000,4454111.520,-712.230
821890.000,4453911.520,-710.420
821890.000,4453711.520,-708.130
821890.000,4453511.520,-705.930
821890.000,4453311.520,-703.860
821890.000,4453111.520,-701.150
821890.000,4452911.520,-700.360
821890.000,4452711.520,-696.170
821890.000,4452511.520,-687.100
821890.000,4452311.520,-675.870
821890.000,4452111.520,-663.910
821890.000,4451911.520,-655.940
821890.000,4451711.520,-652.160
821890.000,4451511.520,-649.330
821890.000,4451311.520,-649.430
821890.000,4451111.520,-649.260
821890.000,4450911.520,-651.020
821890.000,4450711.520,-651.900
821890.000,4450511.520,-652.170
821890.000,4450311.520,-652.240
821890.000,4450111.520,-652.710
821890.000,4449911.520,-654.160
821890.000,4449711.520,-653.280
821890.000,4449511.520,-652.210
821890.000,4449311.520,-652.020
821890.000,4449111.520,-650.700
821890.000,4448911.520,-648.490
821890.000,4448711.520,-642.250
821890.000,4448511.520,-631.860
821890.000,4448311.520,-623.820
821890.000,4448111.520,-621.840
821890.000,4447911.520,-621.830
821890.000,4447711.520,-620.380
821890.000,4447511.520,-620.330
821890.000,4447311.520,-620.260
821890.000,4447111.520,-618.940
821890.000,4446911.520,-620.170
821890.000,4446711.520,-619.040
821890.000,4446511.520,-613.990
821890.000,4446311.520,-606.670
821890.000,4446111.520,-601.860
821890.000,4445911.520,-606.480
821890.000,4445711.520,-605.480
821890.000,4445511.520,-602.070
821890.000,4444511.520,-604.530
822090.000,4466511.520,-772.850
822090.000,4466311.520,-771.310
822090.000,4466111.520,-768.650
822090.000,4465911.520,-765.820
822090.000,4465711.520,-762.790
822090.000,4465511.520,-759.890
822090.000,4465311.520,-757.270
822090.000,4465111.520,-754.430
822090.000,4464911.520,-751.380
822090.000,4464711.520,-748.800
822090.000,4464511.520,-747.050
822090.000,4464311.520,-744.130
822090.000,4464111.520,-743.820
822090.000,4463911.520,-744.340
822090.000,4463711.520,-745.660
822090.000,4463511.520,-745.290
822090.000,4463311.520,-745.560
822090.000,4463111.520,-744.900
822090.000,4462911.520,-743.740
822090.000,4462711.520,-743.460
822090.000,4462511.520,-743.870
822090.000,4462311.520,-743.570
822090.000,4462111.520,-743.720
822090.000,4461911.520,-740.620
822090.000,4461711.520,-740.550
822090.000,4461511.520,-740.110
822090.000,4461311.520,-738.280
822090.000,4461111.520,-739.890
822090.000,4460911.520,-741.420
822090.000,4460711.520,-742.520
822090.000,4460511.520,-743.290
822090.000,4460311.520,-744.250
822090.000,4460111.520,-745.820
822090.000,4459911.520,-746.300
822090.000,4459711.520,-746.590
822090.000,4459511.520,-745.930
822090.000,4459311.520,-746.450
822090.000,4459111.520,-746.480
822090.000,4458911.520,-746.080
822090.000,4458711.520,-746.320
822090.000,4458511.520,-745.150
822090.000,4458311.520,-747.010
822090.000,4458111.520,-747.570
822090.000,4457911.520,-744.980
822090.000,4457711.520,-743.770
822090.000,4457511.520,-742.800
822090.000,4457311.520,-740.600
822090.000,4457111.520,-739.130
822090.000,4456911.520,-736.920
822090.000,4456711.520,-733.890
822090.000,4456511.520,-732.510
822090.000,4456311.520,-731.970
822090.000,4456111.520,-730.600
822090.000,4455911.520,-726.070
822090.000,4455711.520,-724.860
822090.000,4455511.520,-725.620
822090.000,4455311.520,-728.370
822090.000,4455111.520,-729.290
822090.000,4454911.520,-731.540
822090.000,4454711.520,-724.100
822090.000,4454511.520,-722.490
822090.000,4454311.520,-719.100
822090.000,4454111.520,-716.950
822090.000,4453911.520,-715.050
822090.000,4453711.520,-712.460
822090.000,4453511.520,-708.950
822090.000,4453311.520,-707.490
822090.000,4453111.520,-705.470
822090.000,4452911.520,-704.240
822090.000,4452711.520,-700.410
822090.000,4452511.520,-690.190
822090.000,4452311.520,-677.410
822090.000,4452111.520,-667.970
822090.000,4451911.520,-662.950
822090.000,4451711.520,-659.230
822090.000,4451511.520,-657.390
822090.000,4451311.520,-658.610
822090.000,4451111.520,-660.270
822090.000,4450911.520,-659.600
822090.000,4450711.520,-659.270
822090.000,4450511.520,-659.390
822090.000,4450311.520,-658.360
822090.000,4450111.520,-659.110
822090.000,4449911.520,-660.390
822090.000,4449711.520,-661.970
822090.000,4449511.520,-659.450
822090.000,4449311.520,-658.740
822090.000,4449111.520,-656.780
822090.000,4448911.520,-654.200
822090.000,4448711.520,-645.960
822090.000,4448511.520,-636.140
822090.000,4448311.520,-626.630
822090.000,4448111.520,-624.940
822090.000,4447911.520,-624.910
822090.000,4447711.520,-625.860
822090.000,4447511.520,-626.730
822090.000,4447311.520,-625.020
822090.000,4447111.520,-624.930
822090.000,4446911.520,-625.260
822090.000,4446711.520,-623.650
822090.000,4446511.520,-620.330
822090.000,4446311.520,-611.040
822090.000,4446111.520,-608.760
822090.000,4445911.520,-611.620
822090.000,4445711.520,-610.910
822090.000,4445511.520,-608.920
822090.000,4444711.520,-600.820
822090.000,4444511.520,-611.980
822290.000,4466511.520,-775.830
822290.000,4466311.520,-773.770
822290.000,4466111.520,-772.210
822290.000,4465911.520,-768.890
822290.000,4465711.520,-765.660
822290.000,4465511.520,-761.770
822290.000,4465311.520,-759.090
822290.000,4465111.520,-756.680
822290.000,4464911.520,-753.970
822290.000,4464711.520,-751.230
822290.000,4464511.520,-749.680
822290.000,4464311.520,-749.140
822290.000,4464111.520,-746.730
822290.000,4463911.520,-747.800
822290.000,4463711.520,-748.180
822290.000,4463511.520,-749.650
822290.000,4463311.520,-748.650
822290.000,4463111.520,-748.860
822290.000,4462911.520,-747.920
822290.000,4462711.520,-747.960
822290.000,4462511.520,-747.100
822290.000,4462311.520,-747.040
822290.000,4462111.520,-747.620
822290.000,4461911.520,-746.340
822290.000,4461711.520,-746.840
822290.000,4461511.520,-744.330
822290.000,4461311.520,-745.530
822290.000,4461111.520,-750.610
822290.000,4460911.520,-747.960
822290.000,4460711.520,-747.590
822290.000,4460511.520,-749.720
822290.000,4460311.520,-750.490
822290.000,4460111.520,-749.890
822290.000,4459911.520,-749.460
822290.000,4459711.520,-751.340
822290.000,4459511.520,-749.150
822290.000,4459311.520,-748.220
822290.000,4459111.520,-748.360
822290.000,4458911.520,-748.190
822290.000,4458711.520,-748.560
822290.000,4458511.520,-748.170
822290.000,4458311.520,-749.520
822290.000,4458111.520,-749.160
822290.000,4457911.520,-748.010
822290.000,4457711.520,-747.120
822290.000,4457511.520,-746.870
822290.000,4457311.520,-743.980
822290.000,4457111.520,-741.950
822290.000,4456911.520,-734.820
822290.000,4456711.520,-729.830
822290.000,4456511.520,-729.750
822290.000,4456311.520,-726.360
822290.000,4456111.520,-726.380
822290.000,4455911.520,-729.020
822290.000,4455711.520,-727.050
822290.000,4455511.520,-727.260
822290.000,4455311.520,-730.970
822290.000,4455111.520,-731.940
822290.000,4454911.520,-731.900
822290.000,4454711.520,-729.180
822290.000,4454511.520,-728.380
822290.000,4454311.520,-723.980
822290.000,4454111.520,-723.050
822290.000,4453911.520,-719.650
822290.000,4453711.520,-716.520
822290.000,4453511.520,-713.370
822290.000,4453311.520,-711.540
822290.000,4453111.520,-709.470
822290.000,4452911.520,-707.630
822290.000,4452711.520,-704.220
822290.000,4452511.520,-697.410
822290.000,4452311.520,-686.500
822290.000,4452111.520,-676.510
822290.000,4451911.520,-671.270
822290.000,4451711.520,-667.760
822290.000,4451511.520,-667.990
822290.000,4451311.520,-667.130
822290.000,4451111.520,-668.970
822290.000,4450911.520,-669.540
822290.000,4450711.520,-666.180
822290.000,4450511.520,-665.240
822290.000,4450311.520,-666.650
822290.000,4450111.520,-666.900
822290.000,4449911.520,-667.400
822290.000,4449711.520,-670.400
822290.000,4449511.520,-668.180
822290.000,4449311.520,-666.860
822290.000,4449111.520,-664.290
822290.000,4448911.520,-661.490
822290.000,4448711.520,-655.520
822290.000,4448511.520,-647.450
822290.000,4448311.520,-638.780
822290.000,4448111.520,-630.540
822290.000,4447911.520,-630.990
822290.000,4447711.520,-631.430
822290.000,4447511.520,-629.960
822290.000,4447311.520,-628.890
822290.000,4447111.520,-627.410
822290.000,4446911.520,-629.430
822290.000,4446711.520,-629.970
822290.000,4446511.520,-627.740
822290.000,4446311.520,-619.300
822290.000,4446111.520,-617.790
822290.000,4445911.520,-617.210
822290.000,4445711.520,-617.130
822290.000,4445511.520,-615.540
822290.000,4445311.520,-607.590
822290.000,4445111.520,-601.270
822290.000,4444911.520,-606.120
822290.000,4444711.520,-614.210
822290.000,4444511.520,-619.440
822290.000,4420711.520,-601.250
822490.000,4466511.520,-778.710
822490.000,4466311.520,-776.710
822490.000,4466111.520,-774.390
822490.000,4465911.520,-772.370
822490.000,4465711.520,-768.850
822490.000,4465511.520,-764.760
822490.000,4465311.520,-761.900
822490.000,4465111.520,-758.950
822490.000,4464911.520,-756.260
822490.000,4464711.520,-753.930
822490.000,4464511.520,-752.830
822490.000,4464311.520,-751.980
822490.000,4464111.520,-752.260
822490.000,4463911.520,-750.830
822490.000,4463711.520,-752.610
822490.000,4463511.520,-752.080
822490.000,4463311.520,-751.310
822490.000,4463111.520,-751.680
822490.000,4462911.520,-749.930
822490.000,4462711.520,-750.980
822490.000,4462511.520,-750.590
822490.000,4462311.520,-749.640
822490.000,4462111.520,-750.530
822490.000,4461911.520,-751.990
822490.000,4461711.520,-752.050
822490.000,4461511.520,-751.380
822490.000,4461311.520,-748.970
822490.000,4461111.520,-753.060
822490.000,4460911.520,-753.850
822490.000,4460711.520,-754.860
822490.000,4460511.520,-756.240
822490.000,4460311.520,-755.490
822490.000,4460111.520,-754.590
822490.000,4459911.520,-753.760
822490.000,4459711.520,-754.110
822490.000,4459511.520,-752.610
822490.000,4459311.520,-750.190
822490.000,4459111.520,-751.630
822490.000,4458911.520,-751.930
822490.000,4458711.520,-751.960
822490.000,4458511.520,-752.710
822490.000,4458311.520,-751.880
822490.000,4458111.520,-751.430
822490.000,4457911.520,-750.920
822490.000,4457711.520,-750.480
822490.000,4457511.520,-749.280
822490.000,4457311.520,-746.100
822490.000,4457111.520,-741.940
822490.000,4456911.520,-737.910
822490.000,4456711.520,-733.540
822490.000,4456511.520,-731.520
822490.000,4456311.520,-729.550
822490.000,4456111.520,-731.470
822490.000,4455911.520,-731.830
822490.000,4455711.520,-731.700
822490.000,4455511.520,-731.780
822490.000,4455311.520,-734.740
822490.000,4455111.520,-734.850
822490.000,4454911.520,-734.730
822490.000,4454711.520,-732.980
822490.000,4454511.520,-731.140
822490.000,4454311.520,-730.710
822490.000,4454111.520,-728.550
822490.000,4453911.520,-725.590
822490.000,4453711.520,-721.670
822490.000,4453511.520,-719.050
822490.000,4453311.520,-716.200
822490.000,4453111.520,-714.710
822490.000,4452911.520,-711.710
822490.000,4452711.520,-706.950
822490.000,4452511.520,-699.230
822490.000,4452311.520,-690.840
822490.000,4452111.520,-685.120
822490.000,4451911.520,-680.120
822490.000,4451711.520,-677.910
822490.000,4451511.520,-678.040
822490.000,4451311.520,-678.220
822490.000,4451111.520,-679.450
822490.000,4450911.520,-680.100
822490.000,4450711.520,-673.580
822490.000,4450511.520,-672.320
822490.000,4450311.520,-674.400
822490.000,4450111.520,-675.090
822490.000,4449911.520,-676.390
822490.000,4449711.520,-678.050
822490.000,4449511.520,-676.550
822490.000,4449311.520,-673.810
822490.000,4449111.520,-672.190
822490.000,4448911.520,-671.180
822490.000,4448711.520,-665.240
822490.000,4448511.520,-659.700
822490.000,4448311.520,-651.700
822490.000,4448111.520,-640.680
822490.000,4447911.520,-636.450
822490.000,4447711.520,-637.240
822490.000,4447511.520,-637.960
822490.000,4447311.520,-635.770
822490.000,4447111.520,-633.830
822490.000,4446911.520,-633.350
822490.000,4446711.520,-633.610
822490.000,4446511.520,-631.780
822490.000,4446311.520,-626.480
822490.000,4446111.520,-624.360
822490.000,4445911.520,-624.780
822490.000,4445711.520,-624.540
822490.000,4445511.520,-622.960
822490.000,4445311.520,-622.130
822490.000,4445111.520,-615.540
822490.000,4444911.520,-615.540
822490.000,4444711.520,-622.820
822490.000,4444511.520,-626.930
822490.000,4420911.520,-601.010
822490.000,4420711.520,-607.250
822490.000,4420511.520,-604.780
822690.000,4466511.520,-779.060
822690.000,4466311.520,-778.450
822690.000,4466111.520,-776.220
822690.000,4465911.520,-775.480
822690.000,4465711.520,-773.880
822690.000,4465511.520,-769.150
822690.000,4465311.520,-764.300
822690.000,4465111.520,-761.050
822690.000,4464911.520,-758.890
822690.000,4464711.520,-756.860
822690.000,4464511.520,-755.710
822690.000,4464311.520,-755.020
822690.000,4464111.520,-755.520
822690.000,4463911.520,-754.610
822690.000,4463711.520,-754.950
822690.000,4463511.520,-756.380
822690.000,4463311.520,-756.130
822690.000,4463111.520,-754.010
822690.000,4462911.520,-752.790
822690.000,4462711.520,-754.200
822690.000,4462511.520,-753.810
822690.000,4462311.520,-751.240
822690.000,4462111.520,-754.100
822690.000,4461911.520,-755.430
822690.000,4461711.520,-756.510
822690.000,4461511.520,-757.390
822690.000,4461311.520,-754.920
822690.000,4461111.520,-757.080
822690.000,4460911.520,-758.480
822690.000,4460711.520,-759.930
822690.000,4460511.520,-759.800
822690.000,4460311.520,-760.010
822690.000,4460111.520,-757.510
822690.000,4459911.520,-755.460
822690.000,4459711.520,-755.790
822690.000,4459511.520,-754.830
822690.000,4459311.520,-755.600
822690.000,4459111.520,-754.120
822690.000,4458911.520,-753.910
822690.000,4458711.520,-754.190
822690.000,4458511.520,-754.300
822690.000,4458311.520,-753.690
822690.000,4458111.520,-753.560
822690.000,4457911.520,-752.960
822690.000,4457711.520,-752.010
822690.000,4457511.520,-751.350
822690.000,4457311.520,-748.930
822690.000,4457111.520,-744.550
822690.000,4456911.520,-742.290
822690.000,4456711.520,-738.970
822690.000,4456511.520,-736.050
822690.000,4456311.520,-732.400
822690.000,4456111.520,-735.730
822690.000,4455911.520,-736.510
822690.000,4455711.520,-735.740
822690.000,4455511.520,-735.160
822690.000,4455311.520,-737.570
822690.000,4455111.520,-737.680
822690.000,4454911.520,-737.170
822690.000,4454711.520,-736.180
822690.000,4454511.520,-734.030
822690.000,4454311.520,-731.970
822690.000,4454111.520,-729.460
822690.000,4453911.520,-727.130
822690.000,4453711.520,-724.340
822690.000,4453511.520,-722.630
822690.000,4453311.520,-721.010
822690.000,4453111.520,-719.310
822690.000,4452911.520,-716.590
822690.000,4452711.520,-711.970
822690.000,4452511.520,-703.740
822690.000,4452311.520,-695.490
822690.000,4452111.520,-692.270
822690.000,4451911.520,-687.940
822690.000,4451711.520,-685.800
822690.000,4451511.520,-684.980
822690.000,4451311.520,-685.650
822690.000,4451111.520,-687.700
822690.000,4450911.520,-685.130
822690.000,4450711.520,-681.310
822690.000,4450511.520,-678.920
822690.000,4450311.520,-681.350
822690.000,4450111.520,-680.260
822690.000,4449911.520,-682.110
822690.000,4449711.520,-684.450
822690.000,4449511.520,-682.360
822690.000,4449311.520,-681.230
822690.000,4449111.520,-679.330
822690.000,4448911.520,-677.730
822690.000,4448711.520,-672.520
822690.000,4448511.520,-668.600
822690.000,4448311.520,-658.050
822690.000,4448111.520,-650.860
822690.000,4447911.520,-647.350
822690.000,4447711.520,-646.470
822690.000,4447511.520,-644.920
822690.000,4447311.520,-642.840
822690.000,4447111.520,-641.390
822690.000,4446911.520,-639.790
822690.000,4446711.520,-638.490
822690.000,4446511.520,-635.190
822690.000,4446311.520,-629.590
822690.000,4446111.520,-627.350
822690.000,4445911.520,-627.430
822690.000,4445711.520,-628.600
822690.000,4445511.520,-627.360
822690.000,4445311.520,-626.710
822690.000,4445111.520,-624.650
822690.000,4444911.520,-624.570
822690.000,4444711.520,-630.740
822690.000,4444511.520,-632.820
822690.000,4440111.520,-612.230
822690.000,4420911.520,-601.580
822690.000,4420711.520,-611.640
822690.000,4420511.520,-613.170
822690.000,4420311.520,-603.410
822890.000,4466511.520,-779.720
822890.000,4466311.520,-779.370
822890.000,4466111.520,-778.040
822890.000,4465911.520,-777.500
822890.000,4465711.520,-775.070
822890.000,4465511.520,-771.580
822890.000,4465311.520,-766.890
822890.000,4465111.520,-764.490
822890.000,4464911.520,-761.880
822890.000,4464711.520,-760.100
822890.000,4464511.520,-759.030
822890.000,4464311.520,-757.780
822890.000,4464111.520,-758.320
822890.000,4463911.520,-758.550
822890.000,4463711.520,-757.470
822890.000,4463511.520,-756.420
822890.000,4463311.520,-758.300
822890.000,4463111.520,-758.830
822890.000,4462911.520,-758.080
822890.000,4462711.520,-757.490
822890.000,4462511.520,-758.040
822890.000,4462311.520,-755.910
822890.000,4462111.520,-758.380
822890.000,4461911.520,-759.900
822890.000,4461711.520,-761.340
822890.000,4461511.520,-762.030
822890.000,4461311.520,-761.050
822890.000,4461111.520,-761.900
822890.000,4460911.520,-762.800
822890.000,4460711.520,-762.220
822890.000,4460511.520,-762.600
822890.000,4460311.520,-762.670
822890.000,4460111.520,-758.080
822890.000,4459911.520,-758.510
822890.000,4459711.520,-756.930
822890.000,4459511.520,-757.880
822890.000,4459311.520,-756.750
822890.000,4459111.520,-757.060
822890.000,4458911.520,-756.890
822890.000,4458711.520,-756.760
822890.000,4458511.520,-755.560
822890.000,4458311.520,-755.770
822890.000,4458111.520,-756.310
822890.000,4457911.520,-755.330
822890.000,4457711.520,-753.960
822890.000,4457511.520,-750.850
822890.000,4457311.520,-748.970
822890.000,4457111.520,-746.190
822890.000,4456911.520,-744.630
822890.000,4456711.520,-740.530
822890.000,4456511.520,-738.030
822890.000,4456311.520,-737.720
822890.000,4456111.520,-739.370
822890.000,4455911.520,-739.130
822890.000,4455711.520,-737.870
822890.000,4455511.520,-738.870
822890.000,4455311.520,-741.220
822890.000,4455111.520,-740.920
822890.000,4454911.520,-739.450
822890.000,4454711.520,-738.760
822890.000,4454511.520,-736.140
822890.000,4454311.520,-733.930
822890.000,4454111.520,-731.880
822890.000,4453911.520,-730.210
822890.000,4453711.520,-728.570
822890.000,4453511.520,-724.930
822890.000,4453311.520,-723.210
822890.000,4453111.520,-721.840
822890.000,4452911.520,-718.590
822890.000,4452711.520,-713.900
822890.000,4452511.520,-708.090
822890.000,4452311.520,-701.410
822890.000,4452111.520,-697.670
822890.000,4451911.520,-693.140
822890.000,4451711.520,-688.820
822890.000,4451511.520,-688.310
822890.000,4451311.520,-688.350
822890.000,4451111.520,-690.650
822890.000,4450911.520,-689.470
822890.000,4450711.520,-685.110
822890.000,4450511.520,-687.240
822890.000,4450311.520,-687.360
822890.000,4450111.520,-687.430
822890.000,4449911.520,-687.500
822890.000,4449711.520,-689.420
822890.000,4449511.520,-689.430
822890.000,4449311.520,-686.260
822890.000,4449111.520,-683.560
822890.000,4448911.520,-681.680
822890.000,4448711.520,-676.670
822890.000,4448511.520,-670.120
822890.000,4448311.520,-666.100
822890.000,4448111.520,-659.030
822890.000,4447911.520,-656.780
822890.000,4447711.520,-655.060
822890.000,4447511.520,-652.540
822890.000,4447311.520,-649.670
822890.000,4447111.520,-649.230
822890.000,4446911.520,-647.320
822890.000,4446711.520,-644.940
822890.000,4446511.520,-639.750
822890.000,4446311.520,-633.800
822890.000,4446111.520,-631.980
822890.000,4445911.520,-633.730
822890.000,4445711.520,-634.820
822890.000,4445511.520,-633.130
822890.000,4445311.520,-630.660
822890.000,4445111.520,-631.070
822890.000,4444911.520,-631.090
822890.000,4444711.520,-635.400
822890.000,4444511.520,-636.010
822890.000,4440111.520,-628.410
822890.000,4420711.520,-614.560
822890.000,4420511.520,-622.590
822890.000,4420311.520,-619.400
823090.000,4466511.520,-782.170
823090.000,4466311.520,-780.930
823090.000,4466111.520,-780.330
823090.000,4465911.520,-778.900
823090.000,4465711.520,-777.190
823090.000,4465511.520,-773.790
823090.000,4465311.520,-769.980
823090.000,4465111.520,-766.280
823090.000,4464911.520,-765.080
823090.000,4464711.520,-763.200
823090.000,4464511.520,-760.400
823090.000,4464311.520,-760.830
823090.000,4464111.520,-761.400
823090.000,4463911.520,-761.860
823090.000,4463711.520,-761.340
823090.000,4463511.520,-761.330
823090.000,4463311.520,-760.490
823090.000,4463111.520,-761.870
823090.000,4462911.520,-763.160
823090.000,4462711.520,-762.530
823090.000,4462511.520,-762.160
823090.000,4462311.520,-760.070
823090.000,4462111.520,-762.470
823090.000,4461911.520,-763.170
823090.000,4461711.520,-765.620
823090.000,4461511.520,-766.070
823090.000,4461311.520,-765.390
823090.000,4461111.520,-764.520
823090.000,4460911.520,-765.060
823090.000,4460711.520,-766.180
823090.000,4460511.520,-765.990
823090.000,4460311.520,-764.510
823090.000,4460111.520,-763.660
823090.000,4459911.520,-762.180
823090.000,4459711.520,-759.230
823090.000,4459511.520,-759.750
823090.000,4459311.520,-758.880
823090.000,4459111.520,-758.910
823090.000,4458911.520,-759.670
823090.000,4458711.520,-758.780
823090.000,4458511.520,-757.990
823090.000,4458311.520,-757.580
823090.000,4458111.520,-757.170
823090.000,4457911.520,-755.930
823090.000,4457711.520,-752.430
823090.000,4457511.520,-754.050
823090.000,4457311.520,-751.940
823090.000,4457111.520,-749.830
823090.000,4456911.520,-747.830
823090.000,4456711.520,-743.470
823090.000,4456511.520,-739.890
823090.000,4456311.520,-742.580
823090.000,4456111.520,-741.860
823090.000,4455911.520,-741.210
823090.000,4455711.520,-740.740
823090.000,4455511.520,-743.700
823090.000,4455311.520,-741.000
823090.000,4455111.520,-741.360
823090.000,4454911.520,-743.110
823090.000,4454711.520,-742.170
823090.000,4454511.520,-739.630
823090.000,4454311.520,-737.060
823090.000,4454111.520,-735.100
823090.000,4453911.520,-732.780
823090.000,4453711.520,-730.990
823090.000,4453511.520,-729.240
823090.000,4453311.520,-727.510
823090.000,4453111.520,-724.410
823090.000,4452911.520,-720.330
823090.000,4452711.520,-716.140
823090.000,4452511.520,-711.150
823090.000,4452311.520,-706.120
823090.000,4452111.520,-702.030
823090.000,4451911.520,-697.790
823090.000,4451711.520,-693.780
823090.000,4451511.520,-693.950
823090.000,4451311.520,-693.520
823090.000,4451111.520,-695.130
823090.000,4450911.520,-693.250
823090.000,4450711.520,-693.400
823090.000,4450511.520,-692.490
823090.000,4450311.520,-693.260
823090.000,4450111.520,-692.190
823090.000,4449911.520,-693.200
823090.000,4449711.520,-694.460
823090.000,4449511.520,-694.350
823090.000,4449311.520,-693.220
823090.000,4449111.520,-688.960
823090.000,4448911.520,-687.390
823090.000,4448711.520,-681.650
823090.000,4448511.520,-675.160
823090.000,4448311.520,-671.110
823090.000,4448111.520,-667.590
823090.000,4447911.520,-665.710
823090.000,4447711.520,-661.920
823090.000,4447511.520,-659.410
823090.000,4447311.520,-657.070
823090.000,4447111.520,-655.640
823090.000,4446911.520,-653.920
823090.000,4446711.520,-650.920
823090.000,4446511.520,-644.360
823090.000,4446311.520,-642.420
823090.000,4446111.520,-639.420
823090.000,4445911.520,-640.670
823090.000,4445711.520,-641.020
823090.000,4445511.520,-638.600
823090.000,4445311.520,-635.810
823090.000,4445111.520,-636.490
823090.000,4444911.520,-637.390
823090.000,4444711.520,-640.640
823090.000,4444511.520,-638.650
823090.000,4444311.520,-611.720
823090.000,4440311.520,-640.760
823090.000,4440111.520,-629.420
823090.000,4420711.520,-611.820
823090.000,4420511.520,-631.910
823090.000,4420311.520,-630.450
823090.000,4420111.520,-604.510
823290.000,4466511.520,-784.670
823290.000,4466311.520,-784.250
823290.000,4466111.520,-782.890
823290.000,4465911.520,-780.910
823290.000,4465711.520,-778.860
823290.000,4465511.520,-776.210
823290.000,4465311.520,-773.220
823290.000,4465111.520,-770.060
823290.000,4464911.520,-767.520
823290.000,4464711.520,-764.810
823290.000,4464511.520,-763.880
823290.000,4464311.520,-764.700
823290.000,4464111.520,-764.360
823290.000,4463911.520,-765.340
823290.000,4463711.520,-764.840
823290.000,4463511.520,-766.840
823290.000,4463311.520,-765.580
823290.000,4463111.520,-765.450
823290.000,4462911.520,-766.130
823290.000,4462711.520,-765.230
823290.000,4462511.520,-764.040
823290.000,4462311.520,-765.610
823290.000,4462111.520,-766.220
823290.000,4461911.520,-769.150
823290.000,4461711.520,-769.810
823290.000,4461511.520,-771.660
823290.000,4461311.520,-770.530
823290.000,4461111.520,-768.510
823290.000,4460911.520,-769.510
823290.000,4460711.520,-768.530
823290.000,4460511.520,-767.690
823290.000,4460311.520,-766.280
823290.000,4460111.520,-765.090
823290.000,4459911.520,-764.650
823290.000,4459711.520,-763.760
823290.000,4459511.520,-763.040
823290.000,4459311.520,-761.370
823290.000,4459111.520,-761.420
