555217.504,4203752.420,-508.9 
555217.504,4203652.244,-549.4 
555217.504,4203552.067,-595.8 
555217.504,4203451.891,-646 
555217.504,4203351.715,-664.2 
555217.504,4203151.363,-593.5 
555217.504,4203051.187,-568.1 
555217.504,4202951.011,-569.4 
555217.504,4202850.835,-619.8 
555317.776,4234606.645,-101.6 
555317.776,4234506.469,-111.8 
555317.776,4234406.293,-125.8 
555317.776,4234306.117,-131.6 
555317.776,4234205.941,-134.8 
555317.776,4234105.765,-137.8 
555317.776,4234005.589,-139.2 
555317.776,4233905.413,-139.7 
555317.776,4233805.236,-139.9 
555317.776,4233705.060,-138.9 
555317.776,4233604.884,-138.3 
555317.776,4233504.708,-140.7 
555317.776,4233404.532,-143.4 
555317.776,4233304.356,-143.2 
555317.776,4233204.180,-140.8 
555317.776,4233104.004,-138.1 
555317.776,4233003.828,-136.3 
555317.776,4232903.652,-136.3 
555317.776,4232803.476,-136.4 
555317.776,4232703.300,-134.1 
555317.776,4232603.124,-129.7 
555317.776,4232502.948,-124.6 
555317.776,4232402.772,-121 
555317.776,4232302.596,-117.4 
555317.776,4232202.420,-110.6 
555317.776,4226292.032,-110.7 
555317.776,4226191.856,-117.2 
555317.776,4226091.680,-130 
555317.776,4225991.504,-144.3 
555317.776,4225891.328,-158.6 
555317.776,4225791.152,-172.6 
555317.776,4225690.976,-185.5 
555317.776,4225590.800,-196.2 
555317.776,4225490.624,-204.1 
555317.776,4225390.448,-209.1 
555317.776,4225290.272,-211.9 
555317.776,4225190.096,-213 
555317.776,4225089.920,-212.4 
555317.776,4224989.744,-211 
555317.776,4224889.567,-209.6 
555317.776,4224789.391,-209 
555317.776,4224689.215,-209.7 
555317.776,4224589.039,-212.2 
555317.776,4224488.863,-216.8 
555317.776,4224388.687,-223.4 
555317.776,4224288.511,-231.5 
555317.776,4224188.335,-240.4 
555317.776,4224088.159,-249.3 
555317.776,4223987.983,-257.6 
555317.776,4223887.807,-265.7 
555317.776,4223787.631,-274.7 
555317.776,4223687.455,-284.5 
555317.776,4223587.279,-292.4 
555317.776,4223487.103,-296.8 
555317.776,4223386.927,-298.3 
555317.776,4223286.751,-302.5 
555317.776,4223186.574,-311.2 
555317.776,4223086.398,-317.6 
555317.776,4222986.222,-318.4 
555317.776,4222886.046,-321.7 
555317.776,4222785.870,-328.6 
555317.776,4222685.694,-333 
555317.776,4222585.518,-334.7 
555317.776,4222485.342,-333.7 
555317.776,4222385.166,-331.2 
555317.776,4222284.990,-330.5 
555317.776,4222184.814,-331.9 
555317.776,4222084.638,-330.9 
555317.776,4221984.462,-322.9 
555317.776,4221884.286,-314.5 
555317.776,4221784.110,-315.9 
555317.776,4221683.934,-317.3 
555317.776,4221583.758,-312.7 
555317.776,4221483.582,-314.3 
555317.776,4221383.405,-317 
555317.776,4221283.229,-313.5 
555317.776,4221183.053,-315.2 
555317.776,4221082.877,-319.5 
555317.776,4220982.701,-315.9 
555317.776,4220882.525,-308.4 
555317.776,4220782.349,-301.9 
555317.776,4220682.173,-296.8 
555317.776,4220581.997,-297.2 
555317.776,4220481.821,-303.9 
555317.776,4220381.645,-315.6 
555317.776,4220281.469,-329.4 
555317.776,4220181.293,-337.8 
555317.776,4220081.117,-339.1 
555317.776,4219980.941,-337.9 
555317.776,4219880.765,-339.2 
555317.776,4219780.589,-340.2 
555317.776,4219680.413,-337.2 
555317.776,4219580.236,-332.8 
555317.776,4219480.060,-330.3 
555317.776,4219379.884,-329.9 
555317.776,4219279.708,-329.6 
555317.776,4219179.532,-326.9 
555317.776,4219079.356,-320.8 
555317.776,4218979.180,-312.7 
555317.776,4218879.004,-305.9 
555317.776,4218778.828,-300.3 
555317.776,4218678.652,-292.6 
555317.776,4218578.476,-281.7 
555317.776,4218478.300,-267.6 
555317.776,4218378.124,-250.4 
555317.776,4218277.948,-231.1 
555317.776,4218177.772,-213.6 
555317.776,4218077.596,-199.6 
555317.776,4217977.420,-184.4 
555317.776,4217877.244,-164.2 
555317.776,4217777.067,-140.7 
555317.776,4217676.891,-129.6 
555317.776,4214671.610,-109.2 
555317.776,4214571.434,-115.3 
555317.776,4214471.258,-125.4 
555317.776,4214371.082,-135.2 
555317.776,4214270.905,-142 
555317.776,4214170.729,-152.2 
555317.776,4214070.553,-165.8 
555317.776,4213970.377,-182 
555317.776,4213870.201,-198.5 
555317.776,4213770.025,-213.9 
555317.776,4213669.849,-227.9 
555317.776,4213569.673,-240.1 
555317.776,4213469.497,-254.1 
555317.776,4213369.321,-271.6 
555317.776,4213269.145,-290.1 
555317.776,4213168.969,-311.2 
555317.776,4213068.793,-331.4 
555317.776,4212968.617,-348.2 
555317.776,4212868.441,-356.8 
555317.776,4212768.265,-364.6 
555317.776,4212668.089,-388.3 
555317.776,4212567.913,-418.4 
555317.776,4212467.736,-441.6 
555317.776,4212367.560,-457 
555317.776,4212267.384,-469.2 
555317.776,4212167.208,-480.7 
555317.776,4212067.032,-491.9 
555317.776,4211966.856,-504.2 
555317.776,4211866.680,-512.3 
555317.776,4211766.504,-514.2 
555317.776,4211666.328,-512.6 
555317.776,4211566.152,-505.9 
555317.776,4211465.976,-481.3 
555317.776,4211365.800,-447.9 
555317.776,4211265.624,-423.1 
555317.776,4211165.448,-406.2 
555317.776,4211065.272,-390.1 
555317.776,4210965.096,-373.2 
555317.776,4210864.920,-372.6 
555317.776,4210764.744,-350.3 
555317.776,4210664.567,-332 
555317.776,4210564.391,-319.8 
555317.776,4210464.215,-308 
555317.776,4210364.039,-295.6 
555317.776,4210263.863,-289.5 
555317.776,4210163.687,-285.9 
555317.776,4210063.511,-282.1 
555317.776,4209963.335,-277.7 
555317.776,4209863.159,-277.6 
555317.776,4209762.983,-288.8 
555317.776,4209662.807,-304.6 
555317.776,4209562.631,-324.6 
555317.776,4209462.455,-343.2 
555317.776,4209362.279,-338.9 
555317.776,4209262.103,-325.6 
555317.776,4209161.927,-318.8 
555317.776,4209061.751,-312.9 
555317.776,4208961.574,-305 
555317.776,4208861.398,-295.9 
555317.776,4208761.222,-281.2 
555317.776,4208661.046,-263.5 
555317.776,4208560.870,-243.9 
555317.776,4208460.694,-221.6 
555317.776,4208360.518,-186.1 
555317.776,4208260.342,-157.6 
555317.776,4208160.166,-142.9 
555317.776,4208059.990,-132.6 
555317.776,4207959.814,-135.8 
555317.776,4207859.638,-151.3 
555317.776,4207759.462,-177.4 
555317.776,4207659.286,-188.9 
555317.776,4207559.110,-194.2 
555317.776,4207458.934,-205.2 
555317.776,4207358.758,-218.6 
555317.776,4207258.582,-233.1 
555317.776,4207158.405,-243.9 
555317.776,4207058.229,-255.9 
555317.776,4206958.053,-266.4 
555317.776,4206857.877,-278.9 
555317.776,4206757.701,-290.6 
555317.776,4206657.525,-305.4 
555317.776,4206557.349,-315.5 
555317.776,4206457.173,-323.9 
555317.776,4206356.997,-327.1 
555317.776,4206256.821,-317.3 
555317.776,4206156.645,-299.8 
555317.776,4206056.469,-302.7 
555317.776,4205956.293,-333.9 
555317.776,4205856.117,-356.9 
555317.776,4205755.941,-373.9 
555317.776,4205655.765,-390.9 
555317.776,4205555.589,-401 
555317.776,4205455.413,-400.4 
555317.776,4205355.236,-407.7 
555317.776,4205255.060,-438.6 
555317.776,4205154.884,-453.3 
555317.776,4205054.708,-454.5 
555317.776,4204954.532,-430.1 
555317.776,4204854.356,-397 
555317.776,4204754.180,-369.7 
555317.776,4204654.004,-357.4 
555317.776,4204553.828,-358.7 
555317.776,4204453.652,-341 
555317.776,4204353.476,-331.3 
555317.776,4204253.300,-344.4 
555317.776,4204153.124,-375.4 
555317.776,4204052.948,-404.9 
555317.776,4203952.772,-422 
555317.776,4203852.596,-444.5 
555317.776,4203752.420,-474.8 
555317.776,4203652.244,-520.3 
555317.776,4203552.067,-581.4 
555317.776,4203451.891,-628.7 
555317.776,4203351.715,-636.2 
555317.776,4203251.539,-597.6 
555317.776,4203151.363,-547.2 
555317.776,4203051.187,-525.3 
555317.776,4202951.011,-540.4 
555317.776,4202850.835,-616.3 
555317.776,4202750.659,-660.9 
555418.048,4234506.469,-118.7 
555418.048,4234406.293,-127.6 
555418.048,4234306.117,-135.6 
555418.048,4234205.941,-138.2 
555418.048,4234105.765,-138.1 
555418.048,4234005.589,-138.4 
555418.048,4233905.413,-141 
555418.048,4233805.236,-143.2 
555418.048,4233705.060,-142.9 
555418.048,4233604.884,-142.6 
555418.048,4233504.708,-144.9 
555418.048,4233404.532,-146.5 
555418.048,4233304.356,-145.4 
555418.048,4233204.180,-143.7 
555418.048,4233104.004,-142.7 
555418.048,4233003.828,-142 
555418.048,4232903.652,-141 
555418.048,4232803.476,-139.1 
555418.048,4232703.300,-135.2 
555418.048,4232603.124,-129.3 
555418.048,4232502.948,-123.8 
555418.048,4232402.772,-121.2 
555418.048,4232302.596,-117.7 
555418.048,4232202.420,-110.1 
555418.048,4226191.856,-111.5 
555418.048,4226091.680,-119.2 
555418.048,4225991.504,-133 
555418.048,4225891.328,-148.3 
555418.048,4225791.152,-162.6 
555418.048,4225690.976,-174 
555418.048,4225590.800,-182 
555418.048,4225490.624,-187 
555418.048,4225390.448,-189.3 
555418.048,4225290.272,-190.3 
555418.048,4225190.096,-190.5 
555418.048,4225089.920,-189.2 
555418.048,4224989.744,-186.7 
555418.048,4224889.567,-184.3 
555418.048,4224789.391,-183 
555418.048,4224689.215,-183.8 
555418.048,4224589.039,-187.1 
555418.048,4224488.863,-193.1 
555418.048,4224388.687,-201.6 
555418.048,4224288.511,-211.6 
555418.048,4224188.335,-222.3 
555418.048,4224088.159,-232.6 
555418.048,4223987.983,-242 
555418.048,4223887.807,-250.9 
555418.048,4223787.631,-260.6 
555418.048,4223687.455,-270.7 
555418.048,4223587.279,-277.3 
555418.048,4223487.103,-280.1 
555418.048,4223386.927,-282.8 
555418.048,4223286.751,-289.2 
555418.048,4223186.574,-298.5 
555418.048,4223086.398,-304.8 
555418.048,4222986.222,-306.5 
555418.048,4222886.046,-310.9 
555418.048,4222785.870,-317.8 
555418.048,4222685.694,-322.3 
555418.048,4222585.518,-324.5 
555418.048,4222485.342,-324.9 
555418.048,4222385.166,-322.4 
555418.048,4222284.990,-320.5 
555418.048,4222184.814,-321.8 
555418.048,4222084.638,-321.7 
555418.048,4221984.462,-313.8 
555418.048,4221884.286,-304 
555418.048,4221784.110,-304.8 
555418.048,4221683.934,-311.1 
555418.048,4221583.758,-309.2 
555418.048,4221483.582,-307.9 
555418.048,4221383.405,-309.8 
555418.048,4221283.229,-308.5 
555418.048,4221183.053,-308.8 
555418.048,4221082.877,-310.3 
555418.048,4220982.701,-308.6 
555418.048,4220882.525,-302.9 
555418.048,4220782.349,-295.1 
555418.048,4220682.173,-288.3 
555418.048,4220581.997,-286.5 
555418.048,4220481.821,-293.5 
555418.048,4220381.645,-308.7 
555418.048,4220281.469,-321.2 
555418.048,4220181.293,-325.1 
555418.048,4220081.117,-325.8 
555418.048,4219980.941,-324.8 
555418.048,4219880.765,-325.7 
555418.048,4219780.589,-327.6 
555418.048,4219680.413,-325.5 
555418.048,4219580.236,-320.9 
555418.048,4219480.060,-316.5 
555418.048,4219379.884,-314.3 
555418.048,4219279.708,-312.7 
555418.048,4219179.532,-308.9 
555418.048,4219079.356,-302.5 
555418.048,4218979.180,-294.1 
555418.048,4218879.004,-285.9 
555418.048,4218778.828,-278.6 
555418.048,4218678.652,-271.5 
555418.048,4218578.476,-262.6 
555418.048,4218478.300,-249.6 
555418.048,4218378.124,-232 
555418.048,4218277.948,-211.1 
555418.048,4218177.772,-189.7 
555418.048,4218077.596,-173 
555418.048,4217977.420,-160.2 
555418.048,4217877.244,-143.5 
555418.048,4217777.067,-133.3 
555418.048,4214270.905,-113.9 
555418.048,4214170.729,-123.5 
555418.048,4214070.553,-138.4 
555418.048,4213970.377,-156.7 
555418.048,4213870.201,-174.2 
555418.048,4213770.025,-190 
555418.048,4213669.849,-202.1 
555418.048,4213569.673,-213 
555418.048,4213469.497,-230.3 
555418.048,4213369.321,-248 
555418.048,4213269.145,-269.6 
555418.048,4213168.969,-294.5 
555418.048,4213068.793,-315.3 
555418.048,4212968.617,-333.8 
555418.048,4212868.441,-351 
555418.048,4212768.265,-370 
555418.048,4212668.089,-395.2 
555418.048,4212567.913,-415 
555418.048,4212467.736,-430.2 
555418.048,4212367.560,-442.3 
555418.048,4212267.384,-454.3 
555418.048,4212167.208,-467.2 
555418.048,4212067.032,-479.1 
555418.048,4211966.856,-488.5 
555418.048,4211866.680,-491 
555418.048,4211766.504,-491.2 
555418.048,4211666.328,-491.6 
555418.048,4211566.152,-487 
555418.048,4211465.976,-465.7 
555418.048,4211365.800,-433.1 
555418.048,4211265.624,-408.6 
555418.048,4211165.448,-386.1 
555418.048,4211065.272,-365.5 
555418.048,4210965.096,-351.5 
555418.048,4210864.920,-359.7 
555418.048,4210764.744,-343 
555418.048,4210664.567,-324.6 
555418.048,4210564.391,-310.6 
555418.048,4210464.215,-297.6 
555418.048,4210364.039,-286.5 
555418.048,4210263.863,-280 
555418.048,4210163.687,-276.1 
555418.048,4210063.511,-271.9 
555418.048,4209963.335,-266.3 
555418.048,4209863.159,-261.9 
555418.048,4209762.983,-265.2 
555418.048,4209662.807,-285.6 
555418.048,4209562.631,-321.3 
555418.048,4209462.455,-330.5 
555418.048,4209362.279,-320.5 
555418.048,4209262.103,-303.6 
555418.048,4209161.927,-297.3 
555418.048,4209061.751,-292 
555418.048,4208961.574,-284.6 
555418.048,4208861.398,-277.6 
555418.048,4208761.222,-265.2 
555418.048,4208661.046,-245.4 
555418.048,4208560.870,-219.7 
555418.048,4208460.694,-195.6 
555418.048,4208360.518,-159.3 
555418.048,4208260.342,-128.8 
555418.048,4207859.638,-122.5 
555418.048,4207759.462,-142.8 
555418.048,4207659.286,-147.1 
555418.048,4207559.110,-155.1 
555418.048,4207458.934,-165.4 
555418.048,4207358.758,-176 
555418.048,4207258.582,-188.8 
555418.048,4207158.405,-197.7 
555418.048,4207058.229,-208.8 
555418.048,4206958.053,-220.9 
555418.048,4206857.877,-233.3 
555418.048,4206757.701,-244.9 
555418.048,4206657.525,-259.2 
555418.048,4206557.349,-271.9 
555418.048,4206457.173,-282.9 
555418.048,4206356.997,-286.4 
555418.048,4206256.821,-280.2 
555418.048,4206156.645,-266.4 
555418.048,4206056.469,-274.8 
555418.048,4205956.293,-308.8 
555418.048,4205856.117,-330.5 
555418.048,4205755.941,-345.7 
555418.048,4205655.765,-358.5 
555418.048,4205555.589,-366.3 
555418.048,4205455.413,-367.2 
555418.048,4205355.236,-383.8 
555418.048,4205255.060,-407.1 
555418.048,4205154.884,-419.4 
555418.048,4205054.708,-418 
555418.048,4204954.532,-392.5 
555418.048,4204854.356,-364.6 
555418.048,4204754.180,-338.7 
555418.048,4204654.004,-332.9 
555418.048,4204553.828,-332.2 
555418.048,4204453.652,-324.6 
555418.048,4204353.476,-315.1 
555418.048,4204253.300,-321.9 
555418.048,4204153.124,-341.2 
555418.048,4204052.948,-366.6 
555418.048,4203952.772,-390.5 
555418.048,4203852.596,-425.1 
555418.048,4203752.420,-474.3 
555418.048,4203652.244,-522.7 
555418.048,4203552.067,-582.8 
555418.048,4203451.891,-610.8 
555418.048,4203351.715,-599.9 
555418.048,4203251.539,-549 
555418.048,4203151.363,-501.7 
555418.048,4203051.187,-491.6 
555418.048,4202951.011,-537.1 
555418.048,4202850.835,-607.4 
555418.048,4202750.659,-652.8 
555518.320,4234506.469,-111.5 
555518.320,4234406.293,-123.9 
555518.320,4234306.117,-135.1 
555518.320,4234205.941,-139.1 
555518.320,4234105.765,-139.8 
555518.320,4234005.589,-141 
555518.320,4233905.413,-143.5 
555518.320,4233805.236,-144.8 
555518.320,4233705.060,-144.5 
555518.320,4233604.884,-145 
555518.320,4233504.708,-148 
555518.320,4233404.532,-149.7 
555518.320,4233304.356,-148.7 
555518.320,4233204.180,-148.5 
555518.320,4233104.004,-149.6 
555518.320,4233003.828,-150 
555518.320,4232903.652,-147.6 
555518.320,4232803.476,-142.7 
555518.320,4232703.300,-136.7 
555518.320,4232603.124,-129.8 
555518.320,4232502.948,-123.8 
555518.320,4232402.772,-119.9 
555518.320,4232302.596,-115.1 
555518.320,4232202.420,-108.7 
555518.320,4226091.680,-112.1 
555518.320,4225991.504,-123.1 
555518.320,4225891.328,-138.1 
555518.320,4225791.152,-151 
555518.320,4225690.976,-159.2 
555518.320,4225590.800,-163.8 
555518.320,4225490.624,-165.8 
555518.320,4225390.448,-165.8 
555518.320,4225290.272,-165.2 
555518.320,4225190.096,-164.3 
555518.320,4225089.920,-162.7 
555518.320,4224989.744,-160 
555518.320,4224889.567,-156.9 
555518.320,4224789.391,-155.3 
555518.320,4224689.215,-156.5 
555518.320,4224589.039,-160.8 
555518.320,4224488.863,-168.6 
555518.320,4224388.687,-179.3 
555518.320,4224288.511,-191.6 
555518.320,4224188.335,-204.3 
555518.320,4224088.159,-216.2 
555518.320,4223987.983,-226.5 
555518.320,4223887.807,-236.3 
555518.320,4223787.631,-246.7 
555518.320,4223687.455,-256 
555518.320,4223587.279,-260.5 
555518.320,4223487.103,-262.3 
555518.320,4223386.927,-266.8 
555518.320,4223286.751,-276.5 
555518.320,4223186.574,-285.6 
555518.320,4223086.398,-290.3 
555518.320,4222986.222,-292.2 
555518.320,4222886.046,-297.9 
555518.320,4222785.870,-305.8 
555518.320,4222685.694,-310.7 
555518.320,4222585.518,-313.5 
555518.320,4222485.342,-314.9 
555518.320,4222385.166,-311.1 
555518.320,4222284.990,-307.5 
555518.320,4222184.814,-309.2 
555518.320,4222084.638,-311.1 
555518.320,4221984.462,-304.6 
555518.320,4221884.286,-294.9 
555518.320,4221784.110,-295.7 
555518.320,4221683.934,-303.2 
555518.320,4221583.758,-301.8 
555518.320,4221483.582,-299.7 
555518.320,4221383.405,-301.7 
555518.320,4221283.229,-303.5 
555518.320,4221183.053,-304.4 
555518.320,4221082.877,-303 
555518.320,4220982.701,-300.9 
555518.320,4220882.525,-296.2 
555518.320,4220782.349,-287.9 
555518.320,4220682.173,-279.7 
555518.320,4220581.997,-277 
555518.320,4220481.821,-286.1 
555518.320,4220381.645,-300.1 
555518.320,4220281.469,-307.2 
555518.320,4220181.293,-310.4 
555518.320,4220081.117,-313.7 
555518.320,4219980.941,-314.4 
555518.320,4219880.765,-314.2 
555518.320,4219780.589,-314.7 
555518.320,4219680.413,-312.8 
555518.320,4219580.236,-308.5 
555518.320,4219480.060,-303.4 
555518.320,4219379.884,-299.3 
555518.320,4219279.708,-295.9 
555518.320,4219179.532,-291.3 
555518.320,4219079.356,-284 
555518.320,4218979.180,-274.4 
555518.320,4218879.004,-264.8 
555518.320,4218778.828,-256.8 
555518.320,4218678.652,-249.9 
555518.320,4218578.476,-241.8 
555518.320,4218478.300,-229.7 
555518.320,4218378.124,-212.5 
555518.320,4218277.948,-190.9 
555518.320,4218177.772,-167.3 
555518.320,4218077.596,-146.7 
555518.320,4217977.420,-134 
555518.320,4217877.244,-123.4 
555518.320,4217777.067,-117.5 
555518.320,4214070.553,-118.1 
555518.320,4213970.377,-133.9 
555518.320,4213870.201,-152.3 
555518.320,4213770.025,-166.8 
555518.320,4213669.849,-177.6 
555518.320,4213569.673,-191.5 
555518.320,4213469.497,-210 
555518.320,4213369.321,-231.8 
555518.320,4213269.145,-256.6 
555518.320,4213168.969,-284.2 
555518.320,4213068.793,-308.2 
555518.320,4212968.617,-330.7 
555518.320,4212868.441,-352.6 
555518.320,4212768.265,-371.7 
555518.320,4212668.089,-388.9 
555518.320,4212567.913,-403.4 
555518.320,4212467.736,-415.7 
555518.320,4212367.560,-427.4 
555518.320,4212267.384,-440.3 
555518.320,4212167.208,-453.8 
555518.320,4212067.032,-464.3 
555518.320,4211966.856,-468.4 
555518.320,4211866.680,-465.5 
555518.320,4211766.504,-464.5 
555518.320,4211666.328,-466.3 
555518.320,4211566.152,-468.3 
555518.320,4211465.976,-458.1 
555518.320,4211365.800,-439.6 
555518.320,4211265.624,-420.4 
555518.320,4211165.448,-391.4 
555518.320,4211065.272,-355.1 
555518.320,4210965.096,-335.4 
555518.320,4210864.920,-339.4 
555518.320,4210764.744,-333 
555518.320,4210664.567,-317.4 
555518.320,4210564.391,-301.7 
555518.320,4210464.215,-287.8 
555518.320,4210364.039,-276.8 
555518.320,4210263.863,-270.5 
555518.320,4210163.687,-266.6 
555518.320,4210063.511,-262.1 
555518.320,4209963.335,-255.4 
555518.320,4209863.159,-250.3 
555518.320,4209762.983,-255.1 
555518.320,4209662.807,-288 
555518.320,4209562.631,-316 
555518.320,4209462.455,-316 
555518.320,4209362.279,-301.3 
555518.320,4209262.103,-281.1 
555518.320,4209161.927,-276.1 
555518.320,4209061.751,-271.1 
555518.320,4208961.574,-263.6 
555518.320,4208861.398,-256.9 
555518.320,4208761.222,-247.7 
555518.320,4208661.046,-227.7 
555518.320,4208560.870,-200.1 
555518.320,4208460.694,-165.2 
555518.320,4208360.518,-131.3 
555518.320,4208260.342,-116 
555518.320,4207659.286,-114.3 
555518.320,4207559.110,-123.8 
555518.320,4207458.934,-133.5 
555518.320,4207358.758,-134.3 
555518.320,4207258.582,-145.8 
555518.320,4207158.405,-150.1 
555518.320,4207058.229,-160.7 
555518.320,4206958.053,-172 
555518.320,4206857.877,-184.9 
555518.320,4206757.701,-197.2 
555518.320,4206657.525,-212.1 
555518.320,4206557.349,-226.8 
555518.320,4206457.173,-238.2 
555518.320,4206356.997,-242.5 
555518.320,4206256.821,-241.8 
555518.320,4206156.645,-238.7 
555518.320,4206056.469,-255.5 
555518.320,4205956.293,-282 
555518.320,4205856.117,-298.7 
555518.320,4205755.941,-313.2 
555518.320,4205655.765,-325.3 
555518.320,4205555.589,-332.4 
555518.320,4205455.413,-339.2 
555518.320,4205355.236,-359.5 
555518.320,4205255.060,-376.7 
555518.320,4205154.884,-385.3 
555518.320,4205054.708,-381.8 
555518.320,4204954.532,-363.9 
555518.320,4204854.356,-339.8 
555518.320,4204754.180,-315.3 
555518.320,4204654.004,-309.6 
555518.320,4204553.828,-308.1 
555518.320,4204453.652,-304.9 
555518.320,4204353.476,-297.3 
555518.320,4204253.300,-300.1 
555518.320,4204153.124,-312.6 
555518.320,4204052.948,-339.8 
555518.320,4203952.772,-375.8 
555518.320,4203852.596,-423.5 
555518.320,4203752.420,-481.7 
555518.320,4203652.244,-534.5 
555518.320,4203552.067,-576 
555518.320,4203451.891,-582.4 
555518.320,4203351.715,-552.3 
555518.320,4203251.539,-485.1 
555518.320,4203151.363,-455.2 
555518.320,4203051.187,-466 
555518.320,4202951.011,-522 
555518.320,4202850.835,-597.1 
555518.320,4202750.659,-645 
555518.320,4202650.483,-670.1 
555618.591,4234506.469,-107.4 
555618.591,4234406.293,-118.6 
555618.591,4234306.117,-134.6 
555618.591,4234205.941,-141.8 
555618.591,4234105.765,-144.2 
555618.591,4234005.589,-147.1 
555618.591,4233905.413,-149.8 
555618.591,4233805.236,-149.5 
555618.591,4233705.060,-147.7 
555618.591,4233604.884,-147.4 
555618.591,4233504.708,-149.7 
555618.591,4233404.532,-153 
555618.591,4233304.356,-156.8 
555618.591,4233204.180,-158.8 
555618.591,4233104.004,-157 
555618.591,4233003.828,-153.8 
555618.591,4232903.652,-149.9 
555618.591,4232803.476,-144.4 
555618.591,4232703.300,-137.7 
555618.591,4232603.124,-130.7 
555618.591,4232502.948,-124 
555618.591,4232402.772,-118.5 
555618.591,4232302.596,-114.1 
555618.591,4232202.420,-110.5 
555618.591,4226091.680,-107.9 
555618.591,4225991.504,-115 
555618.591,4225891.328,-126.8 
555618.591,4225791.152,-135.9 
555618.591,4225690.976,-140.3 
555618.591,4225590.800,-141.7 
555618.591,4225490.624,-141.2 
555618.591,4225390.448,-139.2 
555618.591,4225290.272,-136.5 
555618.591,4225190.096,-136.7 
555618.591,4225089.920,-135.7 
555618.591,4224989.744,-133.4 
555618.591,4224889.567,-130.9 
555618.591,4224789.391,-129.5 
555618.591,4224689.215,-129.9 
555618.591,4224589.039,-134.5 
555618.591,4224488.863,-144.1 
555618.591,4224388.687,-157.1 
555618.591,4224288.511,-171.6 
555618.591,4224188.335,-186.4 
555618.591,4224088.159,-199.7 
555618.591,4223987.983,-211.1 
555618.591,4223887.807,-221.6 
555618.591,4223787.631,-231.6 
555618.591,4223687.455,-238.6 
555618.591,4223587.279,-241.3 
555618.591,4223487.103,-243.9 
555618.591,4223386.927,-250.7 
555618.591,4223286.751,-261.7 
555618.591,4223186.574,-270.7 
555618.591,4223086.398,-274.8 
555618.591,4222986.222,-277.9 
555618.591,4222886.046,-285.3 
555618.591,4222785.870,-293.7 
555618.591,4222685.694,-298.9 
555618.591,4222585.518,-302.2 
555618.591,4222485.342,-304.4 
555618.591,4222385.166,-300.1 
555618.591,4222284.990,-294 
555618.591,4222184.814,-294.8 
555618.591,4222084.638,-298.3 
555618.591,4221984.462,-295.6 
555618.591,4221884.286,-288.4 
555618.591,4221784.110,-288.2 
555618.591,4221683.934,-294.3 
555618.591,4221583.758,-293 
555618.591,4221483.582,-291.2 
555618.591,4221383.405,-293.9 
555618.591,4221283.229,-295.4 
555618.591,4221183.053,-296 
555618.591,4221082.877,-294 
555618.591,4220982.701,-290.9 
555618.591,4220882.525,-287.2 
555618.591,4220782.349,-280.4 
555618.591,4220682.173,-271.9 
555618.591,4220581.997,-269.9 
555618.591,4220481.821,-279 
555618.591,4220381.645,-289.2 
555618.591,4220281.469,-294.5 
555618.591,4220181.293,-298.6 
555618.591,4220081.117,-301.7 
555618.591,4219980.941,-301.9 
555618.591,4219880.765,-301 
555618.591,4219780.589,-300.2 
555618.591,4219680.413,-298.6 
555618.591,4219580.236,-295 
555618.591,4219480.060,-289.9 
555618.591,4219379.884,-284.5 
555618.591,4219279.708,-279.2 
555618.591,4219179.532,-273.9 
555618.591,4219079.356,-266.7 
555618.591,4218979.180,-256.4 
555618.591,4218879.004,-245.9 
555618.591,4218778.828,-236.8 
555618.591,4218678.652,-229.1 
555618.591,4218578.476,-220.3 
555618.591,4218478.300,-208.2 
555618.591,4218378.124,-191.3 
555618.591,4218277.948,-169.9 
555618.591,4218177.772,-145.5 
555618.591,4218077.596,-123.2 
555618.591,4217977.420,-118.6 
555618.591,4213970.377,-116.5 
555618.591,4213870.201,-130.4 
555618.591,4213770.025,-144.8 
555618.591,4213669.849,-159.4 
555618.591,4213569.673,-180.1 
555618.591,4213469.497,-203.2 
555618.591,4213369.321,-228.2 
555618.591,4213269.145,-252.9 
555618.591,4213168.969,-278.2 
555618.591,4213068.793,-302.7 
555618.591,4212968.617,-326.5 
555618.591,4212868.441,-347.4 
555618.591,4212768.265,-362.6 
555618.591,4212668.089,-376.2 
555618.591,4212567.913,-389.1 
555618.591,4212467.736,-400.8 
555618.591,4212367.560,-413.1 
555618.591,4212267.384,-426.6 
555618.591,4212167.208,-438.5 
555618.591,4212067.032,-443.9 
555618.591,4211966.856,-443.4 
555618.591,4211866.680,-437.8 
555618.591,4211766.504,-433.4 
555618.591,4211666.328,-435.8 
555618.591,4211566.152,-440.8 
555618.591,4211465.976,-438.3 
555618.591,4211365.800,-426.8 
555618.591,4211265.624,-414.1 
555618.591,4211165.448,-393.3 
555618.591,4211065.272,-355.5 
555618.591,4210965.096,-327.1 
555618.591,4210864.920,-321 
555618.591,4210764.744,-323 
555618.591,4210664.567,-309.7 
555618.591,4210564.391,-291.9 
555618.591,4210464.215,-278.3 
555618.591,4210364.039,-267.5 
555618.591,4210263.863,-261.3 
555618.591,4210163.687,-257.2 
555618.591,4210063.511,-252.3 
555618.591,4209963.335,-244.9 
555618.591,4209863.159,-243.6 
555618.591,4209762.983,-258.7 
555618.591,4209662.807,-293.5 
555618.591,4209562.631,-307.3 
555618.591,4209462.455,-300.6 
555618.591,4209362.279,-284.8 
555618.591,4209262.103,-265.3 
555618.591,4209161.927,-256.5 
555618.591,4209061.751,-249.6 
555618.591,4208961.574,-242.4 
555618.591,4208861.398,-234.6 
555618.591,4208761.222,-226.8 
555618.591,4208661.046,-208 
555618.591,4208560.870,-178.9 
555618.591,4208460.694,-142 
555618.591,4208360.518,-113.5 
555618.591,4207158.405,-114.6 
555618.591,4207058.229,-124.2 
555618.591,4206958.053,-127.1 
555618.591,4206857.877,-139.9 
555618.591,4206757.701,-148.9 
555618.591,4206657.525,-164.8 
555618.591,4206557.349,-179.5 
555618.591,4206457.173,-192.4 
555618.591,4206356.997,-198.2 
555618.591,4206256.821,-198.9 
555618.591,4206156.645,-207.9 
555618.591,4206056.469,-229.6 
555618.591,4205956.293,-250 
555618.591,4205856.117,-265.9 
555618.591,4205755.941,-279.4 
555618.591,4205655.765,-290.7 
555618.591,4205555.589,-299.4 
555618.591,4205455.413,-312.4 
555618.591,4205355.236,-331.2 
555618.591,4205255.060,-345.6 
555618.591,4205154.884,-352.9 
555618.591,4205054.708,-350.1 
555618.591,4204954.532,-342.1 
555618.591,4204854.356,-319.9 
555618.591,4204754.180,-294.8 
555618.591,4204654.004,-285.2 
555618.591,4204553.828,-282.5 
555618.591,4204453.652,-280.6 
555618.591,4204353.476,-276.4 
555618.591,4204253.300,-280.3 
555618.591,4204153.124,-295.2 
555618.591,4204052.948,-331.1 
555618.591,4203952.772,-366.5 
555618.591,4203852.596,-404.6 
555618.591,4203752.420,-478.3 
555618.591,4203652.244,-532.6 
555618.591,4203552.067,-554.2 
555618.591,4203451.891,-554.3 
555618.591,4203351.715,-514.8 
555618.591,4203251.539,-447.3 
555618.591,4203151.363,-423.5 
555618.591,4203051.187,-462.8 
555618.591,4202951.011,-522 
555618.591,4202850.835,-581.1 
555618.591,4202750.659,-629.4 
555618.591,4202650.483,-666.7 
555718.863,4234406.293,-128.5 
555718.863,4234306.117,-135.9 
555718.863,4234205.941,-148 
555718.863,4234105.765,-154.4 
555718.863,4234005.589,-158.5 
555718.863,4233905.413,-159.9 
555718.863,4233805.236,-159.9 
555718.863,4233705.060,-158.8 
555718.863,4233604.884,-156.9 
555718.863,4233504.708,-156.1 
555718.863,4233404.532,-157.1 
555718.863,4233304.356,-160.4 
555718.863,4233204.180,-161.7 
555718.863,4233104.004,-158.5 
555718.863,4233003.828,-154.7 
555718.863,4232903.652,-151.2 
555718.863,4232803.476,-146.5 
555718.863,4232703.300,-140.4 
555718.863,4232603.124,-133.4 
555718.863,4232502.948,-126 
555718.863,4232402.772,-120.4 
555718.863,4232302.596,-117.1 
555718.863,4232202.420,-114.4 
555718.863,4232102.244,-108.5 
555718.863,4225991.504,-110.1 
555718.863,4225891.328,-114.1 
555718.863,4225791.152,-119.3 
555718.863,4225690.976,-121.2 
555718.863,4225590.800,-120.4 
555718.863,4225490.624,-117.7 
555718.863,4225390.448,-113.8 
555718.863,4225290.272,-109.7 
555718.863,4224689.215,-113.2 
555718.863,4224589.039,-113.8 
555718.863,4224488.863,-122.3 
555718.863,4224388.687,-136.4 
555718.863,4224288.511,-152.8 
555718.863,4224188.335,-169.1 
555718.863,4224088.159,-183.3 
555718.863,4223987.983,-195 
555718.863,4223887.807,-205 
555718.863,4223787.631,-213 
555718.863,4223687.455,-217.9 
555718.863,4223587.279,-220.7 
555718.863,4223487.103,-225.7 
555718.863,4223386.927,-235.3 
555718.863,4223286.751,-246.2 
555718.863,4223186.574,-254.6 
555718.863,4223086.398,-259.9 
555718.863,4222986.222,-266.8 
555718.863,4222886.046,-276.1 
555718.863,4222785.870,-282.9 
555718.863,4222685.694,-287 
555718.863,4222585.518,-290.6 
555718.863,4222485.342,-293 
555718.863,4222385.166,-290.1 
555718.863,4222284.990,-281.8 
555718.863,4222184.814,-279.6 
555718.863,4222084.638,-284.2 
555718.863,4221984.462,-287 
555718.863,4221884.286,-284.5 
555718.863,4221784.110,-283.1 
555718.863,4221683.934,-285.7 
555718.863,4221583.758,-284.6 
555718.863,4221483.582,-283.6 
555718.863,4221383.405,-286.2 
555718.863,4221283.229,-285.7 
555718.863,4221183.053,-285.8 
555718.863,4221082.877,-285.3 
555718.863,4220982.701,-281.5 
555718.863,4220882.525,-278 
555718.863,4220782.349,-272.9 
555718.863,4220682.173,-264.7 
555718.863,4220581.997,-263.7 
555718.863,4220481.821,-271 
555718.863,4220381.645,-277.3 
555718.863,4220281.469,-282.6 
555718.863,4220181.293,-286.6 
555718.863,4220081.117,-287.9 
555718.863,4219980.941,-287.2 
555718.863,4219880.765,-285.9 
555718.863,4219780.589,-285 
555718.863,4219680.413,-283.7 
555718.863,4219580.236,-280.5 
555718.863,4219480.060,-275.2 
555718.863,4219379.884,-269.5 
555718.863,4219279.708,-263.3 
555718.863,4219179.532,-256.7 
555718.863,4219079.356,-249.3 
555718.863,4218979.180,-239.5 
555718.863,4218879.004,-228.1 
555718.863,4218778.828,-217.4 
555718.863,4218678.652,-207.9 
555718.863,4218578.476,-197.7 
555718.863,4218478.300,-185.1 
555718.863,4218378.124,-169.1 
555718.863,4218277.948,-148.8 
555718.863,4218177.772,-126.1 
555718.863,4218077.596,-115.4 
555718.863,4213870.201,-112.7 
555718.863,4213770.025,-127.2 
555718.863,4213669.849,-149.8 
555718.863,4213569.673,-174.1 
555718.863,4213469.497,-197.8 
555718.863,4213369.321,-221.5 
555718.863,4213269.145,-246.4 
555718.863,4213168.969,-271.5 
555718.863,4213068.793,-296.3 
555718.863,4212968.617,-319.5 
555718.863,4212868.441,-336.9 
555718.863,4212768.265,-349.5 
555718.863,4212668.089,-362.1 
555718.863,4212567.913,-373.9 
555718.863,4212467.736,-385.5 
555718.863,4212367.560,-398.9 
555718.863,4212267.384,-411.5 
555718.863,4212167.208,-418.5 
555718.863,4212067.032,-416 
555718.863,4211966.856,-411.3 
555718.863,4211866.680,-404 
555718.863,4211766.504,-399.3 
555718.863,4211666.328,-401.5 
555718.863,4211566.152,-406.9 
555718.863,4211465.976,-409.2 
555718.863,4211365.800,-400.3 
555718.863,4211265.624,-391.6 
555718.863,4211165.448,-381.2 
555718.863,4211065.272,-361.5 
555718.863,4210965.096,-334.5 
555718.863,4210864.920,-316.6 
555718.863,4210764.744,-313.4 
555718.863,4210664.567,-302.8 
555718.863,4210564.391,-284.3 
555718.863,4210464.215,-270.1 
555718.863,4210364.039,-258.9 
555718.863,4210263.863,-251.7 
555718.863,4210163.687,-247.2 
555718.863,4210063.511,-242.8 
555718.863,4209963.335,-239.5 
555718.863,4209863.159,-249.4 
555718.863,4209762.983,-271.2 
555718.863,4209662.807,-292.6 
555718.863,4209562.631,-294.5 
555718.863,4209462.455,-284.7 
555718.863,4209362.279,-271.4 
555718.863,4209262.103,-256.4 
555718.863,4209161.927,-238.2 
555718.863,4209061.751,-227.6 
555718.863,4208961.574,-220.6 
555718.863,4208861.398,-212.3 
555718.863,4208761.222,-204.6 
555718.863,4208661.046,-188 
555718.863,4208560.870,-161.5 
555718.863,4208460.694,-131.2 
555718.863,4206757.701,-111.8 
555718.863,4206657.525,-127.8 
555718.863,4206557.349,-136.4 
555718.863,4206457.173,-146 
555718.863,4206356.997,-154.5 
555718.863,4206256.821,-155.4 
555718.863,4206156.645,-175.9 
555718.863,4206056.469,-198 
555718.863,4205956.293,-214.9 
555718.863,4205856.117,-230.9 
555718.863,4205755.941,-244.4 
555718.863,4205655.765,-255.6 
555718.863,4205555.589,-266.7 
555718.863,4205455.413,-283.8 
555718.863,4205355.236,-300 
555718.863,4205255.060,-313.4 
555718.863,4205154.884,-320.6 
555718.863,4205054.708,-320.7 
555718.863,4204954.532,-316.2 
555718.863,4204854.356,-296.2 
555718.863,4204754.180,-275.9 
555718.863,4204654.004,-262.9 
555718.863,4204553.828,-258.3 
555718.863,4204453.652,-254.7 
555718.863,4204353.476,-254.7 
555718.863,4204253.300,-264.9 
555718.863,4204153.124,-285.6 
555718.863,4204052.948,-326.9 
555718.863,4203952.772,-371 
555718.863,4203852.596,-413.4 
555718.863,4203752.420,-475.1 
555718.863,4203652.244,-508.7 
555718.863,4203552.067,-512.3 
555718.863,4203451.891,-525.1 
555718.863,4203351.715,-487.6 
555718.863,4203251.539,-422.2 
555718.863,4203151.363,-412 
555718.863,4203051.187,-460.6 
555718.863,4202951.011,-509.9 
555718.863,4202850.835,-559.9 
555718.863,4202750.659,-613.4 
555718.863,4202650.483,-654.3 
555819.135,4234406.293,-122.6 
555819.135,4234306.117,-142 
555819.135,4234205.941,-156.5 
555819.135,4234105.765,-165.5 
555819.135,4234005.589,-171.8 
555819.135,4233905.413,-173 
555819.135,4233805.236,-171.8 
555819.135,4233705.060,-173.4 
555819.135,4233604.884,-173.9 
555819.135,4233504.708,-172.1 
555819.135,4233404.532,-172.2 
555819.135,4233304.356,-173.5 
555819.135,4233204.180,-172.7 
555819.135,4233104.004,-169.5 
555819.135,4233003.828,-163.9 
555819.135,4232903.652,-157.7 
555819.135,4232803.476,-152.2 
555819.135,4232703.300,-145.2 
555819.135,4232603.124,-136.7 
555819.135,4232502.948,-129.3 
555819.135,4232402.772,-124.4 
555819.135,4232302.596,-121.7 
555819.135,4232202.420,-117.9 
555819.135,4224488.863,-113.5 
555819.135,4224388.687,-120.7 
555819.135,4224288.511,-136 
555819.135,4224188.335,-153 
555819.135,4224088.159,-167.1 
555819.135,4223987.983,-177.4 
555819.135,4223887.807,-183.9 
555819.135,4223787.631,-189.8 
555819.135,4223687.455,-195.3 
555819.135,4223587.279,-200.8 
555819.135,4223487.103,-207.9 
555819.135,4223386.927,-218 
555819.135,4223286.751,-228.3 
555819.135,4223186.574,-237.2 
555819.135,4223086.398,-245.1 
555819.135,4222986.222,-255.6 
555819.135,4222886.046,-265.7 
555819.135,4222785.870,-271.5 
555819.135,4222685.694,-275.1 
555819.135,4222585.518,-278.8 
555819.135,4222485.342,-280.7 
555819.135,4222385.166,-279.5 
555819.135,4222284.990,-273.4 
555819.135,4222184.814,-269.9 
555819.135,4222084.638,-272.4 
555819.135,4221984.462,-275.1 
555819.135,4221884.286,-275.2 
555819.135,4221784.110,-274.9 
555819.135,4221683.934,-276.1 
555819.135,4221583.758,-276.2 
555819.135,4221483.582,-276.3 
555819.135,4221383.405,-277.4 
555819.135,4221283.229,-274.9 
555819.135,4221183.053,-275.6 
555819.135,4221082.877,-277.8 
555819.135,4220982.701,-273.7 
555819.135,4220882.525,-268.9 
555819.135,4220782.349,-264.4 
555819.135,4220682.173,-257.4 
555819.135,4220581.997,-256.7 
555819.135,4220481.821,-262.4 
555819.135,4220381.645,-266.2 
555819.135,4220281.469,-269.5 
555819.135,4220181.293,-271.8 
555819.135,4220081.117,-271.8 
555819.135,4219980.941,-270.4 
555819.135,4219880.765,-268.8 
555819.135,4219780.589,-267.5 
555819.135,4219680.413,-266 
555819.135,4219580.236,-263.4 
555819.135,4219480.060,-258.8 
555819.135,4219379.884,-253.5 
555819.135,4219279.708,-247.3 
555819.135,4219179.532,-239.5 
555819.135,4219079.356,-230.9 
555819.135,4218979.180,-221.6 
555819.135,4218879.004,-210.2 
555819.135,4218778.828,-197.9 
555819.135,4218678.652,-186.1 
555819.135,4218578.476,-173.2 
555819.135,4218478.300,-158.4 
555819.135,4218378.124,-143.2 
555819.135,4218277.948,-128.2 
555819.135,4218177.772,-120.8 
555819.135,4213770.025,-117.5 
555819.135,4213669.849,-138.3 
555819.135,4213569.673,-163.9 
555819.135,4213469.497,-189 
555819.135,4213369.321,-212.5 
555819.135,4213269.145,-237 
555819.135,4213168.969,-262.8 
555819.135,4213068.793,-288.5 
555819.135,4212968.617,-310.4 
555819.135,4212868.441,-323.7 
555819.135,4212768.265,-335.2 
555819.135,4212668.089,-347.2 
555819.135,4212567.913,-358.5 
555819.135,4212467.736,-370.7 
555819.135,4212367.560,-383.8 
555819.135,4212267.384,-391.8 
555819.135,4212167.208,-390 
555819.135,4212067.032,-382.5 
555819.135,4211966.856,-375.8 
555819.135,4211866.680,-366.4 
555819.135,4211766.504,-362.7 
555819.135,4211666.328,-365.6 
555819.135,4211566.152,-371.6 
555819.135,4211465.976,-376.5 
555819.135,4211365.800,-369.4 
555819.135,4211265.624,-364.3 
555819.135,4211165.448,-361.4 
555819.135,4211065.272,-355 
555819.135,4210965.096,-342.4 
555819.135,4210864.920,-329.1 
555819.135,4210764.744,-311.1 
555819.135,4210664.567,-293.5 
555819.135,4210564.391,-277.8 
555819.135,4210464.215,-262.4 
555819.135,4210364.039,-249.8 
555819.135,4210263.863,-241.4 
555819.135,4210163.687,-236.7 
555819.135,4210063.511,-235.3 
555819.135,4209963.335,-244.8 
555819.135,4209863.159,-265.1 
555819.135,4209762.983,-274.4 
555819.135,4209662.807,-278.3 
555819.135,4209562.631,-277.1 
555819.135,4209462.455,-266.8 
555819.135,4209362.279,-255.6 
555819.135,4209262.103,-241.8 
555819.135,4209161.927,-223 
555819.135,4209061.751,-206.7 
555819.135,4208961.574,-198.2 
555819.135,4208861.398,-190 
555819.135,4208761.222,-182.9 
555819.135,4208661.046,-169.1 
555819.135,4208560.870,-148.5 
555819.135,4208460.694,-123.3 
555819.135,4206457.173,-111.3 
555819.135,4206356.997,-121.9 
555819.135,4206256.821,-119.7 
555819.135,4206156.645,-142.6 
555819.135,4206056.469,-161.2 
555819.135,4205956.293,-177.8 
555819.135,4205856.117,-193.2 
555819.135,4205755.941,-206.8 
555819.135,4205655.765,-220.6 
555819.135,4205555.589,-235.6 
555819.135,4205455.413,-253.5 
555819.135,4205355.236,-267.9 
555819.135,4205255.060,-280.6 
555819.135,4205154.884,-288.3 
555819.135,4205054.708,-290.2 
555819.135,4204954.532,-285.7 
555819.135,4204854.356,-272.1 
555819.135,4204754.180,-255.6 
555819.135,4204654.004,-243 
555819.135,4204553.828,-237.9 
555819.135,4204453.652,-233.7 
555819.135,4204353.476,-239.8 
555819.135,4204253.300,-262.2 
555819.135,4204153.124,-294.8 
555819.135,4204052.948,-344 
555819.135,4203952.772,-394.5 
555819.135,4203852.596,-437.9 
555819.135,4203752.420,-469.4 
555819.135,4203652.244,-466.3 
555819.135,4203552.067,-468.2 
555819.135,4203451.891,-491.4 
555819.135,4203351.715,-468.2 
555819.135,4203251.539,-428.1 
555819.135,4203151.363,-424.1 
555819.135,4203051.187,-469.9 
555819.135,4202951.011,-506.9 
555819.135,4202850.835,-544 
555819.135,4202750.659,-593.2 
555819.135,4202650.483,-640.1 
555919.407,4234506.469,-114.5 
555919.407,4234406.293,-129.5 
555919.407,4234306.117,-151.9 
555919.407,4234205.941,-166 
555919.407,4234105.765,-174.8 
555919.407,4234005.589,-181.1 
555919.407,4233905.413,-185.7 
555919.407,4233805.236,-188 
555919.407,4233705.060,-189 
555919.407,4233604.884,-189.7 
555919.407,4233504.708,-188.5 
555919.407,4233404.532,-187.5 
555919.407,4233304.356,-187.9 
555919.407,4233204.180,-185.9 
555919.407,4233104.004,-181.5 
555919.407,4233003.828,-175.8 
555919.407,4232903.652,-168.3 
555919.407,4232803.476,-159.2 
555919.407,4232703.300,-149.1 
555919.407,4232603.124,-139.7 
555919.407,4232502.948,-133 
555919.407,4232402.772,-128.9 
555919.407,4232302.596,-126.2 
555919.407,4232202.420,-120.4 
555919.407,4224388.687,-109.3 
555919.407,4224288.511,-122.1 
555919.407,4224188.335,-137.7 
555919.407,4224088.159,-149.9 
555919.407,4223987.983,-156 
555919.407,4223887.807,-158.4 
555919.407,4223787.631,-163.8 
555919.407,4223687.455,-172.3 
555919.407,4223587.279,-180.4 
555919.407,4223487.103,-188.2 
555919.407,4223386.927,-197.5 
555919.407,4223286.751,-207.5 
555919.407,4223186.574,-217.2 
555919.407,4223086.398,-228 
555919.407,4222986.222,-241.6 
555919.407,4222886.046,-253.2 
555919.407,4222785.870,-259.2 
555919.407,4222685.694,-263 
555919.407,4222585.518,-266.8 
555919.407,4222485.342,-268.3 
555919.407,4222385.166,-267 
555919.407,4222284.990,-263.5 
555919.407,4222184.814,-261 
555919.407,4222084.638,-261.1 
555919.407,4221984.462,-261.9 
555919.407,4221884.286,-262.2 
555919.407,4221784.110,-262.7 
555919.407,4221683.934,-264.2 
555919.407,4221583.758,-265.4 
555919.407,4221483.582,-266.5 
555919.407,4221383.405,-267 
555919.407,4221283.229,-263.9 
555919.407,4221183.053,-265.4 
555919.407,4221082.877,-270.1 
555919.407,4220982.701,-266.5 
555919.407,4220882.525,-260 
555919.407,4220782.349,-255.2 
555919.407,4220682.173,-250 
555919.407,4220581.997,-248.6 
555919.407,4220481.821,-252.2 
555919.407,4220381.645,-254.8 
555919.407,4220281.469,-255.7 
555919.407,4220181.293,-255.7 
555919.407,4220081.117,-254.2 
555919.407,4219980.941,-252 
555919.407,4219880.765,-249.7 
555919.407,4219780.589,-247.5 
555919.407,4219680.413,-245.5 
555919.407,4219580.236,-243.2 
555919.407,4219480.060,-239.6 
555919.407,4219379.884,-235.1 
555919.407,4219279.708,-229.3 
555919.407,4219179.532,-221.2 
555919.407,4219079.356,-211.8 
555919.407,4218979.180,-201.9 
555919.407,4218879.004,-190.4 
555919.407,4218778.828,-177.2 
555919.407,4218678.652,-163.2 
555919.407,4218578.476,-147.3 
555919.407,4218478.300,-131.5 
555919.407,4218378.124,-118.9 
555919.407,4218277.948,-115.8 
555919.407,4213669.849,-125.3 
555919.407,4213569.673,-151.7 
555919.407,4213469.497,-179.3 
555919.407,4213369.321,-203.6 
555919.407,4213269.145,-226.8 
555919.407,4213168.969,-253.8 
555919.407,4213068.793,-279.3 
555919.407,4212968.617,-297.6 
555919.407,4212868.441,-308.5 
555919.407,4212768.265,-319.5 
555919.407,4212668.089,-331 
555919.407,4212567.913,-342.1 
555919.407,4212467.736,-354.2 
555919.407,4212367.560,-365.3 
555919.407,4212267.384,-365.3 
555919.407,4212167.208,-353.9 
555919.407,4212067.032,-344.4 
555919.407,4211966.856,-339.6 
555919.407,4211866.680,-328.8 
555919.407,4211766.504,-325.9 
555919.407,4211666.328,-329.2 
555919.407,4211566.152,-335.6 
555919.407,4211465.976,-341.2 
555919.407,4211365.800,-336.4 
555919.407,4211265.624,-334.7 
555919.407,4211165.448,-336.4 
555919.407,4211065.272,-335.5 
555919.407,4210965.096,-324.5 
555919.407,4210864.920,-325.6 
555919.407,4210764.744,-312.7 
555919.407,4210664.567,-289.5 
555919.407,4210564.391,-270 
555919.407,4210464.215,-251.7 
555919.407,4210364.039,-239.3 
555919.407,4210263.863,-230.7 
555919.407,4210163.687,-225.9 
555919.407,4210063.511,-231.8 
555919.407,4209963.335,-250.9 
555919.407,4209863.159,-257.8 
555919.407,4209762.983,-259.1 
555919.407,4209662.807,-257.2 
555919.407,4209562.631,-255.6 
555919.407,4209462.455,-247.1 
555919.407,4209362.279,-236.4 
555919.407,4209262.103,-224.8 
555919.407,4209161.927,-208.8 
555919.407,4209061.751,-189.8 
555919.407,4208961.574,-176.1 
555919.407,4208861.398,-166.5 
555919.407,4208761.222,-160.6 
555919.407,4208661.046,-150.6 
555919.407,4208560.870,-133.8 
555919.407,4208460.694,-113.3 
555919.407,4206156.645,-116.3 
555919.407,4206056.469,-125.1 
555919.407,4205956.293,-141.9 
555919.407,4205856.117,-152.4 
555919.407,4205755.941,-167.5 
555919.407,4205655.765,-184.4 
555919.407,4205555.589,-202.1 
555919.407,4205455.413,-221.1 
555919.407,4205355.236,-236 
555919.407,4205255.060,-248.2 
555919.407,4205154.884,-257.7 
555919.407,4205054.708,-261.2 
555919.407,4204954.532,-257.5 
555919.407,4204854.356,-248.5 
555919.407,4204754.180,-235.1 
555919.407,4204654.004,-223.9 
555919.407,4204553.828,-221.4 
555919.407,4204453.652,-222.6 
555919.407,4204353.476,-237.5 
555919.407,4204253.300,-268.8 
555919.407,4204153.124,-311.3 
555919.407,4204052.948,-360 
555919.407,4203952.772,-405.4 
555919.407,4203852.596,-431.3 
555919.407,4203752.420,-431.2 
555919.407,4203652.244,-418 
555919.407,4203552.067,-429.5 
555919.407,4203451.891,-451.7 
555919.407,4203351.715,-446.3 
555919.407,4203251.539,-442.2 
555919.407,4203151.363,-457.6 
555919.407,4203051.187,-502.4 
555919.407,4202951.011,-536.1 
555919.407,4202850.835,-558.6 
555919.407,4202750.659,-593.3 
555919.407,4202650.483,-637.1 
555919.407,4202550.307,-663.6 
556019.678,4234706.821,-120.4 
556019.678,4234606.645,-116.7 
556019.678,4234506.469,-127.9 
556019.678,4234406.293,-149.7 
556019.678,4234306.117,-167 
556019.678,4234205.941,-177.4 
556019.678,4234105.765,-185.1 
556019.678,4234005.589,-190.4 
556019.678,4233905.413,-194.2 
556019.678,4233805.236,-197 
556019.678,4233705.060,-198.7 
556019.678,4233604.884,-200.6 
556019.678,4233504.708,-202 
556019.678,4233404.532,-202.5 
556019.678,4233304.356,-201.1 
556019.678,4233204.180,-196.4 
556019.678,4233104.004,-190.3 
556019.678,4233003.828,-183.9 
556019.678,4232903.652,-174.9 
556019.678,4232803.476,-163.1 
556019.678,4232703.300,-151.4 
556019.678,4232603.124,-142.4 
556019.678,4232502.948,-136.8 
556019.678,4232402.772,-133.4 
556019.678,4232302.596,-130.1 
556019.678,4232202.420,-122.6 
556019.678,4224388.687,-102.1 
556019.678,4224288.511,-109.9 
556019.678,4224188.335,-122.5 
556019.678,4224088.159,-129.6 
556019.678,4223987.983,-133.1 
556019.678,4223887.807,-132.5 
556019.678,4223787.631,-138 
556019.678,4223687.455,-149.8 
556019.678,4223587.279,-159.2 
556019.678,4223487.103,-166.1 
556019.678,4223386.927,-174 
556019.678,4223286.751,-183.9 
556019.678,4223186.574,-194.5 
556019.678,4223086.398,-207.7 
556019.678,4222986.222,-224.7 
556019.678,4222886.046,-238.7 
556019.678,4222785.870,-246 
556019.678,4222685.694,-250.4 
556019.678,4222585.518,-254.2 
556019.678,4222485.342,-255.6 
556019.678,4222385.166,-253.6 
556019.678,4222284.990,-250.6 
556019.678,4222184.814,-248.2 
556019.678,4222084.638,-247.3 
556019.678,4221984.462,-247.3 
556019.678,4221884.286,-247.7 
556019.678,4221784.110,-248.8 
556019.678,4221683.934,-250.7 
556019.678,4221583.758,-252.6 
556019.678,4221483.582,-254.3 
556019.678,4221383.405,-255.2 
556019.678,4221283.229,-252.9 
556019.678,4221183.053,-254.7 
556019.678,4221082.877,-260.2 
556019.678,4220982.701,-258.6 
556019.678,4220882.525,-252 
556019.678,4220782.349,-245.9 
556019.678,4220682.173,-241.5 
556019.678,4220581.997,-239.8 
556019.678,4220481.821,-240.6 
556019.678,4220381.645,-241 
