545926.774,4184929.939,-1527.1 
545926.774,4184729.235,-1535.8 
545926.774,4184528.531,-1547.7 
545926.774,4184327.827,-1559.1 
545926.774,4184127.123,-1566.5 
545926.774,4183926.418,-1567 
545926.774,4183725.714,-1559.9 
545926.774,4183525.010,-1548.3 
545926.774,4183324.306,-1537.2 
545926.774,4183123.601,-1528.5 
545926.774,4182922.897,-1524.8 
545926.774,4182722.193,-1531.6 
545926.774,4182521.489,-1543.9 
545926.774,4182320.785,-1550.7 
545926.774,4182120.080,-1551.9 
545926.774,4181919.376,-1552.2 
545926.774,4181718.672,-1552.5 
545926.774,4181517.968,-1552.3 
545926.774,4181317.263,-1551.2 
545926.774,4181116.559,-1546.7 
545926.774,4180915.855,-1535.4 
545926.774,4180715.151,-1522.3 
545926.774,4180514.446,-1517.1 
545926.774,4180313.742,-1519.6 
545926.774,4180113.038,-1523.6 
545926.774,4179912.334,-1526.7 
545926.774,4179711.630,-1528.6 
545926.774,4179510.925,-1529.1 
546127.855,4214634.165,-601.6 
546127.855,4214433.461,-614 
546127.855,4214232.756,-641.7 
546127.855,4214032.052,-673.7 
546127.855,4213831.348,-694.4 
546127.855,4213630.644,-710 
546127.855,4213429.939,-729.3 
546127.855,4213229.235,-748.8 
546127.855,4213028.531,-791.2 
546127.855,4212827.827,-836.5 
546127.855,4212627.123,-857.6 
546127.855,4212426.418,-879.5 
546127.855,4212225.714,-907.8 
546127.855,4212025.010,-925.4 
546127.855,4211824.306,-934.1 
546127.855,4211623.601,-946.1 
546127.855,4211422.897,-959 
546127.855,4211222.193,-966.3 
546127.855,4211021.489,-977.6 
546127.855,4210820.785,-995.1 
546127.855,4210620.080,-994.3 
546127.855,4210419.376,-988.3 
546127.855,4210218.672,-1005.1 
546127.855,4210017.968,-1003.4 
546127.855,4209817.263,-1005.1 
546127.855,4209616.559,-1013.3 
546127.855,4209415.855,-1032.1 
546127.855,4209215.151,-1055.5 
546127.855,4209014.446,-1072.1 
546127.855,4208813.742,-1091.9 
546127.855,4208613.038,-1112.8 
546127.855,4208412.334,-1125.1 
546127.855,4208211.630,-1132.7 
546127.855,4208010.925,-1136.5 
546127.855,4207810.221,-1135.8 
546127.855,4207609.517,-1147.7 
546127.855,4207408.813,-1158.8 
546127.855,4207208.108,-1167.9 
546127.855,4207007.404,-1181.9 
546127.855,4206806.700,-1193.1 
546127.855,4206605.996,-1198.5 
546127.855,4206405.292,-1175.8 
546127.855,4206204.587,-1168.8 
546127.855,4206003.883,-1187.3 
546127.855,4205803.179,-1213.1 
546127.855,4205602.475,-1208.4 
546127.855,4205401.770,-1203.3 
546127.855,4205201.066,-1220 
546127.855,4205000.362,-1234 
546127.855,4204799.658,-1237.7 
546127.855,4204598.954,-1238.2 
546127.855,4204398.249,-1258.8 
546127.855,4204197.545,-1275.2 
546127.855,4203996.841,-1290.3 
546127.855,4203796.137,-1296.5 
546127.855,4203595.432,-1301.8 
546127.855,4203394.728,-1305.3 
546127.855,4203194.024,-1309.3 
546127.855,4202993.320,-1315.8 
546127.855,4202792.615,-1320.6 
546127.855,4202591.911,-1327.8 
546127.855,4202391.207,-1332 
546127.855,4202190.503,-1336.6 
546127.855,4201989.799,-1339.1 
546127.855,4201789.094,-1342.9 
546127.855,4201588.390,-1346.9 
546127.855,4201387.686,-1350.2 
546127.855,4201186.982,-1348.7 
546127.855,4200986.277,-1337.9 
546127.855,4200785.573,-1308.5 
546127.855,4200584.869,-1275.2 
546127.855,4200384.165,-1249.8 
546127.855,4200183.461,-1224.9 
546127.855,4199982.756,-1220.3 
546127.855,4199782.052,-1222.5 
546127.855,4199581.348,-1227.9 
546127.855,4199380.644,-1240.3 
546127.855,4199179.939,-1261.8 
546127.855,4198979.235,-1284.1 
546127.855,4198778.531,-1303.4 
546127.855,4198577.827,-1317.3 
546127.855,4198377.123,-1333.3 
546127.855,4198176.418,-1348.3 
546127.855,4197975.714,-1353.9 
546127.855,4197775.010,-1350.6 
546127.855,4197574.306,-1335 
546127.855,4197373.601,-1310.1 
546127.855,4197172.897,-1291.9 
546127.855,4196972.193,-1286.5 
546127.855,4196771.489,-1299.4 
546127.855,4196570.785,-1322.8 
546127.855,4196370.080,-1341.2 
546127.855,4196169.376,-1354.7 
546127.855,4195968.672,-1362.9 
546127.855,4195767.968,-1365.1 
546127.855,4195567.263,-1362.9 
546127.855,4195366.559,-1357.7 
546127.855,4195165.855,-1352.2 
546127.855,4194965.151,-1352.1 
546127.855,4194764.446,-1362.7 
546127.855,4194563.742,-1374.6 
546127.855,4194363.038,-1373.3 
546127.855,4194162.334,-1356.5 
546127.855,4193961.630,-1340.5 
546127.855,4193760.925,-1337.5 
546127.855,4193560.221,-1343.5 
546127.855,4193359.517,-1354.3 
546127.855,4193158.813,-1370 
546127.855,4192958.108,-1389.2 
546127.855,4192757.404,-1407.4 
546127.855,4192556.700,-1416.9 
546127.855,4192355.996,-1415.1 
546127.855,4192155.292,-1413.3 
546127.855,4191954.587,-1416.6 
546127.855,4191753.883,-1415.1 
546127.855,4191553.179,-1407.9 
546127.855,4191352.475,-1408.9 
546127.855,4191151.770,-1424.3 
546127.855,4190951.066,-1440.5 
546127.855,4190750.362,-1444.5 
546127.855,4190549.658,-1439.1 
546127.855,4190348.954,-1432.5 
546127.855,4190148.249,-1431 
546127.855,4189947.545,-1437.7 
546127.855,4189746.841,-1450 
546127.855,4189546.137,-1460.9 
546127.855,4189345.432,-1467.2 
546127.855,4189144.728,-1466.5 
546127.855,4188944.024,-1454.4 
546127.855,4188743.320,-1434.7 
546127.855,4188542.615,-1420.4 
546127.855,4188341.911,-1418.3 
546127.855,4188141.207,-1421.8 
546127.855,4187940.503,-1425 
546127.855,4187739.799,-1428.9 
546127.855,4187539.094,-1433.4 
546127.855,4187338.390,-1436.9 
546127.855,4187137.686,-1439.2 
546127.855,4186936.982,-1441.6 
546127.855,4186736.277,-1445.8 
546127.855,4186535.573,-1452.4 
546127.855,4186334.869,-1459.3 
546127.855,4186134.165,-1464.5 
546127.855,4185933.461,-1469.2 
546127.855,4185732.756,-1478.1 
546127.855,4185532.052,-1491.7 
546127.855,4185331.348,-1503.8 
546127.855,4185130.644,-1510.3 
546127.855,4184929.939,-1516.5 
546127.855,4184729.235,-1527.9 
546127.855,4184528.531,-1540.9 
546127.855,4184327.827,-1552.5 
546127.855,4184127.123,-1563.7 
546127.855,4183926.418,-1571.6 
546127.855,4183725.714,-1573 
546127.855,4183525.010,-1568.6 
546127.855,4183324.306,-1558.7 
546127.855,4183123.601,-1545.8 
546127.855,4182922.897,-1538 
546127.855,4182722.193,-1542.7 
546127.855,4182521.489,-1554.2 
546127.855,4182320.785,-1559.8 
546127.855,4182120.080,-1558.8 
546127.855,4181919.376,-1557.2 
546127.855,4181718.672,-1555.8 
546127.855,4181517.968,-1553.8 
546127.855,4181317.263,-1550.8 
546127.855,4181116.559,-1543.7 
546127.855,4180915.855,-1530.5 
546127.855,4180715.151,-1518.5 
546127.855,4180514.446,-1516.1 
546127.855,4180313.742,-1519.7 
546127.855,4180113.038,-1523.8 
546127.855,4179912.334,-1528 
546127.855,4179711.630,-1530.8 
546127.855,4179510.925,-1530.2 
546328.936,4215035.573,-594.3 
546328.936,4214834.869,-608.2 
546328.936,4214634.165,-630.1 
546328.936,4214433.461,-659.7 
546328.936,4214232.756,-688.6 
546328.936,4214032.052,-716.5 
546328.936,4213831.348,-735.3 
546328.936,4213630.644,-758.8 
546328.936,4213429.939,-788 
546328.936,4213229.235,-812 
546328.936,4213028.531,-833.6 
546328.936,4212827.827,-864.7 
546328.936,4212627.123,-884.9 
546328.936,4212426.418,-903 
546328.936,4212225.714,-924.7 
546328.936,4212025.010,-949.4 
546328.936,4211824.306,-961.4 
546328.936,4211623.601,-970 
546328.936,4211422.897,-982.6 
546328.936,4211222.193,-991.9 
546328.936,4211021.489,-993.2 
546328.936,4210820.785,-1010.9 
546328.936,4210620.080,-1015.3 
546328.936,4210419.376,-998.8 
546328.936,4210218.672,-1019.5 
546328.936,4210017.968,-1027.4 
546328.936,4209817.263,-1022.1 
546328.936,4209616.559,-1010.2 
546328.936,4209415.855,-1028.8 
546328.936,4209215.151,-1048.3 
546328.936,4209014.446,-1058.5 
546328.936,4208813.742,-1076.2 
546328.936,4208613.038,-1095.3 
546328.936,4208412.334,-1115.2 
546328.936,4208211.630,-1138.1 
546328.936,4208010.925,-1154.3 
546328.936,4207810.221,-1161.2 
546328.936,4207609.517,-1164 
546328.936,4207408.813,-1173.8 
546328.936,4207208.108,-1178.4 
546328.936,4207007.404,-1177.2 
546328.936,4206806.700,-1192.4 
546328.936,4206605.996,-1210.6 
546328.936,4206405.292,-1200.5 
546328.936,4206204.587,-1188.6 
546328.936,4206003.883,-1189.8 
546328.936,4205803.179,-1213.3 
546328.936,4205602.475,-1228 
546328.936,4205401.770,-1219.1 
546328.936,4205201.066,-1229.3 
546328.936,4205000.362,-1246.2 
546328.936,4204799.658,-1254.5 
546328.936,4204598.954,-1259.6 
546328.936,4204398.249,-1273.3 
546328.936,4204197.545,-1286 
546328.936,4203996.841,-1294.9 
546328.936,4203796.137,-1299.5 
546328.936,4203595.432,-1302.7 
546328.936,4203394.728,-1306.2 
546328.936,4203194.024,-1308.8 
546328.936,4202993.320,-1315.1 
546328.936,4202792.615,-1323.2 
546328.936,4202591.911,-1330.7 
546328.936,4202391.207,-1335 
546328.936,4202190.503,-1339.8 
546328.936,4201989.799,-1343.9 
546328.936,4201789.094,-1348.6 
546328.936,4201588.390,-1351.3 
546328.936,4201387.686,-1355.1 
546328.936,4201186.982,-1357.1 
546328.936,4200986.277,-1352 
546328.936,4200785.573,-1333.8 
546328.936,4200584.869,-1314.1 
546328.936,4200384.165,-1289.2 
546328.936,4200183.461,-1248.8 
546328.936,4199982.756,-1229.3 
546328.936,4199782.052,-1225.5 
546328.936,4199581.348,-1228.7 
546328.936,4199380.644,-1237.4 
546328.936,4199179.939,-1255.7 
546328.936,4198979.235,-1282.7 
546328.936,4198778.531,-1300.8 
546328.936,4198577.827,-1311.3 
546328.936,4198377.123,-1326.3 
546328.936,4198176.418,-1342.4 
546328.936,4197975.714,-1353.8 
546328.936,4197775.010,-1359.2 
546328.936,4197574.306,-1350.9 
546328.936,4197373.601,-1330.3 
546328.936,4197172.897,-1310 
546328.936,4196972.193,-1295 
546328.936,4196771.489,-1297.5 
546328.936,4196570.785,-1318.5 
546328.936,4196370.080,-1338.2 
546328.936,4196169.376,-1353.3 
546328.936,4195968.672,-1364.9 
546328.936,4195767.968,-1370.5 
546328.936,4195567.263,-1371.5 
546328.936,4195366.559,-1369.5 
546328.936,4195165.855,-1365.5 
546328.936,4194965.151,-1363.7 
546328.936,4194764.446,-1370 
546328.936,4194563.742,-1379.5 
546328.936,4194363.038,-1376.9 
546328.936,4194162.334,-1359.2 
546328.936,4193961.630,-1343.5 
546328.936,4193760.925,-1340.6 
546328.936,4193560.221,-1345.4 
546328.936,4193359.517,-1353.6 
546328.936,4193158.813,-1366.4 
546328.936,4192958.108,-1384.4 
546328.936,4192757.404,-1404.6 
546328.936,4192556.700,-1419.6 
546328.936,4192355.996,-1422.9 
546328.936,4192155.292,-1421 
546328.936,4191954.587,-1422.7 
546328.936,4191753.883,-1422.5 
546328.936,4191553.179,-1415.4 
546328.936,4191352.475,-1411.8 
546328.936,4191151.770,-1422.8 
546328.936,4190951.066,-1440.5 
546328.936,4190750.362,-1449.7 
546328.936,4190549.658,-1447.5 
546328.936,4190348.954,-1440.4 
546328.936,4190148.249,-1436.6 
546328.936,4189947.545,-1441.1 
546328.936,4189746.841,-1452.2 
546328.936,4189546.137,-1463.8 
546328.936,4189345.432,-1471.2 
546328.936,4189144.728,-1470.9 
546328.936,4188944.024,-1458.8 
546328.936,4188743.320,-1438.5 
546328.936,4188542.615,-1423.8 
546328.936,4188341.911,-1420.9 
546328.936,4188141.207,-1423.3 
546328.936,4187940.503,-1426.5 
546328.936,4187739.799,-1431 
546328.936,4187539.094,-1436.4 
546328.936,4187338.390,-1440.3 
546328.936,4187137.686,-1442.2 
546328.936,4186936.982,-1443.7 
546328.936,4186736.277,-1447.1 
546328.936,4186535.573,-1452.9 
546328.936,4186334.869,-1459.6 
546328.936,4186134.165,-1465.4 
546328.936,4185933.461,-1471.9 
546328.936,4185732.756,-1482.4 
546328.936,4185532.052,-1493.5 
546328.936,4185331.348,-1499.7 
546328.936,4185130.644,-1503.6 
546328.936,4184929.939,-1512.9 
546328.936,4184729.235,-1526.7 
546328.936,4184528.531,-1538.5 
546328.936,4184327.827,-1548.5 
546328.936,4184127.123,-1559.7 
546328.936,4183926.418,-1570.6 
546328.936,4183725.714,-1577.4 
546328.936,4183525.010,-1578.8 
546328.936,4183324.306,-1575.6 
546328.936,4183123.601,-1567 
546328.936,4182922.897,-1556.3 
546328.936,4182722.193,-1554.3 
546328.936,4182521.489,-1562.1 
546328.936,4182320.785,-1567.8 
546328.936,4182120.080,-1566.3 
546328.936,4181919.376,-1562.7 
546328.936,4181718.672,-1559.8 
546328.936,4181517.968,-1556.5 
546328.936,4181317.263,-1551.3 
546328.936,4181116.559,-1541.6 
546328.936,4180915.855,-1527 
546328.936,4180715.151,-1515.5 
546328.936,4180514.446,-1513.7 
546328.936,4180313.742,-1517.1 
546328.936,4180113.038,-1521.6 
546328.936,4179912.334,-1527.6 
546328.936,4179711.630,-1532.8 
546328.936,4179510.925,-1533.1 
546530.017,4215436.982,-600.4 
546530.017,4215236.277,-612.9 
546530.017,4215035.573,-629 
546530.017,4214834.869,-641.6 
546530.017,4214634.165,-652.8 
546530.017,4214433.461,-684.9 
546530.017,4214232.756,-728.3 
546530.017,4214032.052,-758.1 
546530.017,4213831.348,-773.3 
546530.017,4213630.644,-792.2 
546530.017,4213429.939,-821.4 
546530.017,4213229.235,-854.6 
546530.017,4213028.531,-876.9 
546530.017,4212827.827,-894.6 
546530.017,4212627.123,-911 
546530.017,4212426.418,-925 
546530.017,4212225.714,-938.2 
546530.017,4212025.010,-961 
546530.017,4211824.306,-984.9 
546530.017,4211623.601,-997.1 
546530.017,4211422.897,-1004.4 
546530.017,4211222.193,-1011.3 
546530.017,4211021.489,-1006.5 
546530.017,4210820.785,-1024.8 
546530.017,4210620.080,-1030.9 
546530.017,4210419.376,-1008.6 
546530.017,4210218.672,-1030.1 
546530.017,4210017.968,-1046.3 
546530.017,4209817.263,-1047.9 
546530.017,4209616.559,-1024.7 
546530.017,4209415.855,-1026.4 
546530.017,4209215.151,-1046 
546530.017,4209014.446,-1060.8 
546530.017,4208813.742,-1075 
546530.017,4208613.038,-1083.2 
546530.017,4208412.334,-1099.1 
546530.017,4208211.630,-1123.1 
546530.017,4208010.925,-1149.8 
546530.017,4207810.221,-1177 
546530.017,4207609.517,-1182.8 
546530.017,4207408.813,-1184.9 
546530.017,4207208.108,-1190.4 
546530.017,4207007.404,-1188.4 
546530.017,4206806.700,-1183.2 
546530.017,4206605.996,-1206.5 
546530.017,4206405.292,-1220.4 
546530.017,4206204.587,-1214.3 
546530.017,4206003.883,-1206.1 
546530.017,4205803.179,-1216.5 
546530.017,4205602.475,-1243.5 
546530.017,4205401.770,-1240.2 
546530.017,4205201.066,-1247.2 
546530.017,4205000.362,-1262.7 
546530.017,4204799.658,-1274.2 
546530.017,4204598.954,-1278 
546530.017,4204398.249,-1284.8 
546530.017,4204197.545,-1292.4 
546530.017,4203996.841,-1297 
546530.017,4203796.137,-1299.1 
546530.017,4203595.432,-1300.2 
546530.017,4203394.728,-1305.7 
546530.017,4203194.024,-1309 
546530.017,4202993.320,-1314.4 
546530.017,4202792.615,-1321.6 
546530.017,4202591.911,-1326.5 
546530.017,4202391.207,-1330.8 
546530.017,4202190.503,-1337.2 
546530.017,4201989.799,-1342.3 
546530.017,4201789.094,-1350.5 
546530.017,4201588.390,-1356.6 
546530.017,4201387.686,-1360.6 
546530.017,4201186.982,-1363.3 
546530.017,4200986.277,-1362.2 
546530.017,4200785.573,-1352 
546530.017,4200584.869,-1336 
546530.017,4200384.165,-1321.2 
546530.017,4200183.461,-1289.7 
546530.017,4199982.756,-1252.5 
546530.017,4199782.052,-1232.7 
546530.017,4199581.348,-1230.9 
546530.017,4199380.644,-1238 
546530.017,4199179.939,-1253.8 
546530.017,4198979.235,-1276.8 
546530.017,4198778.531,-1290.8 
546530.017,4198577.827,-1302.5 
546530.017,4198377.123,-1316.5 
546530.017,4198176.418,-1327.1 
546530.017,4197975.714,-1341 
546530.017,4197775.010,-1359.1 
546530.017,4197574.306,-1361.4 
546530.017,4197373.601,-1347.1 
546530.017,4197172.897,-1326.1 
546530.017,4196972.193,-1304.6 
546530.017,4196771.489,-1295.1 
546530.017,4196570.785,-1308.1 
546530.017,4196370.080,-1329 
546530.017,4196169.376,-1346.6 
546530.017,4195968.672,-1360.5 
546530.017,4195767.968,-1371.3 
546530.017,4195567.263,-1377.3 
546530.017,4195366.559,-1378.6 
546530.017,4195165.855,-1378 
546530.017,4194965.151,-1377.6 
546530.017,4194764.446,-1380.8 
546530.017,4194563.742,-1385.7 
546530.017,4194363.038,-1380.1 
546530.017,4194162.334,-1361.4 
546530.017,4193961.630,-1345.7 
546530.017,4193760.925,-1343 
546530.017,4193560.221,-1347.1 
546530.017,4193359.517,-1353.2 
546530.017,4193158.813,-1363.3 
546530.017,4192958.108,-1379.4 
546530.017,4192757.404,-1400.9 
546530.017,4192556.700,-1421.2 
546530.017,4192355.996,-1429.8 
546530.017,4192155.292,-1428.6 
546530.017,4191954.587,-1428 
546530.017,4191753.883,-1427.4 
546530.017,4191553.179,-1421.2 
546530.017,4191352.475,-1415.2 
546530.017,4191151.770,-1421 
546530.017,4190951.066,-1437.6 
546530.017,4190750.362,-1452.5 
546530.017,4190549.658,-1456.1 
546530.017,4190348.954,-1450.8 
546530.017,4190148.249,-1444.9 
546530.017,4189947.545,-1444.7 
546530.017,4189746.841,-1452.2 
546530.017,4189546.137,-1464.4 
546530.017,4189345.432,-1474.6 
546530.017,4189144.728,-1476.1 
546530.017,4188944.024,-1463.9 
546530.017,4188743.320,-1442.7 
546530.017,4188542.615,-1426.7 
546530.017,4188341.911,-1422.3 
546530.017,4188141.207,-1424.2 
546530.017,4187940.503,-1427.9 
546530.017,4187739.799,-1433 
546530.017,4187539.094,-1439.1 
546530.017,4187338.390,-1443.8 
546530.017,4187137.686,-1445.9 
546530.017,4186936.982,-1446.9 
546530.017,4186736.277,-1448.8 
546530.017,4186535.573,-1452.8 
546530.017,4186334.869,-1458.7 
546530.017,4186134.165,-1465.4 
546530.017,4185933.461,-1473.5 
546530.017,4185732.756,-1483 
546530.017,4185532.052,-1490.9 
546530.017,4185331.348,-1497.1 
546530.017,4185130.644,-1506.4 
546530.017,4184929.939,-1518.4 
546530.017,4184729.235,-1527.8 
546530.017,4184528.531,-1533.1 
546530.017,4184327.827,-1538.8 
546530.017,4184127.123,-1548.2 
546530.017,4183926.418,-1561.5 
546530.017,4183725.714,-1574.4 
546530.017,4183525.010,-1581.6 
546530.017,4183324.306,-1584.1 
546530.017,4183123.601,-1582.2 
546530.017,4182922.897,-1575.2 
546530.017,4182722.193,-1569.8 
546530.017,4182521.489,-1571.7 
546530.017,4182320.785,-1575.3 
546530.017,4182120.080,-1574.2 
546530.017,4181919.376,-1570.9 
546530.017,4181718.672,-1568 
546530.017,4181517.968,-1562.8 
546530.017,4181317.263,-1552.7 
546530.017,4181116.559,-1537.4 
546530.017,4180915.855,-1520.4 
546530.017,4180715.151,-1509.6 
546530.017,4180514.446,-1507.7 
546530.017,4180313.742,-1510.3 
546530.017,4180113.038,-1515.9 
546530.017,4179912.334,-1525.5 
546530.017,4179711.630,-1534 
546530.017,4179510.925,-1535.8 
546731.098,4216039.094,-585.6 
546731.098,4215838.390,-596.1 
546731.098,4215637.686,-611.1 
546731.098,4215436.982,-626.2 
546731.098,4215236.277,-643.7 
546731.098,4215035.573,-664.1 
546731.098,4214834.869,-681.3 
546731.098,4214634.165,-687.9 
546731.098,4214433.461,-707.4 
546731.098,4214232.756,-756.7 
546731.098,4214032.052,-794.2 
546731.098,4213831.348,-809.7 
546731.098,4213630.644,-822.1 
546731.098,4213429.939,-844.9 
546731.098,4213229.235,-874.1 
546731.098,4213028.531,-904.1 
546731.098,4212827.827,-922.3 
546731.098,4212627.123,-933 
546731.098,4212426.418,-951.4 
546731.098,4212225.714,-957.9 
546731.098,4212025.010,-962 
546731.098,4211824.306,-994.2 
546731.098,4211623.601,-1017.7 
546731.098,4211422.897,-1025.2 
546731.098,4211222.193,-1029.9 
546731.098,4211021.489,-1030.7 
546731.098,4210820.785,-1037.7 
546731.098,4210620.080,-1046 
546731.098,4210419.376,-1015.5 
546731.098,4210218.672,-1027.1 
546731.098,4210017.968,-1052.4 
546731.098,4209817.263,-1067.7 
546731.098,4209616.559,-1055.3 
546731.098,4209415.855,-1038.5 
546731.098,4209215.151,-1041.5 
546731.098,4209014.446,-1061.2 
546731.098,4208813.742,-1079.5 
546731.098,4208613.038,-1091.9 
546731.098,4208412.334,-1095.9 
546731.098,4208211.630,-1111.5 
546731.098,4208010.925,-1135.3 
546731.098,4207810.221,-1164.6 
546731.098,4207609.517,-1189.7 
546731.098,4207408.813,-1196.7 
546731.098,4207208.108,-1202.1 
546731.098,4207007.404,-1203.2 
546731.098,4206806.700,-1197.8 
546731.098,4206605.996,-1197.2 
546731.098,4206405.292,-1223.9 
546731.098,4206204.587,-1233.3 
546731.098,4206003.883,-1231 
546731.098,4205803.179,-1232.4 
546731.098,4205602.475,-1257.3 
546731.098,4205401.770,-1262.3 
546731.098,4205201.066,-1268.1 
546731.098,4205000.362,-1276.2 
546731.098,4204799.658,-1281 
546731.098,4204598.954,-1284.1 
546731.098,4204398.249,-1289 
546731.098,4204197.545,-1293.5 
546731.098,4203996.841,-1296 
546731.098,4203796.137,-1296.7 
546731.098,4203595.432,-1299.2 
546731.098,4203394.728,-1302.1 
546731.098,4203194.024,-1299.7 
546731.098,4202993.320,-1300.2 
546731.098,4202792.615,-1304.4 
546731.098,4202591.911,-1308.5 
546731.098,4202391.207,-1318.9 
546731.098,4202190.503,-1328.9 
546731.098,4201989.799,-1332.8 
546731.098,4201789.094,-1344.6 
546731.098,4201588.390,-1355.2 
546731.098,4201387.686,-1362.3 
546731.098,4201186.982,-1367.4 
546731.098,4200986.277,-1368.6 
546731.098,4200785.573,-1362.8 
546731.098,4200584.869,-1348.5 
546731.098,4200384.165,-1338.3 
546731.098,4200183.461,-1321.7 
546731.098,4199982.756,-1288.1 
546731.098,4199782.052,-1251.8 
546731.098,4199581.348,-1237.7 
546731.098,4199380.644,-1239.6 
546731.098,4199179.939,-1250.9 
546731.098,4198979.235,-1270.3 
546731.098,4198778.531,-1284.7 
546731.098,4198577.827,-1298.3 
546731.098,4198377.123,-1310.4 
546731.098,4198176.418,-1314.7 
546731.098,4197975.714,-1326.2 
546731.098,4197775.010,-1350.8 
546731.098,4197574.306,-1366 
546731.098,4197373.601,-1361.4 
546731.098,4197172.897,-1341.4 
546731.098,4196972.193,-1314.4 
546731.098,4196771.489,-1297.6 
546731.098,4196570.785,-1301.4 
546731.098,4196370.080,-1317.9 
546731.098,4196169.376,-1335.2 
546731.098,4195968.672,-1350.9 
546731.098,4195767.968,-1366.5 
546731.098,4195567.263,-1378.6 
546731.098,4195366.559,-1384 
546731.098,4195165.855,-1386.4 
546731.098,4194965.151,-1388.3 
546731.098,4194764.446,-1390.8 
546731.098,4194563.742,-1392.3 
546731.098,4194363.038,-1385.1 
546731.098,4194162.334,-1368 
546731.098,4193961.630,-1353.6 
546731.098,4193760.925,-1349.3 
546731.098,4193560.221,-1350.7 
546731.098,4193359.517,-1355 
546731.098,4193158.813,-1363.4 
546731.098,4192958.108,-1379.8 
546731.098,4192757.404,-1404.8 
546731.098,4192556.700,-1427.8 
546731.098,4192355.996,-1437 
546731.098,4192155.292,-1435.5 
546731.098,4191954.587,-1433.3 
546731.098,4191753.883,-1432.4 
546731.098,4191553.179,-1428.7 
546731.098,4191352.475,-1422.9 
546731.098,4191151.770,-1423.5 
546731.098,4190951.066,-1435.8 
546731.098,4190750.362,-1452.6 
546731.098,4190549.658,-1461.4 
546731.098,4190348.954,-1459.1 
546731.098,4190148.249,-1452.1 
546731.098,4189947.545,-1448.8 
546731.098,4189746.841,-1454.5 
546731.098,4189546.137,-1467.4 
546731.098,4189345.432,-1478.4 
546731.098,4189144.728,-1479.9 
546731.098,4188944.024,-1468.6 
546731.098,4188743.320,-1447.7 
546731.098,4188542.615,-1430.5 
546731.098,4188341.911,-1424.8 
546731.098,4188141.207,-1426.2 
546731.098,4187940.503,-1429.6 
546731.098,4187739.799,-1434.5 
546731.098,4187539.094,-1441.3 
546731.098,4187338.390,-1447.1 
546731.098,4187137.686,-1449.7 
546731.098,4186936.982,-1450.2 
546731.098,4186736.277,-1450.4 
546731.098,4186535.573,-1452.3 
546731.098,4186334.869,-1457.2 
546731.098,4186134.165,-1464.9 
546731.098,4185933.461,-1474.4 
546731.098,4185732.756,-1483.3 
546731.098,4185532.052,-1491.4 
546731.098,4185331.348,-1502.6 
546731.098,4185130.644,-1515.3 
546731.098,4184929.939,-1522.1 
546731.098,4184729.235,-1524.6 
546731.098,4184528.531,-1529.7 
546731.098,4184327.827,-1537.9 
546731.098,4184127.123,-1545.6 
546731.098,4183926.418,-1555.1 
546731.098,4183725.714,-1568.6 
546731.098,4183525.010,-1580.2 
546731.098,4183324.306,-1586.1 
546731.098,4183123.601,-1589.2 
546731.098,4182922.897,-1591.1 
546731.098,4182722.193,-1590.9 
546731.098,4182521.489,-1589.3 
546731.098,4182320.785,-1587.2 
546731.098,4182120.080,-1584.7 
546731.098,4181919.376,-1581.8 
546731.098,4181718.672,-1577.5 
546731.098,4181517.968,-1569 
546731.098,4181317.263,-1553.7 
546731.098,4181116.559,-1531.4 
546731.098,4180915.855,-1510 
546731.098,4180715.151,-1498.8 
546731.098,4180514.446,-1498.1 
546731.098,4180313.742,-1504.5 
546731.098,4180113.038,-1516.7 
546731.098,4179912.334,-1532.9 
546731.098,4179711.630,-1543 
546731.098,4179510.925,-1540.6 
546932.179,4216641.207,-595.9 
546932.179,4216440.503,-606 
546932.179,4216239.799,-613.8 
546932.179,4216039.094,-617.7 
546932.179,4215838.390,-628.6 
546932.179,4215637.686,-642.3 
546932.179,4215436.982,-652.8 
546932.179,4215236.277,-673.3 
546932.179,4215035.573,-695 
546932.179,4214834.869,-716.4 
546932.179,4214634.165,-731.8 
546932.179,4214433.461,-744.3 
546932.179,4214232.756,-786.3 
546932.179,4214032.052,-824.6 
546932.179,4213831.348,-842 
546932.179,4213630.644,-850.8 
546932.179,4213429.939,-866.6 
546932.179,4213229.235,-889.3 
546932.179,4213028.531,-915.8 
546932.179,4212827.827,-938.9 
546932.179,4212627.123,-958.7 
546932.179,4212426.418,-971.1 
546932.179,4212225.714,-981.7 
546932.179,4212025.010,-977.7 
546932.179,4211824.306,-995.8 
546932.179,4211623.601,-1024.7 
546932.179,4211422.897,-1045.2 
546932.179,4211222.193,-1051.6 
546932.179,4211021.489,-1052.9 
546932.179,4210820.785,-1054.2 
546932.179,4210620.080,-1063.7 
546932.179,4210419.376,-1034.7 
546932.179,4210218.672,-1021.8 
546932.179,4210017.968,-1043.9 
546932.179,4209817.263,-1074.3 
546932.179,4209616.559,-1086.8 
546932.179,4209415.855,-1070.4 
546932.179,4209215.151,-1051.9 
546932.179,4209014.446,-1062.3 
546932.179,4208813.742,-1077.5 
546932.179,4208613.038,-1098.2 
546932.179,4208412.334,-1107.5 
546932.179,4208211.630,-1116 
546932.179,4208010.925,-1128.1 
546932.179,4207810.221,-1150.6 
546932.179,4207609.517,-1177.6 
546932.179,4207408.813,-1194.5 
546932.179,4207208.108,-1208 
546932.179,4207007.404,-1217.1 
546932.179,4206806.700,-1219 
546932.179,4206605.996,-1205.4 
546932.179,4206405.292,-1223.4 
546932.179,4206204.587,-1245.2 
546932.179,4206003.883,-1253.4 
546932.179,4205803.179,-1257.5 
546932.179,4205602.475,-1267 
546932.179,4205401.770,-1270.7 
546932.179,4205201.066,-1273.2 
546932.179,4205000.362,-1277.7 
546932.179,4204799.658,-1281.6 
546932.179,4204598.954,-1285.2 
546932.179,4204398.249,-1288.4 
546932.179,4204197.545,-1292.4 
546932.179,4203996.841,-1294.3 
546932.179,4203796.137,-1294 
546932.179,4203595.432,-1293.5 
546932.179,4203394.728,-1287.4 
546932.179,4203194.024,-1275.7 
546932.179,4202993.320,-1274.8 
546932.179,4202792.615,-1282.3 
546932.179,4202591.911,-1292.9 
546932.179,4202391.207,-1310.1 
546932.179,4202190.503,-1321.5 
546932.179,4201989.799,-1325.8 
546932.179,4201789.094,-1336.1 
546932.179,4201588.390,-1349.7 
546932.179,4201387.686,-1360.6 
546932.179,4201186.982,-1368.8 
546932.179,4200986.277,-1372.6 
546932.179,4200785.573,-1370.8 
546932.179,4200584.869,-1361 
546932.179,4200384.165,-1348.1 
546932.179,4200183.461,-1337.8 
546932.179,4199982.756,-1313.7 
546932.179,4199782.052,-1273 
546932.179,4199581.348,-1247.6 
546932.179,4199380.644,-1240.3 
546932.179,4199179.939,-1245.9 
546932.179,4198979.235,-1259.4 
546932.179,4198778.531,-1275.5 
546932.179,4198577.827,-1294.7 
546932.179,4198377.123,-1308.1 
546932.179,4198176.418,-1310.7 
546932.179,4197975.714,-1316.9 
546932.179,4197775.010,-1339.8 
546932.179,4197574.306,-1366.3 
546932.179,4197373.601,-1371 
546932.179,4197172.897,-1355.8 
546932.179,4196972.193,-1328 
546932.179,4196771.489,-1305.7 
546932.179,4196570.785,-1298.8 
546932.179,4196370.080,-1307.7 
546932.179,4196169.376,-1325.5 
546932.179,4195968.672,-1344.3 
546932.179,4195767.968,-1360.5 
546932.179,4195567.263,-1372.6 
546932.179,4195366.559,-1381.4 
546932.179,4195165.855,-1389 
546932.179,4194965.151,-1394.1 
546932.179,4194764.446,-1397.8 
546932.179,4194563.742,-1400.2 
546932.179,4194363.038,-1396.5 
546932.179,4194162.334,-1385.2 
546932.179,4193961.630,-1373.7 
546932.179,4193760.925,-1365.6 
546932.179,4193560.221,-1360.6 
546932.179,4193359.517,-1361.9 
546932.179,4193158.813,-1370 
546932.179,4192958.108,-1386.2 
546932.179,4192757.404,-1409 
546932.179,4192556.700,-1429.7 
546932.179,4192355.996,-1441 
546932.179,4192155.292,-1443.6 
546932.179,4191954.587,-1442.4 
546932.179,4191753.883,-1441.4 
546932.179,4191553.179,-1437.7 
546932.179,4191352.475,-1429.7 
546932.179,4191151.770,-1425.7 
546932.179,4190951.066,-1433.8 
546932.179,4190750.362,-1449.8 
546932.179,4190549.658,-1462.9 
546932.179,4190348.954,-1465.9 
546932.179,4190148.249,-1460.6 
546932.179,4189947.545,-1455.3 
546932.179,4189746.841,-1457.7 
546932.179,4189546.137,-1469.6 
546932.179,4189345.432,-1481.8 
546932.179,4189144.728,-1484.4 
546932.179,4188944.024,-1475 
546932.179,4188743.320,-1456.2 
546932.179,4188542.615,-1437.7 
546932.179,4188341.911,-1428.6 
546932.179,4188141.207,-1427.8 
546932.179,4187940.503,-1430.2 
546932.179,4187739.799,-1435 
546932.179,4187539.094,-1442.5 
546932.179,4187338.390,-1449.1 
546932.179,4187137.686,-1452.1 
546932.179,4186936.982,-1452.2 
546932.179,4186736.277,-1451.5 
546932.179,4186535.573,-1452 
546932.179,4186334.869,-1455.7 
546932.179,4186134.165,-1463.5 
546932.179,4185933.461,-1473.5 
546932.179,4185732.756,-1482.4 
546932.179,4185532.052,-1491.6 
546932.179,4185331.348,-1504 
546932.179,4185130.644,-1514.6 
546932.179,4184929.939,-1518.3 
546932.179,4184729.235,-1523.1 
546932.179,4184528.531,-1534.9 
546932.179,4184327.827,-1546.9 
546932.179,4184127.123,-1553 
546932.179,4183926.418,-1557 
546932.179,4183725.714,-1565.5 
546932.179,4183525.010,-1576.8 
546932.179,4183324.306,-1585.5 
546932.179,4183123.601,-1591.8 
546932.179,4182922.897,-1596.8 
546932.179,4182722.193,-1599.9 
546932.179,4182521.489,-1600.8 
546932.179,4182320.785,-1599.4 
546932.179,4182120.080,-1596 
546932.179,4181919.376,-1591.1 
546932.179,4181718.672,-1584 
546932.179,4181517.968,-1572.6 
546932.179,4181317.263,-1553.1 
546932.179,4181116.559,-1525.2 
546932.179,4180915.855,-1499.9 
546932.179,4180715.151,-1488.7 
546932.179,4180514.446,-1491.3 
546932.179,4180313.742,-1504.2 
546932.179,4180113.038,-1524 
546932.179,4179912.334,-1545.2 
546932.179,4179711.630,-1556.8 
546932.179,4179510.925,-1552 
547133.260,4217243.320,-591.7 
547133.260,4217042.615,-606.7 
547133.260,4216841.911,-622.6 
547133.260,4216641.207,-633.8 
547133.260,4216440.503,-643.3 
547133.260,4216239.799,-649.9 
547133.260,4216039.094,-656.5 
547133.260,4215838.390,-665.7 
547133.260,4215637.686,-678.4 
547133.260,4215436.982,-688.6 
547133.260,4215236.277,-700.9 
547133.260,4215035.573,-721.2 
547133.260,4214834.869,-741.3 
547133.260,4214634.165,-763.5 
547133.260,4214433.461,-786.4 
547133.260,4214232.756,-815.2 
547133.260,4214032.052,-846.3 
547133.260,4213831.348,-869.7 
547133.260,4213630.644,-881.9 
547133.260,4213429.939,-890.6 
547133.260,4213229.235,-905.5 
547133.260,4213028.531,-926.9 
547133.260,4212827.827,-947.6 
547133.260,4212627.123,-971.1 
547133.260,4212426.418,-989.4 
547133.260,4212225.714,-1000.4 
547133.260,4212025.010,-1005.9 
547133.260,4211824.306,-1005.9 
547133.260,4211623.601,-1021.5 
547133.260,4211422.897,-1047.9 
547133.260,4211222.193,-1066.8 
547133.260,4211021.489,-1072.9 
547133.260,4210820.785,-1074.9 
547133.260,4210620.080,-1080.9 
547133.260,4210419.376,-1064.9 
547133.260,4210218.672,-1048.1 
547133.260,4210017.968,-1052.2 
547133.260,4209817.263,-1075 
547133.260,4209616.559,-1095.5 
547133.260,4209415.855,-1107.2 
547133.260,4209215.151,-1078.9 
547133.260,4209014.446,-1078.5 
547133.260,4208813.742,-1090.4 
547133.260,4208613.038,-1098.3 
547133.260,4208412.334,-1114.8 
547133.260,4208211.630,-1124 
547133.260,4208010.925,-1137.8 
547133.260,4207810.221,-1155.9 
547133.260,4207609.517,-1170.9 
547133.260,4207408.813,-1178.6 
547133.260,4207208.108,-1194 
547133.260,4207007.404,-1221.9 
547133.260,4206806.700,-1234.9 
547133.260,4206605.996,-1234.9 
547133.260,4206405.292,-1245.6 
547133.260,4206204.587,-1253.9 
547133.260,4206003.883,-1260 
547133.260,4205803.179,-1263.4 
547133.260,4205602.475,-1269.4 
547133.260,4205401.770,-1270.6 
547133.260,4205201.066,-1273.4 
547133.260,4205000.362,-1276.2 
547133.260,4204799.658,-1279.5 
547133.260,4204598.954,-1283.7 
547133.260,4204398.249,-1285.2 
547133.260,4204197.545,-1287.9 
547133.260,4203996.841,-1287.6 
547133.260,4203796.137,-1283.8 
547133.260,4203595.432,-1273.9 
547133.260,4203394.728,-1262.6 
547133.260,4203194.024,-1254.9 
547133.260,4202993.320,-1259.6 
547133.260,4202792.615,-1276 
547133.260,4202591.911,-1296.5 
547133.260,4202391.207,-1310.6 
547133.260,4202190.503,-1314.7 
547133.260,4201989.799,-1320.4 
547133.260,4201789.094,-1328.5 
547133.260,4201588.390,-1343.7 
547133.260,4201387.686,-1357 
547133.260,4201186.982,-1368.7 
547133.260,4200986.277,-1375.6 
547133.260,4200785.573,-1375.3 
547133.260,4200584.869,-1368.9 
547133.260,4200384.165,-1358.2 
547133.260,4200183.461,-1346.4 
547133.260,4199982.756,-1331.1 
547133.260,4199782.052,-1297.8 
547133.260,4199581.348,-1265.8 
547133.260,4199380.644,-1244.9 
547133.260,4199179.939,-1244.4 
547133.260,4198979.235,-1252 
547133.260,4198778.531,-1267 
547133.260,4198577.827,-1291 
547133.260,4198377.123,-1307.5 
547133.260,4198176.418,-1309.8 
547133.260,4197975.714,-1313.2 
547133.260,4197775.010,-1333.2 
547133.260,4197574.306,-1363.2 
547133.260,4197373.601,-1375.5 
547133.260,4197172.897,-1368.2 
547133.260,4196972.193,-1343.5 
547133.260,4196771.489,-1319 
547133.260,4196570.785,-1305.3 
547133.260,4196370.080,-1306.1 
547133.260,4196169.376,-1319.6 
547133.260,4195968.672,-1337.1 
547133.260,4195767.968,-1351.4 
547133.260,4195567.263,-1361.9 
547133.260,4195366.559,-1372.4 
547133.260,4195165.855,-1384.1 
547133.260,4194965.151,-1394.1 
547133.260,4194764.446,-1401.7 
547133.260,4194563.742,-1406.7 
547133.260,4194363.038,-1407.9 
547133.260,4194162.334,-1403 
547133.260,4193961.630,-1393.8 
547133.260,4193760.925,-1384.9 
547133.260,4193560.221,-1379.5 
547133.260,4193359.517,-1380.4 
547133.260,4193158.813,-1389.3 
547133.260,4192958.108,-1404 
547133.260,4192757.404,-1417.5 
547133.260,4192556.700,-1429.4 
547133.260,4192355.996,-1440.9 
547133.260,4192155.292,-1447.7 
547133.260,4191954.587,-1448 
547133.260,4191753.883,-1446 
547133.260,4191553.179,-1442.2 
547133.260,4191352.475,-1434.9 
547133.260,4191151.770,-1430.3 
547133.260,4190951.066,-1435.7 
547133.260,4190750.362,-1448.5 
547133.260,4190549.658,-1461.7 
547133.260,4190348.954,-1469.9 
547133.260,4190148.249,-1470.6 
547133.260,4189947.545,-1467.1 
547133.260,4189746.841,-1466.5 
547133.260,4189546.137,-1475 
547133.260,4189345.432,-1486.4 
547133.260,4189144.728,-1489 
547133.260,4188944.024,-1479.5 
547133.260,4188743.320,-1461.8 
547133.260,4188542.615,-1443.2 
547133.260,4188341.911,-1431.5 
547133.260,4188141.207,-1428.5 
547133.260,4187940.503,-1430.7 
547133.260,4187739.799,-1435.9 
547133.260,4187539.094,-1443.6 
547133.260,4187338.390,-1450.4 
547133.260,4187137.686,-1453.6 
547133.260,4186936.982,-1453.5 
547133.260,4186736.277,-1452.3 
547133.260,4186535.573,-1452.1 
547133.260,4186334.869,-1454.7 
547133.260,4186134.165,-1461.6 
547133.260,4185933.461,-1471.2 
547133.260,4185732.756,-1480.8 
547133.260,4185532.052,-1491.8 
547133.260,4185331.348,-1504.9 
547133.260,4185130.644,-1513.7 
547133.260,4184929.939,-1516.6 
547133.260,4184729.235,-1522.6 
547133.260,4184528.531,-1534.3 
547133.260,4184327.827,-1545.9 
547133.260,4184127.123,-1554.2 
547133.260,4183926.418,-1559.8 
547133.260,4183725.714,-1565 
547133.260,4183525.010,-1572.5 
547133.260,4183324.306,-1582.4 
547133.260,4183123.601,-1591.4 
547133.260,4182922.897,-1597.2 
547133.260,4182722.193,-1601.1 
547133.260,4182521.489,-1604.3 
547133.260,4182320.785,-1606 
547133.260,4182120.080,-1604.4 
547133.260,4181919.376,-1598.3 
547133.260,4181718.672,-1586.5 
547133.260,4181517.968,-1567.2 
547133.260,4181317.263,-1539.8 
547133.260,4181116.559,-1510.5 
547133.260,4180915.855,-1491.1 
547133.260,4180715.151,-1488.1 
547133.260,4180514.446,-1498 
547133.260,4180313.742,-1515.4 
547133.260,4180113.038,-1537.2 
547133.260,4179912.334,-1556.9 
547133.260,4179711.630,-1566.7 
547133.260,4179510.925,-1564.3 
547334.341,4217644.728,-588.7 
547334.341,4217444.024,-601.3 
547334.341,4217243.320,-614.1 
547334.341,4217042.615,-635.2 
547334.341,4216841.911,-654 
547334.341,4216641.207,-667.8 
547334.341,4216440.503,-680.1 
547334.341,4216239.799,-688.6 
547334.341,4216039.094,-694.7 
547334.341,4215838.390,-701.2 
547334.341,4215637.686,-712.7 
547334.341,4215436.982,-722.5 
547334.341,4215236.277,-728.9 
547334.341,4215035.573,-744.3 
547334.341,4214834.869,-759 
547334.341,4214634.165,-779.1 
547334.341,4214433.461,-810 
547334.341,4214232.756,-838.6 
547334.341,4214032.052,-863.9 
547334.341,4213831.348,-891 
547334.341,4213630.644,-907.7 
547334.341,4213429.939,-917.6 
547334.341,4213229.235,-927 
547334.341,4213028.531,-939.7 
547334.341,4212827.827,-957.2 
547334.341,4212627.123,-975.8 
547334.341,4212426.418,-997 
547334.341,4212225.714,-1014.3 
547334.341,4212025.010,-1030.3 
547334.341,4211824.306,-1028.8 
547334.341,4211623.601,-1025.7 
547334.341,4211422.897,-1039 
547334.341,4211222.193,-1067 
547334.341,4211021.489,-1083.5 
547334.341,4210820.785,-1090.2 
547334.341,4210620.080,-1091.7 
547334.341,4210419.376,-1088.6 
547334.341,4210218.672,-1078 
547334.341,4210017.968,-1077.7 
547334.341,4209817.263,-1093.4 
547334.341,4209616.559,-1108.7 
547334.341,4209415.855,-1125.5 
547334.341,4209215.151,-1113.2 
547334.341,4209014.446,-1107.3 
547334.341,4208813.742,-1119 
547334.341,4208613.038,-1121.4 
547334.341,4208412.334,-1125.8 
547334.341,4208211.630,-1131.1 
547334.341,4208010.925,-1153.8 
547334.341,4207810.221,-1176.1 
547334.341,4207609.517,-1188.8 
547334.341,4207408.813,-1193.4 
547334.341,4207208.108,-1207.1 
547334.341,4207007.404,-1234.9 
547334.341,4206806.700,-1244.5 
547334.341,4206605.996,-1247.4 
547334.341,4206405.292,-1252.9 
547334.341,4206204.587,-1256.5 
547334.341,4206003.883,-1261.1 
547334.341,4205803.179,-1261.6 
547334.341,4205602.475,-1266.3 
547334.341,4205401.770,-1269.2 
547334.341,4205201.066,-1273.1 
547334.341,4205000.362,-1274.9 
547334.341,4204799.658,-1276.9 
547334.341,4204598.954,-1274.7 
547334.341,4204398.249,-1271.1 
547334.341,4204197.545,-1267.9 
547334.341,4203996.841,-1268.6 
547334.341,4203796.137,-1262.9 
547334.341,4203595.432,-1254.4 
547334.341,4203394.728,-1245 
547334.341,4203194.024,-1240.8 
547334.341,4202993.320,-1249.6 
547334.341,4202792.615,-1269 
547334.341,4202591.911,-1288.5 
547334.341,4202391.207,-1299.7 
547334.341,4202190.503,-1302.3 
547334.341,4201989.799,-1314.8 
547334.341,4201789.094,-1324.4 
547334.341,4201588.390,-1338.6 
547334.341,4201387.686,-1350.9 
547334.341,4201186.982,-1362.3 
547334.341,4200986.277,-1373.6 
547334.341,4200785.573,-1377.9 
547334.341,4200584.869,-1377.8 
547334.341,4200384.165,-1369.3 
547334.341,4200183.461,-1354.8 
547334.341,4199982.756,-1346.2 
547334.341,4199782.052,-1328.4 
547334.341,4199581.348,-1296.4 
547334.341,4199380.644,-1262.7 
547334.341,4199179.939,-1250.7 
547334.341,4198979.235,-1252.9 
547334.341,4198778.531,-1262.5 
547334.341,4198577.827,-1282.9 
547334.341,4198377.123,-1307.5 
547334.341,4198176.418,-1314.2 
547334.341,4197975.714,-1318.1 
547334.341,4197775.010,-1332.8 
547334.341,4197574.306,-1359.4 
547334.341,4197373.601,-1377.8 
547334.341,4197172.897,-1378.2 
547334.341,4196972.193,-1360.6 
547334.341,4196771.489,-1336.9 
547334.341,4196570.785,-1317.9 
547334.341,4196370.080,-1309 
547334.341,4196169.376,-1314.5 
547334.341,4195968.672,-1329.1 
547334.341,4195767.968,-1343 
547334.341,4195567.263,-1354.9 
547334.341,4195366.559,-1365.9 
547334.341,4195165.855,-1376.4 
547334.341,4194965.151,-1388 
547334.341,4194764.446,-1399.9 
547334.341,4194563.742,-1409 
547334.341,4194363.038,-1414.5 
547334.341,4194162.334,-1416.8 
547334.341,4193961.630,-1414.3 
547334.341,4193760.925,-1407.6 
547334.341,4193560.221,-1401.5 
547334.341,4193359.517,-1400.9 
547334.341,4193158.813,-1407.6 
547334.341,4192958.108,-1417 
547334.341,4192757.404,-1423.9 
547334.341,4192556.700,-1431.1 
547334.341,4192355.996,-1441.7 
547334.341,4192155.292,-1451.6 
547334.341,4191954.587,-1455.1 
547334.341,4191753.883,-1453.8 
547334.341,4191553.179,-1450.3 
547334.341,4191352.475,-1443.5 
547334.341,4191151.770,-1436.2 
547334.341,4190951.066,-1436.4 
547334.341,4190750.362,-1445.9 
547334.341,4190549.658,-1459 
547334.341,4190348.954,-1470.8 
547334.341,4190148.249,-1477.7 
547334.341,4189947.545,-1478.5 
547334.341,4189746.841,-1477.2 
547334.341,4189546.137,-1481.5 
547334.341,4189345.432,-1489.9 
547334.341,4189144.728,-1491.6 
547334.341,4188944.024,-1481.1 
547334.341,4188743.320,-1462.5 
547334.341,4188542.615,-1443.5 
547334.341,4188341.911,-1431.7 
547334.341,4188141.207,-1428.6 
547334.341,4187940.503,-1430.7 
547334.341,4187739.799,-1435.7 
547334.341,4187539.094,-1443.2 
547334.341,4187338.390,-1450.4 
547334.341,4187137.686,-1455 
547334.341,4186936.982,-1456.3 
547334.341,4186736.277,-1455.5 
547334.341,4186535.573,-1454.6 
547334.341,4186334.869,-1456 
547334.341,4186134.165,-1462.2 
547334.341,4185933.461,-1471.5 
547334.341,4185732.756,-1480.5 
547334.341,4185532.052,-1490.9 
547334.341,4185331.348,-1503.1 
547334.341,4185130.644,-1511.7 
547334.341,4184929.939,-1516.7 
547334.341,4184729.235,-1523.5 
547334.341,4184528.531,-1532.6 
547334.341,4184327.827,-1541.8 
547334.341,4184127.123,-1549.5 
547334.341,4183926.418,-1554.1 
547334.341,4183725.714,-1558.6 
547334.341,4183525.010,-1567.2 
547334.341,4183324.306,-1579 
547334.341,4183123.601,-1589.8 
547334.341,4182922.897,-1597.1 
547334.341,4182722.193,-1601.4 
547334.341,4182521.489,-1604.3 
547334.341,4182320.785,-1607 
547334.341,4182120.080,-1608.5 
547334.341,4181919.376,-1604 
547334.341,4181718.672,-1587.2 
547334.341,4181517.968,-1557.2 
547334.341,4181317.263,-1526 
547334.341,4181116.559,-1506.7 
547334.341,4180915.855,-1501.7 
547334.341,4180715.151,-1508.5 
547334.341,4180514.446,-1521.8 
547334.341,4180313.742,-1536.9 
547334.341,4180113.038,-1552.4 
547334.341,4179912.334,-1564.8 
547334.341,4179711.630,-1570.6 
547334.341,4179510.925,-1570.5 
547535.422,4217845.432,-603.7 
547535.422,4217644.728,-620.9 
547535.422,4217444.024,-636.6 
547535.422,4217243.320,-646.9 
547535.422,4217042.615,-662.4 
547535.422,4216841.911,-683.7 
547535.422,4216641.207,-701.3 
547535.422,4216440.503,-714.3 
547535.422,4216239.799,-724.5 
547535.422,4216039.094,-730.5 
547535.422,4215838.390,-735.3 
547535.422,4215637.686,-743 
547535.422,4215436.982,-751.4 
547535.422,4215236.277,-759.1 
547535.422,4215035.573,-767.1 
547535.422,4214834.869,-782.1 
547535.422,4214634.165,-800.7 
547535.422,4214433.461,-823.5 
547535.422,4214232.756,-849.7 
547535.422,4214032.052,-876.6 
547535.422,4213831.348,-903.1 
547535.422,4213630.644,-923.2 
547535.422,4213429.939,-942 
547535.422,4213229.235,-953.5 
547535.422,4213028.531,-956.2 
547535.422,4212827.827,-971.6 
547535.422,4212627.123,-984.9 
547535.422,4212426.418,-999.3 
547535.422,4212225.714,-1014 
547535.422,4212025.010,-1037.4 
547535.422,4211824.306,-1047.8 
547535.422,4211623.601,-1051 
547535.422,4211422.897,-1054.6 
547535.422,4211222.193,-1062.2 
547535.422,4211021.489,-1078.3 
547535.422,4210820.785,-1099.4 
547535.422,4210620.080,-1106.9 
547535.422,4210419.376,-1106.5 
547535.422,4210218.672,-1098.2 
547535.422,4210017.968,-1100.9 
547535.422,4209817.263,-1114.3 
547535.422,4209616.559,-1127.5 
547535.422,4209415.855,-1140.2 
547535.422,4209215.151,-1146.9 
547535.422,4209014.446,-1135.7 
547535.422,4208813.742,-1152.6 
547535.422,4208613.038,-1154.5 
547535.422,4208412.334,-1160.7 
547535.422,4208211.630,-1171.1 
547535.422,4208010.925,-1187.2 
547535.422,4207810.221,-1203 
547535.422,4207609.517,-1216.6 
547535.422,4207408.813,-1222 
547535.422,4207208.108,-1231.4 
547535.422,4207007.404,-1243.5 
547535.422,4206806.700,-1247.9 
547535.422,4206605.996,-1249.3 
547535.422,4206405.292,-1251.2 
547535.422,4206204.587,-1257.1 
547535.422,4206003.883,-1261.6 
547535.422,4205803.179,-1260.5 
547535.422,4205602.475,-1263.2 
547535.422,4205401.770,-1268.4 
547535.422,4205201.066,-1270.8 
547535.422,4205000.362,-1269.2 
547535.422,4204799.658,-1262.1 
547535.422,4204598.954,-1245.5 
547535.422,4204398.249,-1235.8 
547535.422,4204197.545,-1247.3 
547535.422,4203996.841,-1250.3 
547535.422,4203796.137,-1245.8 
547535.422,4203595.432,-1241.9 
547535.422,4203394.728,-1235.3 
547535.422,4203194.024,-1230.3 
547535.422,4202993.320,-1235 
547535.422,4202792.615,-1254 
547535.422,4202591.911,-1274.9 
547535.422,4202391.207,-1286.8 
547535.422,4202190.503,-1297.4 
547535.422,4201989.799,-1315.7 
547535.422,4201789.094,-1327.1 
547535.422,4201588.390,-1337.6 
547535.422,4201387.686,-1345.8 
547535.422,4201186.982,-1356.9 
547535.422,4200986.277,-1368.5 
547535.422,4200785.573,-1376.8 
547535.422,4200584.869,-1380 
547535.422,4200384.165,-1377.7 
547535.422,4200183.461,-1373.5 
547535.422,4199982.756,-1362.6 
547535.422,4199782.052,-1350 
547535.422,4199581.348,-1323.9 
547535.422,4199380.644,-1284.1 
547535.422,4199179.939,-1262.6 
547535.422,4198979.235,-1258.5 
547535.422,4198778.531,-1263.4 
547535.422,4198577.827,-1278.7 
547535.422,4198377.123,-1302.2 
547535.422,4198176.418,-1314.5 
547535.422,4197975.714,-1321.6 
547535.422,4197775.010,-1331.9 
547535.422,4197574.306,-1354.5 
547535.422,4197373.601,-1379.1 
547535.422,4197172.897,-1388.5 
547535.422,4196972.193,-1378.3 
547535.422,4196771.489,-1355 
547535.422,4196570.785,-1332.3 
547535.422,4196370.080,-1317 
547535.422,4196169.376,-1312.1 
547535.422,4195968.672,-1318.7 
547535.422,4195767.968,-1332.2 
547535.422,4195567.263,-1346.4 
547535.422,4195366.559,-1357.3 
547535.422,4195165.855,-1366.5 
547535.422,4194965.151,-1376.2 
547535.422,4194764.446,-1388.9 
547535.422,4194563.742,-1403 
547535.422,4194363.038,-1414.7 
547535.422,4194162.334,-1423.8 
547535.422,4193961.630,-1428.2 
547535.422,4193760.925,-1427.5 
547535.422,4193560.221,-1424.2 
547535.422,4193359.517,-1422 
547535.422,4193158.813,-1423.7 
547535.422,4192958.108,-1427.6 
547535.422,4192757.404,-1431.5 
547535.422,4192556.700,-1435.8 
547535.422,4192355.996,-1442.9 
547535.422,4192155.292,-1452.2 
547535.422,4191954.587,-1459.1 
547535.422,4191753.883,-1461.3 
547535.422,4191553.179,-1460.5 
547535.422,4191352.475,-1454.8 
547535.422,4191151.770,-1445.1 
547535.422,4190951.066,-1439.7 
547535.422,4190750.362,-1444.2 
547535.422,4190549.658,-1456.1 
547535.422,4190348.954,-1469.5 
547535.422,4190148.249,-1481.1 
547535.422,4189947.545,-1487.1 
547535.422,4189746.841,-1488 
547535.422,4189546.137,-1490.1 
547535.422,4189345.432,-1494.4 
547535.422,4189144.728,-1494.7 
547535.422,4188944.024,-1485.8 
547535.422,4188743.320,-1468.1 
547535.422,4188542.615,-1447.9 
547535.422,4188341.911,-1434.1 
547535.422,4188141.207,-1430.1 
547535.422,4187940.503,-1432.4 
547535.422,4187739.799,-1437.1 
547535.422,4187539.094,-1444 
547535.422,4187338.390,-1451.7 
547535.422,4187137.686,-1457.9 
547535.422,4186936.982,-1460.6 
547535.422,4186736.277,-1459.9 
547535.422,4186535.573,-1458 
547535.422,4186334.869,-1457.9 
