540667.613,4209685.959,-212.7 
540667.613,4209635.914,-221.2 
540717.681,4210786.929,-11.7 
540717.681,4210736.884,-15.7 
540717.681,4210686.840,-25.6 
540717.681,4210636.796,-41.2 
540717.681,4210586.752,-55.2 
540717.681,4210536.708,-65.6 
540717.681,4210486.664,-74.8 
540717.681,4210436.620,-79.5 
540717.681,4210386.576,-77.5 
540717.681,4210336.532,-75.4 
540717.681,4210286.488,-75.8 
540717.681,4210236.444,-76.3 
540717.681,4210186.399,-77.9 
540717.681,4210136.355,-81 
540717.681,4210086.311,-87.3 
540717.681,4210036.267,-99.3 
540717.681,4209986.223,-116.1 
540717.681,4209936.179,-135.4 
540717.681,4209886.135,-153.5 
540717.681,4209836.091,-169.8 
540717.681,4209786.047,-185 
540717.681,4209736.003,-199.7 
540717.681,4209685.959,-214.6 
540717.681,4209635.914,-223.7 
540767.749,4210836.973,-11.6 
540767.749,4210786.929,-12.9 
540767.749,4210736.884,-18.5 
540767.749,4210686.840,-31.6 
540767.749,4210636.796,-50.2 
540767.749,4210586.752,-66.4 
540767.749,4210536.708,-79 
540767.749,4210486.664,-90 
540767.749,4210436.620,-97.5 
540767.749,4210386.576,-99.9 
540767.749,4210336.532,-99.7 
540767.749,4210286.488,-99 
540767.749,4210236.444,-97.2 
540767.749,4210186.399,-96.9 
540767.749,4210136.355,-99.1 
540767.749,4210086.311,-103 
540767.749,4210036.267,-112.6 
540767.749,4209986.223,-128.5 
540767.749,4209936.179,-144.7 
540767.749,4209886.135,-160.9 
540767.749,4209836.091,-177.2 
540767.749,4209786.047,-192.3 
540767.749,4209736.003,-204.9 
540767.749,4209685.959,-215.5 
540817.817,4210836.973,-11.9 
540817.817,4210786.929,-14 
540817.817,4210736.884,-19.9 
540817.817,4210686.840,-33.6 
540817.817,4210636.796,-53.6 
540817.817,4210586.752,-72.3 
540817.817,4210536.708,-88.4 
540817.817,4210486.664,-101.6 
540817.817,4210436.620,-111.9 
540817.817,4210386.576,-119.2 
540817.817,4210336.532,-124.1 
540817.817,4210286.488,-126.2 
540817.817,4210236.444,-124.7 
540817.817,4210186.399,-124 
540817.817,4210136.355,-126.2 
540817.817,4210086.311,-129 
540817.817,4210036.267,-133.4 
540817.817,4209986.223,-145.4 
540817.817,4209936.179,-157.4 
540817.817,4209886.135,-169.9 
540817.817,4209836.091,-185.9 
540817.817,4209786.047,-200.7 
540817.817,4209736.003,-211.7 
540817.817,4209685.959,-218.2 
540867.885,4210887.017,-11.5 
540867.885,4210836.973,-12.5 
540867.885,4210786.929,-15.2 
540867.885,4210736.884,-20.9 
540867.885,4210686.840,-33.5 
540867.885,4210636.796,-52.5 
540867.885,4210586.752,-71.8 
540867.885,4210536.708,-91.7 
540867.885,4210486.664,-110.4 
540867.885,4210436.620,-123.1 
540867.885,4210386.576,-133.5 
540867.885,4210336.532,-142.4 
540867.885,4210286.488,-148.9 
540867.885,4210236.444,-151.7 
540867.885,4210186.399,-153.2 
540867.885,4210136.355,-156 
540867.885,4210086.311,-159.7 
540867.885,4210036.267,-160.8 
540867.885,4209986.223,-167.4 
540867.885,4209936.179,-176.8 
540867.885,4209886.135,-184.6 
540867.885,4209836.091,-197.2 
540867.885,4209786.047,-210.9 
540867.885,4209736.003,-217.5 
540917.953,4210937.061,-11.3 
540917.953,4210887.017,-11.9 
540917.953,4210836.973,-13.7 
540917.953,4210786.929,-17.5 
540917.953,4210736.884,-24.7 
540917.953,4210686.840,-36.8 
540917.953,4210636.796,-52.7 
540917.953,4210586.752,-69.7 
540917.953,4210536.708,-91.4 
540917.953,4210486.664,-115.6 
540917.953,4210436.620,-131.5 
540917.953,4210386.576,-144.5 
540917.953,4210336.532,-155.3 
540917.953,4210286.488,-164.5 
540917.953,4210236.444,-171.8 
540917.953,4210186.399,-177.2 
540917.953,4210136.355,-182.3 
540917.953,4210086.311,-187.7 
540917.953,4210036.267,-189.5 
540917.953,4209986.223,-193 
540917.953,4209936.179,-196.3 
540968.022,4210987.105,-11.2 
540968.022,4210937.061,-11.7 
540968.022,4210887.017,-12.9 
540968.022,4210836.973,-15.5 
540968.022,4210786.929,-21.6 
540968.022,4210736.884,-32.8 
540968.022,4210686.840,-46.1 
540968.022,4210636.796,-58.6 
540968.022,4210586.752,-71.2 
540968.022,4210536.708,-89.6 
540968.022,4210486.664,-113.1 
540968.022,4210436.620,-133.3 
540968.022,4210386.576,-151.8 
540968.022,4210336.532,-166 
540968.022,4210286.488,-176.6 
540968.022,4210236.444,-185.4 
540968.022,4210186.399,-193.4 
540968.022,4210136.355,-201.2 
540968.022,4210086.311,-206 
541018.090,4211037.149,-10.9 
541018.090,4210987.105,-11.4 
541018.090,4210937.061,-12.5 
541018.090,4210887.017,-14.1 
541018.090,4210836.973,-17.4 
541018.090,4210786.929,-25.6 
541018.090,4210736.884,-40.7 
541018.090,4210686.840,-57.2 
541018.090,4210636.796,-70.9 
541018.090,4210586.752,-82.1 
541018.090,4210536.708,-95.6 
541018.090,4210486.664,-114.3 
541018.090,4210436.620,-135.7 
541018.090,4210386.576,-157.5 
541018.090,4210336.532,-175.2 
541018.090,4210286.488,-187.8 
541018.090,4210236.444,-197.1 
541018.090,4210186.399,-205 
541018.090,4210136.355,-212.9 
541018.090,4210086.311,-217.4 
541068.158,4211087.193,-10.8 
541068.158,4211037.149,-11.2 
541068.158,4210987.105,-12.2 
541068.158,4210937.061,-13.7 
541068.158,4210887.017,-15.7 
541068.158,4210836.973,-19.7 
541068.158,4210786.929,-28.9 
541068.158,4210736.884,-45.3 
541068.158,4210686.840,-64.5 
541068.158,4210636.796,-82.5 
541068.158,4210586.752,-97.7 
541068.158,4210536.708,-110.8 
541068.158,4210486.664,-126.2 
541068.158,4210436.620,-144.3 
541068.158,4210386.576,-163 
541068.158,4210336.532,-179.9 
541068.158,4210286.488,-192.9 
541068.158,4210236.444,-202 
541118.226,4211137.237,-10.6 
541118.226,4211087.193,-11.2 
541118.226,4211037.149,-12.1 
541118.226,4210987.105,-13.6 
541118.226,4210937.061,-15.4 
541118.226,4210887.017,-18.2 
541118.226,4210836.973,-23.4 
541118.226,4210786.929,-33.2 
541118.226,4210736.884,-48.1 
541118.226,4210686.840,-65.9 
541118.226,4210636.796,-84.1 
541118.226,4210586.752,-100.2 
541118.226,4210536.708,-114.7 
541118.226,4210486.664,-131.3 
541118.226,4210436.620,-146.4 
541118.226,4210386.576,-159.3 
541118.226,4210336.532,-171.7 
541118.226,4210286.488,-183.5 
541118.226,4210236.444,-195.6 
541168.294,4211187.281,-12.9 
541168.294,4211137.237,-13.5 
541168.294,4211087.193,-14.7 
541168.294,4211037.149,-15 
541168.294,4210987.105,-16.4 
541168.294,4210937.061,-18.9 
541168.294,4210887.017,-23 
541168.294,4210836.973,-29.9 
541168.294,4210786.929,-39.8 
541168.294,4210736.884,-51.9 
541168.294,4210686.840,-65.1 
541168.294,4210636.796,-78.2 
541168.294,4210586.752,-89.9 
541168.294,4210536.708,-102 
541168.294,4210486.664,-118.5 
541168.294,4210436.620,-133.3 
541168.294,4210386.576,-145.2 
541168.294,4210336.532,-157.8 
541168.294,4210286.488,-172.7 
541168.294,4210236.444,-190.2 
541168.294,4210186.399,-206.6 
541218.362,4211237.325,-12.5 
541218.362,4211187.281,-15.1 
541218.362,4211137.237,-21.1 
541218.362,4211087.193,-24.6 
541218.362,4211037.149,-23.5 
541218.362,4210987.105,-24.2 
541218.362,4210937.061,-27.1 
541218.362,4210887.017,-32.6 
541218.362,4210836.973,-40.6 
541218.362,4210786.929,-50 
541218.362,4210736.884,-59.1 
541218.362,4210686.840,-67.4 
541218.362,4210636.796,-75.4 
541218.362,4210586.752,-82.5 
541218.362,4210536.708,-90.1 
541218.362,4210486.664,-101.8 
541218.362,4210436.620,-116.1 
541218.362,4210386.576,-131.8 
541218.362,4210336.532,-149.3 
541218.362,4210286.488,-169.2 
541218.362,4210236.444,-191.3 
541218.362,4210186.399,-211.3 
541268.430,4211287.369,-11.8 
541268.430,4211237.325,-13.8 
541268.430,4211187.281,-19.9 
541268.430,4211137.237,-31.1 
541268.430,4211087.193,-38.6 
541268.430,4211037.149,-38.8 
541268.430,4210987.105,-39 
541268.430,4210937.061,-41.4 
541268.430,4210887.017,-46.9 
541268.430,4210836.973,-55 
541268.430,4210786.929,-63.4 
541268.430,4210736.884,-69.5 
541268.430,4210686.840,-74 
541268.430,4210636.796,-80.4 
541268.430,4210586.752,-86.3 
541268.430,4210536.708,-91.2 
541268.430,4210486.664,-97.2 
541268.430,4210436.620,-108.4 
541268.430,4210386.576,-126.4 
541268.430,4210336.532,-147 
541268.430,4210286.488,-168.2 
541268.430,4210236.444,-190.8 
541268.430,4210186.399,-209.4 
541318.498,4211337.414,-11.3 
541318.498,4211287.369,-12.5 
541318.498,4211237.325,-16.6 
541318.498,4211187.281,-26.3 
541318.498,4211137.237,-40.5 
541318.498,4211087.193,-51.4 
541318.498,4211037.149,-55.7 
541318.498,4210987.105,-57.2 
541318.498,4210937.061,-58.1 
541318.498,4210887.017,-62.3 
541318.498,4210836.973,-70 
541318.498,4210786.929,-78.2 
541318.498,4210736.884,-82.5 
541318.498,4210686.840,-84.7 
541318.498,4210636.796,-92.3 
541318.498,4210586.752,-100.1 
541318.498,4210536.708,-104.5 
541318.498,4210486.664,-106.4 
541318.498,4210436.620,-112.1 
541318.498,4210386.576,-127.8 
541318.498,4210336.532,-148.6 
541318.498,4210286.488,-168.9 
541318.498,4210236.444,-189.4 
541318.498,4210186.399,-205.8 
541318.498,4210136.355,-209.7 
541368.566,4211387.458,-10.6 
541368.566,4211337.414,-11.7 
541368.566,4211287.369,-13.8 
541368.566,4211237.325,-19.4 
541368.566,4211187.281,-31.6 
541368.566,4211137.237,-47.9 
541368.566,4211087.193,-61 
541368.566,4211037.149,-69.4 
541368.566,4210987.105,-74.3 
541368.566,4210937.061,-76.5 
541368.566,4210887.017,-78.9 
541368.566,4210836.973,-83.6 
541368.566,4210786.929,-93.1 
541368.566,4210736.884,-98.2 
541368.566,4210686.840,-101.1 
541368.566,4210636.796,-109 
541368.566,4210586.752,-118.2 
541368.566,4210536.708,-123.3 
541368.566,4210486.664,-123.7 
541368.566,4210436.620,-125.3 
541368.566,4210386.576,-136.3 
541368.566,4210336.532,-154.2 
541368.566,4210286.488,-172 
541368.566,4210236.444,-189.2 
541368.566,4210186.399,-203.9 
541368.566,4210136.355,-212.1 
541368.566,4210086.311,-218.9 
541418.634,4211387.458,-11 
541418.634,4211337.414,-12.6 
541418.634,4211287.369,-15.3 
541418.634,4211237.325,-21.4 
541418.634,4211187.281,-34.4 
541418.634,4211137.237,-51.9 
541418.634,4211087.193,-67 
541418.634,4211037.149,-78.8 
541418.634,4210987.105,-88.5 
541418.634,4210937.061,-95.4 
541418.634,4210887.017,-98.7 
541418.634,4210836.973,-100.5 
541418.634,4210786.929,-108.9 
541418.634,4210736.884,-115.4 
541418.634,4210686.840,-120.6 
541418.634,4210636.796,-128.7 
541418.634,4210586.752,-137.8 
541418.634,4210536.708,-142 
541418.634,4210486.664,-143.8 
541418.634,4210436.620,-145 
541418.634,4210386.576,-151.8 
541418.634,4210336.532,-163.6 
541418.634,4210286.488,-177.5 
541418.634,4210236.444,-192.3 
541418.634,4210186.399,-206 
541418.634,4210136.355,-214.8 
541468.702,4211437.502,-11.4 
541468.702,4211387.458,-12.1 
541468.702,4211337.414,-14.5 
541468.702,4211287.369,-18.2 
541468.702,4211237.325,-24.7 
541468.702,4211187.281,-36.3 
541468.702,4211137.237,-52.4 
541468.702,4211087.193,-67.9 
541468.702,4211037.149,-82.3 
541468.702,4210987.105,-96.7 
541468.702,4210937.061,-108.7 
541468.702,4210887.017,-116 
541468.702,4210836.973,-120.8 
541468.702,4210786.929,-127.1 
541468.702,4210736.884,-134.2 
541468.702,4210686.840,-142 
541468.702,4210636.796,-152 
541468.702,4210586.752,-160.3 
541468.702,4210536.708,-160.6 
541468.702,4210486.664,-163.8 
541468.702,4210436.620,-166.7 
541468.702,4210386.576,-170.3 
541468.702,4210336.532,-175.1 
541468.702,4210286.488,-185 
541468.702,4210236.444,-199.5 
541468.702,4210186.399,-212.4 
541468.702,4210136.355,-218.5 
541518.770,4211487.546,-11.4 
541518.770,4211437.502,-12 
541518.770,4211387.458,-14.1 
541518.770,4211337.414,-18.8 
541518.770,4211287.369,-25.8 
541518.770,4211237.325,-33.3 
541518.770,4211187.281,-42.2 
541518.770,4211137.237,-53.9 
541518.770,4211087.193,-67.8 
541518.770,4211037.149,-83.3 
541518.770,4210987.105,-101.6 
541518.770,4210937.061,-119.5 
541518.770,4210887.017,-131.5 
541518.770,4210836.973,-139.5 
541518.770,4210786.929,-145.8 
541518.770,4210736.884,-153.1 
541518.770,4210686.840,-162.3 
541518.770,4210636.796,-175.1 
541518.770,4210586.752,-185.2 
541518.770,4210536.708,-183.7 
541518.770,4210486.664,-185.5 
541518.770,4210436.620,-187.3 
541518.770,4210386.576,-189.1 
541518.770,4210336.532,-189.9 
541518.770,4210286.488,-195.8 
541518.770,4210236.444,-206.7 
541568.838,4211537.590,-11.1 
541568.838,4211487.546,-11.7 
541568.838,4211437.502,-13.3 
541568.838,4211387.458,-16.8 
541568.838,4211337.414,-24.9 
541568.838,4211287.369,-36.8 
541568.838,4211237.325,-46.5 
541568.838,4211187.281,-53.9 
541568.838,4211137.237,-61.6 
541568.838,4211087.193,-72.5 
541568.838,4211037.149,-88.1 
541568.838,4210987.105,-109.2 
541568.838,4210937.061,-132.6 
541568.838,4210887.017,-149.4 
541568.838,4210836.973,-159.9 
541568.838,4210786.929,-166.4 
541568.838,4210736.884,-170.8 
541568.838,4210686.840,-177.6 
541568.838,4210636.796,-187.2 
541568.838,4210386.576,-206.9 
541568.838,4210336.532,-205.5 
541618.906,4211587.634,-11.2 
541618.906,4211537.590,-11.5 
541618.906,4211487.546,-12.8 
541618.906,4211437.502,-14.9 
541618.906,4211387.458,-19.4 
541618.906,4211337.414,-29.7 
541618.906,4211287.369,-44.8 
541618.906,4211237.325,-57.6 
541618.906,4211187.281,-68.6 
541618.906,4211137.237,-77.3 
541618.906,4211087.193,-84.7 
541618.906,4211037.149,-99 
541618.906,4210987.105,-120.7 
541618.906,4210937.061,-144.4 
541618.906,4210887.017,-165.6 
541618.906,4210836.973,-182 
541618.906,4210786.929,-188.9 
541618.906,4210736.884,-189.8 
541618.906,4210686.840,-190.8 
541668.974,4211687.722,-10.7 
541668.974,4211637.678,-11.3 
541668.974,4211587.634,-12 
541668.974,4211537.590,-13.1 
541668.974,4211487.546,-15.3 
541668.974,4211437.502,-18.8 
541668.974,4211387.458,-24.8 
541668.974,4211337.414,-35.5 
541668.974,4211287.369,-50.2 
541668.974,4211237.325,-64.7 
541668.974,4211187.281,-81.1 
541668.974,4211137.237,-97.6 
541668.974,4211087.193,-106.9 
541668.974,4211037.149,-117.2 
541668.974,4210987.105,-133.6 
541668.974,4210937.061,-152.3 
541668.974,4210887.017,-175.4 
541668.974,4210836.973,-197.8 
541668.974,4210786.929,-206.3 
541719.042,4211737.766,-10.9 
541719.042,4211687.722,-12.2 
541719.042,4211637.678,-14.8 
541719.042,4211587.634,-17.2 
541719.042,4211537.590,-19.5 
541719.042,4211487.546,-23.3 
541719.042,4211437.502,-29.4 
541719.042,4211387.458,-37.4 
541719.042,4211337.414,-47.9 
541719.042,4211287.369,-60.7 
541719.042,4211237.325,-74.3 
541719.042,4211187.281,-92.6 
541719.042,4211137.237,-116.8 
541719.042,4211087.193,-134.5 
541719.042,4211037.149,-142.3 
541719.042,4210987.105,-150.2 
541719.042,4210937.061,-161.1 
541719.042,4210887.017,-180.9 
541719.042,4210836.973,-203.5 
541719.042,4210786.929,-216.3 
541769.110,4211787.810,-11.3 
541769.110,4211737.766,-12.4 
541769.110,4211687.722,-17.5 
541769.110,4211637.678,-25 
541769.110,4211587.634,-30.2 
541769.110,4211537.590,-33.6 
541769.110,4211487.546,-39 
541769.110,4211437.502,-47.2 
541769.110,4211387.458,-56.5 
541769.110,4211337.414,-66.7 
541769.110,4211287.369,-77.8 
541769.110,4211237.325,-89.9 
541769.110,4211187.281,-106.6 
541769.110,4211137.237,-131.5 
541769.110,4211087.193,-155.5 
541769.110,4211037.149,-167.9 
541769.110,4210987.105,-171.8 
541769.110,4210937.061,-175.2 
541769.110,4210887.017,-187.5 
541769.110,4210836.973,-205.8 
541769.110,4210786.929,-217.6 
541819.178,4211787.810,-12.6 
541819.178,4211737.766,-17 
541819.178,4211687.722,-27.8 
541819.178,4211637.678,-40.8 
541819.178,4211587.634,-48.2 
541819.178,4211537.590,-51.5 
541819.178,4211487.546,-57.9 
541819.178,4211437.502,-67.8 
541819.178,4211387.458,-77.8 
541819.178,4211337.414,-87.4 
541819.178,4211287.369,-97.4 
541819.178,4211237.325,-108 
541819.178,4211187.281,-122 
541819.178,4211137.237,-142.6 
541819.178,4211087.193,-167 
541819.178,4211037.149,-186.4 
541819.178,4210987.105,-194.2 
541819.178,4210937.061,-194.9 
541819.178,4210887.017,-198.3 
541819.178,4210836.973,-207.9 
541869.246,4211887.899,-13 
541869.246,4211837.854,-13.7 
541869.246,4211787.810,-16 
541869.246,4211737.766,-25.2 
541869.246,4211687.722,-41.7 
541869.246,4211637.678,-58.2 
541869.246,4211587.634,-66.5 
541869.246,4211537.590,-68.3 
541869.246,4211487.546,-73.6 
541869.246,4211437.502,-84 
541869.246,4211387.458,-96.5 
541869.246,4211337.414,-107 
541869.246,4211287.369,-116.8 
541869.246,4211237.325,-126.5 
541869.246,4211187.281,-137.7 
541869.246,4211137.237,-153.5 
541869.246,4211087.193,-174.7 
541869.246,4211037.149,-196.6 
541869.246,4210987.105,-208.7 
541919.314,4211987.987,-11.6 
541919.314,4211937.943,-12.2 
541919.314,4211887.899,-13.5 
541919.314,4211837.854,-15.3 
541919.314,4211787.810,-21.3 
541919.314,4211737.766,-35.7 
541919.314,4211687.722,-55.8 
541919.314,4211637.678,-74.6 
541919.314,4211587.634,-85.1 
541919.314,4211537.590,-86.1 
541919.314,4211487.546,-89 
541919.314,4211437.502,-98.9 
541919.314,4211387.458,-111.9 
541919.314,4211337.414,-125.2 
541919.314,4211287.369,-135.6 
541919.314,4211237.325,-145.1 
541919.314,4211187.281,-154 
541919.314,4211137.237,-164.9 
541919.314,4211087.193,-181.8 
541919.314,4211037.149,-202.3 
541919.314,4210987.105,-215.8 
541969.382,4212088.075,-10.4 
541969.382,4212038.031,-11.3 
541969.382,4211987.987,-12.3 
541969.382,4211937.943,-13.2 
541969.382,4211887.899,-14.9 
541969.382,4211837.854,-18.4 
541969.382,4211787.810,-28.1 
541969.382,4211737.766,-46 
541969.382,4211687.722,-67.1 
541969.382,4211637.678,-87.8 
541969.382,4211587.634,-103.1 
541969.382,4211537.590,-107.1 
541969.382,4211487.546,-110.3 
541969.382,4211437.502,-119.4 
541969.382,4211387.458,-129.7 
541969.382,4211337.414,-143.7 
541969.382,4211287.369,-153.9 
541969.382,4211237.325,-162.9 
541969.382,4211187.281,-170.5 
541969.382,4211137.237,-177.3 
541969.382,4211087.193,-189.4 
541969.382,4211037.149,-208.8 
541969.382,4210987.105,-220.1 
542019.450,4212338.295,-10.3 
542019.450,4212288.251,-11.5 
542019.450,4212238.207,-12.3 
542019.450,4212188.163,-11.7 
542019.450,4212138.119,-11.8 
542019.450,4212088.075,-12.1 
542019.450,4212038.031,-13.5 
542019.450,4211987.987,-14.4 
542019.450,4211937.943,-15.5 
542019.450,4211887.899,-17.7 
542019.450,4211837.854,-23.4 
542019.450,4211787.810,-36.2 
542019.450,4211737.766,-55.9 
542019.450,4211687.722,-77.1 
542019.450,4211637.678,-99 
542019.450,4211587.634,-118.4 
542019.450,4211537.590,-127.3 
542019.450,4211487.546,-132.6 
542019.450,4211437.502,-140.2 
542019.450,4211387.458,-148.8 
542019.450,4211337.414,-161 
542019.450,4211287.369,-170.9 
542019.450,4211237.325,-179.5 
542019.450,4211187.281,-186.7 
542019.450,4211137.237,-192.1 
542019.450,4211087.193,-200.9 
542019.450,4211037.149,-214.9 
542069.518,4212388.339,-11.1 
542069.518,4212338.295,-11.6 
542069.518,4212288.251,-13.6 
542069.518,4212238.207,-14 
542069.518,4212188.163,-13.5 
542069.518,4212138.119,-15 
542069.518,4212088.075,-17.9 
542069.518,4212038.031,-20.4 
542069.518,4211987.987,-20.9 
542069.518,4211937.943,-21.5 
542069.518,4211887.899,-24.2 
542069.518,4211837.854,-31.6 
542069.518,4211787.810,-44.8 
542069.518,4211737.766,-62.7 
542069.518,4211687.722,-82.3 
542069.518,4211637.678,-103.9 
542069.518,4211587.634,-127.1 
542069.518,4211537.590,-142.6 
542069.518,4211487.546,-150.4 
542069.518,4211437.502,-156.6 
542069.518,4211387.458,-162.9 
542069.518,4211337.414,-172.3 
542069.518,4211287.369,-184.2 
542069.518,4211237.325,-194.3 
542069.518,4211187.281,-202.2 
542069.518,4211137.237,-208.2 
542069.518,4211087.193,-212.5 
542119.586,4212538.472,-9 
542119.586,4212488.428,-9.5 
542119.586,4212438.384,-11.2 
542119.586,4212388.339,-12.9 
542119.586,4212338.295,-15.1 
542119.586,4212288.251,-18.3 
542119.586,4212238.207,-20.2 
542119.586,4212188.163,-21.5 
542119.586,4212138.119,-24.9 
542119.586,4212088.075,-30.7 
542119.586,4212038.031,-35.1 
542119.586,4211987.987,-35.3 
542119.586,4211937.943,-34.8 
542119.586,4211887.899,-37.3 
542119.586,4211837.854,-44.8 
542119.586,4211787.810,-53.7 
542119.586,4211737.766,-64.3 
542119.586,4211687.722,-78.5 
542119.586,4211637.678,-98.5 
542119.586,4211587.634,-125.2 
542119.586,4211537.590,-149.4 
542119.586,4211487.546,-163.3 
542119.586,4211437.502,-171.3 
542119.586,4211387.458,-176.6 
542119.586,4211337.414,-181.9 
542119.586,4211287.369,-191.4 
542119.586,4211237.325,-200.6 
542169.654,4212738.648,-7.5 
542169.654,4212688.604,-7.6 
542169.654,4212638.560,-7.9 
542169.654,4212588.516,-8.6 
542169.654,4212538.472,-9.5 
542169.654,4212488.428,-10.8 
542169.654,4212438.384,-13.5 
542169.654,4212388.339,-17 
542169.654,4212338.295,-21.4 
542169.654,4212288.251,-26.4 
542169.654,4212238.207,-31.2 
542169.654,4212188.163,-35.9 
542169.654,4212138.119,-41.6 
542169.654,4212088.075,-50.2 
542169.654,4212038.031,-56.1 
542169.654,4211987.987,-56 
542169.654,4211937.943,-53.8 
542169.654,4211887.899,-55.4 
542169.654,4211837.854,-63.3 
542169.654,4211787.810,-67.2 
542169.654,4211737.766,-67.9 
542169.654,4211687.722,-75.1 
542169.654,4211637.678,-91.5 
542169.654,4211587.634,-116.8 
542169.654,4211537.590,-145.2 
542169.654,4211487.546,-168.1 
542169.654,4211437.502,-182.3 
542169.654,4211387.458,-192 
542169.654,4211337.414,-197.5 
542169.654,4211287.369,-201.6 
542169.654,4211237.325,-203.3 
542219.722,4212788.692,-9.2 
542219.722,4212738.648,-8.1 
542219.722,4212688.604,-8.3 
542219.722,4212638.560,-8.8 
542219.722,4212588.516,-10 
542219.722,4212538.472,-11.1 
542219.722,4212488.428,-13 
542219.722,4212438.384,-16.3 
542219.722,4212388.339,-21.2 
542219.722,4212338.295,-27.6 
542219.722,4212288.251,-35.8 
542219.722,4212238.207,-44.4 
542219.722,4212188.163,-52.5 
542219.722,4212138.119,-60.4 
542219.722,4212088.075,-70.5 
542219.722,4212038.031,-78 
542219.722,4211987.987,-79.6 
542219.722,4211937.943,-77.5 
542219.722,4211887.899,-78.8 
542219.722,4211837.854,-87 
542219.722,4211787.810,-87.2 
542219.722,4211737.766,-80.9 
542219.722,4211687.722,-82.9 
542219.722,4211637.678,-93.7 
542219.722,4211587.634,-111.9 
542219.722,4211537.590,-135.5 
542219.722,4211487.546,-160 
542219.722,4211437.502,-179.4 
542219.722,4211387.458,-197.2 
542219.722,4211337.414,-209.9 
542269.790,4212838.736,-10.9 
542269.790,4212788.692,-10 
542269.790,4212738.648,-9.6 
542269.790,4212688.604,-10 
542269.790,4212638.560,-10.9 
542269.790,4212588.516,-12.5 
542269.790,4212538.472,-14.2 
542269.790,4212488.428,-16.2 
542269.790,4212438.384,-19.3 
542269.790,4212388.339,-23.9 
542269.790,4212338.295,-30.8 
542269.790,4212288.251,-41.3 
542269.790,4212238.207,-54.2 
542269.790,4212188.163,-66.5 
542269.790,4212138.119,-76.6 
542269.790,4212088.075,-87.4 
542269.790,4212038.031,-96.8 
542269.790,4211987.987,-102.6 
542269.790,4211937.943,-105.2 
542269.790,4211887.899,-109.1 
542269.790,4211837.854,-115.1 
542269.790,4211787.810,-111.1 
542269.790,4211737.766,-101.7 
542269.790,4211687.722,-101 
542269.790,4211637.678,-107.1 
542269.790,4211587.634,-117.8 
542269.790,4211537.590,-133.3 
542269.790,4211487.546,-151.6 
542269.790,4211437.502,-170.4 
542269.790,4211387.458,-192.4 
542269.790,4211337.414,-213.1 
542269.790,4211287.369,-221.1 
542319.858,4212888.780,-10.9 
542319.858,4212838.736,-11.2 
542319.858,4212788.692,-11.2 
542319.858,4212738.648,-11.4 
542319.858,4212688.604,-12.2 
542319.858,4212638.560,-13.5 
542319.858,4212588.516,-15.3 
542319.858,4212538.472,-17.4 
542319.858,4212488.428,-19.5 
542319.858,4212438.384,-22.4 
542319.858,4212388.339,-26.7 
542319.858,4212338.295,-32.7 
542319.858,4212288.251,-42.2 
542319.858,4212238.207,-57 
542319.858,4212188.163,-74.4 
542319.858,4212138.119,-88.8 
542319.858,4212088.075,-100.9 
542319.858,4212038.031,-111.5 
542319.858,4211987.987,-121.1 
542319.858,4211937.943,-129.3 
542319.858,4211887.899,-137.5 
542319.858,4211837.854,-142.4 
542319.858,4211787.810,-137.8 
542319.858,4211737.766,-128.2 
542319.858,4211687.722,-123.8 
542319.858,4211637.678,-125.9 
542319.858,4211587.634,-132.6 
542319.858,4211537.590,-143.7 
542319.858,4211487.546,-156.8 
542319.858,4211437.502,-172.3 
542319.858,4211387.458,-191.3 
542319.858,4211337.414,-211.9 
542319.858,4211287.369,-223.3 
542369.926,4212988.869,-9.9 
542369.926,4212938.825,-10.2 
542369.926,4212888.780,-10.9 
542369.926,4212838.736,-11.4 
542369.926,4212788.692,-12 
542369.926,4212738.648,-12.9 
542369.926,4212688.604,-14.1 
542369.926,4212638.560,-15.6 
542369.926,4212588.516,-17.5 
542369.926,4212538.472,-19.8 
542369.926,4212488.428,-22.5 
542369.926,4212438.384,-25.9 
542369.926,4212388.339,-30.4 
542369.926,4212338.295,-35.8 
542369.926,4212288.251,-42.8 
542369.926,4212238.207,-55.4 
542369.926,4212188.163,-74.4 
542369.926,4212138.119,-93.7 
542369.926,4212088.075,-110.1 
542369.926,4212038.031,-122.9 
542369.926,4211987.987,-134 
542369.926,4211937.943,-144.9 
542369.926,4211887.899,-155.9 
542369.926,4211837.854,-163.4 
542369.926,4211787.810,-164 
542369.926,4211737.766,-158.7 
542369.926,4211687.722,-151.3 
542369.926,4211637.678,-148 
542369.926,4211587.634,-150.6 
542369.926,4211537.590,-159.6 
542369.926,4211487.546,-170.4 
542369.926,4211437.502,-183.2 
542369.926,4211387.458,-198.1 
542369.926,4211337.414,-214 
542369.926,4211287.369,-223.6 
542419.994,4213088.957,-9 
542419.994,4213038.913,-9.3 
542419.994,4212988.869,-10 
542419.994,4212938.825,-10.5 
542419.994,4212888.780,-11.1 
542419.994,4212838.736,-11.9 
542419.994,4212788.692,-12.8 
542419.994,4212738.648,-14 
542419.994,4212688.604,-15.6 
542419.994,4212638.560,-17.5 
542419.994,4212588.516,-19.9 
542419.994,4212538.472,-22.8 
542419.994,4212488.428,-26.2 
542419.994,4212438.384,-30.3 
542419.994,4212388.339,-34.9 
542419.994,4212338.295,-39.9 
542419.994,4212288.251,-45.5 
542419.994,4212238.207,-54.3 
542419.994,4212188.163,-69.6 
542419.994,4212138.119,-91.3 
542419.994,4212088.075,-114.5 
542419.994,4212038.031,-130.9 
542419.994,4211987.987,-143.2 
542419.994,4211937.943,-154.6 
542419.994,4211887.899,-166.3 
542419.994,4211837.854,-176.6 
542419.994,4211787.810,-183.7 
542419.994,4211737.766,-185.6 
542419.994,4211687.722,-180.5 
542419.994,4211637.678,-172.4 
542419.994,4211587.634,-169 
542419.994,4211537.590,-175.5 
542419.994,4211487.546,-185.1 
542419.994,4211437.502,-196.3 
542419.994,4211387.458,-205.7 
542470.062,4213088.957,-9.2 
542470.062,4213038.913,-9.7 
542470.062,4212988.869,-10.5 
542470.062,4212938.825,-11.1 
542470.062,4212888.780,-11.9 
542470.062,4212838.736,-12.8 
542470.062,4212788.692,-14 
542470.062,4212738.648,-15.6 
542470.062,4212688.604,-17.9 
542470.062,4212638.560,-20.9 
542470.062,4212588.516,-24.2 
542470.062,4212538.472,-27.6 
542470.062,4212488.428,-31.5 
542470.062,4212438.384,-35.7 
542470.062,4212388.339,-40 
542470.062,4212338.295,-44.7 
542470.062,4212288.251,-49.5 
542470.062,4212238.207,-55.6 
542470.062,4212188.163,-66.4 
542470.062,4212138.119,-87.2 
542470.062,4212088.075,-114.8 
542470.062,4212038.031,-135 
542470.062,4211987.987,-149.5 
542470.062,4211937.943,-161.9 
542470.062,4211887.899,-174.1 
542470.062,4211837.854,-185.8 
542470.062,4211787.810,-195.9 
542470.062,4211737.766,-203.3 
542470.062,4211687.722,-203.8 
542470.062,4211637.678,-194.8 
542470.062,4211587.634,-186.2 
542470.062,4211537.590,-190.6 
542470.062,4211487.546,-199.3 
542470.062,4211437.502,-206.5 
542520.130,4213189.045,-8.5 
542520.130,4213139.001,-9 
542520.130,4213088.957,-9.7 
542520.130,4213038.913,-10.5 
542520.130,4212988.869,-11.4 
542520.130,4212938.825,-12.2 
542520.130,4212888.780,-13.1 
542520.130,4212838.736,-14.3 
542520.130,4212788.692,-15.8 
542520.130,4212738.648,-18.3 
542520.130,4212688.604,-21.9 
542520.130,4212638.560,-26.3 
542520.130,4212588.516,-30.5 
542520.130,4212538.472,-34.3 
542520.130,4212488.428,-37.9 
542520.130,4212438.384,-41.7 
542520.130,4212388.339,-45.6 
542520.130,4212338.295,-49.9 
542520.130,4212288.251,-54.2 
542520.130,4212238.207,-58.6 
542520.130,4212188.163,-66.3 
542520.130,4212138.119,-83.3 
542520.130,4212088.075,-111.3 
542520.130,4212038.031,-137.1 
542520.130,4211987.987,-153.7 
542520.130,4211937.943,-167.5 
542520.130,4211887.899,-180.9 
542520.130,4211837.854,-193.4 
542520.130,4211787.810,-204.5 
542520.130,4211737.766,-211.8 
542520.130,4211587.634,-200.3 
542520.130,4211537.590,-204.7 
542520.130,4211487.546,-209.6 
542570.198,4213239.089,-8.3 
542570.198,4213189.045,-8.8 
542570.198,4213139.001,-9.6 
542570.198,4213088.957,-10.6 
542570.198,4213038.913,-11.6 
542570.198,4212988.869,-12.6 
542570.198,4212938.825,-13.7 
542570.198,4212888.780,-14.9 
542570.198,4212838.736,-16.4 
542570.198,4212788.692,-18.5 
542570.198,4212738.648,-22.4 
542570.198,4212688.604,-27.8 
542570.198,4212638.560,-33.1 
542570.198,4212588.516,-38.1 
542570.198,4212538.472,-41.8 
542570.198,4212488.428,-44.6 
542570.198,4212438.384,-47.4 
542570.198,4212388.339,-50.8 
542570.198,4212338.295,-54.9 
542570.198,4212288.251,-58.8 
542570.198,4212238.207,-62.3 
542570.198,4212188.163,-68 
542570.198,4212138.119,-81.1 
542570.198,4212088.075,-108 
542570.198,4212038.031,-139.5 
542570.198,4211987.987,-158.4 
542570.198,4211937.943,-173.3 
542570.198,4211887.899,-187.2 
542570.198,4211837.854,-200.3 
542570.198,4211787.810,-212.4 
542570.198,4211737.766,-217.7 
542620.266,4213289.133,-8.1 
542620.266,4213239.089,-8.5 
542620.266,4213189.045,-9.5 
542620.266,4213139.001,-10.6 
542620.266,4213088.957,-11.8 
542620.266,4213038.913,-12.9 
542620.266,4212988.869,-14.2 
542620.266,4212938.825,-15.5 
542620.266,4212888.780,-17 
542620.266,4212838.736,-18.7 
542620.266,4212788.692,-21.4 
542620.266,4212738.648,-26.8 
542620.266,4212688.604,-33.9 
542620.266,4212638.560,-39.9 
542620.266,4212588.516,-45 
542620.266,4212538.472,-48.6 
542620.266,4212488.428,-50.6 
542620.266,4212438.384,-52.4 
542620.266,4212388.339,-55.5 
542620.266,4212338.295,-59.6 
542620.266,4212288.251,-63.3 
542620.266,4212238.207,-66.3 
542620.266,4212188.163,-71.3 
542620.266,4212138.119,-83.4 
542620.266,4212088.075,-109.8 
542620.266,4212038.031,-142.9 
542620.266,4211987.987,-164.6 
542620.266,4211937.943,-180.8 
542620.266,4211887.899,-194.8 
542620.266,4211837.854,-207.9 
542620.266,4211787.810,-217.9 
542670.334,4213289.133,-8.5 
542670.334,4213239.089,-9.3 
542670.334,4213189.045,-10.5 
542670.334,4213139.001,-11.8 
542670.334,4213088.957,-13 
542670.334,4213038.913,-14.3 
542670.334,4212988.869,-15.8 
542670.334,4212938.825,-17.3 
542670.334,4212888.780,-19.1 
542670.334,4212838.736,-21.1 
542670.334,4212788.692,-24.3 
542670.334,4212738.648,-31 
542670.334,4212688.604,-39.5 
542670.334,4212638.560,-45.7 
542670.334,4212588.516,-50.8 
542670.334,4212538.472,-54.2 
542670.334,4212488.428,-55.9 
542670.334,4212438.384,-57.4 
542670.334,4212388.339,-60.4 
542670.334,4212338.295,-64.6 
542670.334,4212288.251,-68 
542670.334,4212238.207,-70.6 
542670.334,4212188.163,-75.7 
542670.334,4212138.119,-88.6 
542670.334,4212088.075,-112.4 
542670.334,4212038.031,-141.2 
542670.334,4211987.987,-166.8 
542670.334,4211937.943,-187.5 
542670.334,4211887.899,-203 
542670.334,4211837.854,-213.2 
542720.402,4213289.133,-9.5 
542720.402,4213239.089,-10.4 
542720.402,4213189.045,-11.6 
542720.402,4213139.001,-12.9 
542720.402,4213088.957,-14.3 
542720.402,4213038.913,-15.7 
542720.402,4212988.869,-17.4 
542720.402,4212938.825,-19.4 
542720.402,4212888.780,-21.6 
542720.402,4212838.736,-24 
542720.402,4212788.692,-27.9 
542720.402,4212738.648,-35.4 
542720.402,4212688.604,-45.1 
542720.402,4212638.560,-52 
542720.402,4212588.516,-56.7 
542720.402,4212538.472,-59.8 
542720.402,4212488.428,-61.1 
542720.402,4212438.384,-62.4 
542720.402,4212388.339,-65.7 
542720.402,4212338.295,-70.5 
542720.402,4212288.251,-73.9 
542720.402,4212238.207,-75.4 
542720.402,4212188.163,-81.7 
542720.402,4212138.119,-96 
542720.402,4212088.075,-115.1 
542720.402,4212038.031,-136.4 
542720.402,4211987.987,-161.7 
542720.402,4211937.943,-186.7 
542720.402,4211887.899,-207 
542720.402,4211837.854,-216.8 
542770.470,4213339.177,-9.7 
542770.470,4213289.133,-10.5 
542770.470,4213239.089,-11.6 
542770.470,4213189.045,-12.7 
542770.470,4213139.001,-14 
542770.470,4213088.957,-15.4 
542770.470,4213038.913,-17.2 
542770.470,4212988.869,-19.4 
542770.470,4212938.825,-22.2 
542770.470,4212888.780,-25.2 
542770.470,4212838.736,-28 
542770.470,4212788.692,-32 
542770.470,4212738.648,-39.3 
542770.470,4212688.604,-49.9 
542770.470,4212638.560,-58.9 
542770.470,4212588.516,-64.9 
542770.470,4212538.472,-68.2 
542770.470,4212488.428,-66.5 
542770.470,4212438.384,-67.5 
542770.470,4212388.339,-71.4 
542770.470,4212338.295,-78.4 
542770.470,4212288.251,-82.8 
542770.470,4212238.207,-82.8 
542770.470,4212188.163,-91 
542770.470,4212138.119,-105.9 
542770.470,4212088.075,-122.3 
542770.470,4212038.031,-139.8 
542770.470,4211987.987,-159.5 
542770.470,4211937.943,-182.4 
542770.470,4211887.899,-206.5 
542770.470,4211837.854,-219.2 
542820.539,4213389.221,-9.3 
542820.539,4213339.177,-10.1 
542820.539,4213289.133,-11.2 
542820.539,4213239.089,-12.5 
542820.539,4213189.045,-13.7 
542820.539,4213139.001,-15.1 
542820.539,4213088.957,-16.7 
542820.539,4213038.913,-19.1 
542820.539,4212988.869,-22.6 
542820.539,4212938.825,-26.6 
542820.539,4212888.780,-30 
542820.539,4212838.736,-32.9 
542820.539,4212788.692,-36.7 
542820.539,4212738.648,-43.1 
542820.539,4212688.604,-54 
542820.539,4212638.560,-66.3 
542820.539,4212588.516,-76.6 
542820.539,4212538.472,-81.4 
542820.539,4212488.428,-75.9 
542820.539,4212438.384,-72.8 
542820.539,4212388.339,-77.4 
542820.539,4212338.295,-87.9 
542820.539,4212288.251,-95.3 
542820.539,4212238.207,-94.6 
542820.539,4212188.163,-102.5 
542820.539,4212138.119,-115 
542820.539,4212088.075,-129.9 
542820.539,4212038.031,-148.7 
542820.539,4211987.987,-166.2 
542820.539,4211937.943,-184.6 
542820.539,4211887.899,-206.4 
542820.539,4211837.854,-220.5 
542870.607,4213439.265,-9.3 
542870.607,4213389.221,-9.9 
542870.607,4213339.177,-11 
542870.607,4213289.133,-12.2 
542870.607,4213239.089,-13.5 
542870.607,4213189.045,-14.8 
542870.607,4213139.001,-16.3 
542870.607,4213088.957,-18.4 
542870.607,4213038.913,-22.3 
542870.607,4212988.869,-27.9 
542870.607,4212938.825,-32.7 
542870.607,4212888.780,-35.8 
542870.607,4212838.736,-38.3 
542870.607,4212788.692,-41.7 
542870.607,4212738.648,-47.3 
542870.607,4212688.604,-57.2 
542870.607,4212638.560,-71.3 
542870.607,4212588.516,-87.5 
542870.607,4212538.472,-98.3 
542870.607,4212488.428,-93.9 
542870.607,4212438.384,-85.8 
542870.607,4212388.339,-89.9 
542870.607,4212338.295,-100.4 
542870.607,4212288.251,-110.6 
542870.607,4212238.207,-110.8 
542870.607,4212188.163,-113.6 
542870.607,4212138.119,-123.7 
542870.607,4212088.075,-137.2 
542870.607,4212038.031,-156.5 
542870.607,4211987.987,-175.4 
542870.607,4211937.943,-192.1 
542870.607,4211887.899,-206 
542870.607,4211837.854,-221.1 
542920.675,4213489.310,-9.4 
542920.675,4213439.265,-10.2 
542920.675,4213389.221,-11.3 
542920.675,4213339.177,-12.6 
542920.675,4213289.133,-13.8 
542920.675,4213239.089,-15 
542920.675,4213189.045,-16.4 
542920.675,4213139.001,-18.2 
542920.675,4213088.957,-21.3 
542920.675,4213038.913,-27.3 
542920.675,4212988.869,-34.9 
542920.675,4212938.825,-39.9 
542920.675,4212888.780,-42.2 
542920.675,4212838.736,-43.8 
542920.675,4212788.692,-46.7 
542920.675,4212738.648,-51.5 
542920.675,4212688.604,-59.1 
542920.675,4212638.560,-70.8 
542920.675,4212588.516,-88.8 
542920.675,4212538.472,-109.5 
542920.675,4212488.428,-118.6 
542920.675,4212438.384,-114.6 
542920.675,4212388.339,-116.6 
542920.675,4212338.295,-121.2 
542920.675,4212288.251,-129.4 
542920.675,4212238.207,-130.9 
542920.675,4212188.163,-127.2 
542920.675,4212138.119,-135.4 
542920.675,4212088.075,-148.6 
542920.675,4212038.031,-165.3 
542920.675,4211987.987,-183.9 
542920.675,4211937.943,-201.2 
542920.675,4211887.899,-209.1 
542970.743,4213539.354,-9.7 
542970.743,4213489.310,-10.4 
542970.743,4213439.265,-11.8 
542970.743,4213389.221,-13.3 
542970.743,4213339.177,-14.7 
542970.743,4213289.133,-16 
542970.743,4213239.089,-17.3 
542970.743,4213189.045,-18.9 
542970.743,4213139.001,-21.6 
542970.743,4213088.957,-26.1 
542970.743,4213038.913,-33.9 
542970.743,4212988.869,-42.7 
542970.743,4212938.825,-47.6 
542970.743,4212888.780,-49.4 
542970.743,4212838.736,-49.9 
542970.743,4212788.692,-51.9 
542970.743,4212738.648,-55.8 
542970.743,4212688.604,-61.2 
542970.743,4212638.560,-68.9 
542970.743,4212588.516,-82.7 
542970.743,4212538.472,-110.1 
542970.743,4212488.428,-139.6 
542970.743,4212438.384,-148.7 
542970.743,4212388.339,-151.5 
542970.743,4212338.295,-150.7 
542970.743,4212288.251,-154 
542970.743,4212238.207,-156.7 
542970.743,4212188.163,-150.9 
542970.743,4212138.119,-154.3 
542970.743,4212088.075,-166.5 
542970.743,4212038.031,-180.3 
542970.743,4211987.987,-195.2 
542970.743,4211937.943,-208.4 
542970.743,4211887.899,-216 
543020.811,4213539.354,-10.9 
543020.811,4213489.310,-11.9 
543020.811,4213439.265,-13.7 
543020.811,4213389.221,-15.7 
543020.811,4213339.177,-17.4 
543020.811,4213289.133,-18.8 
543020.811,4213239.089,-20.4 
543020.811,4213189.045,-22.8 
543020.811,4213139.001,-26.5 
543020.811,4213088.957,-32.2 
543020.811,4213038.913,-40.8 
543020.811,4212988.869,-50.2 
543020.811,4212938.825,-55.6 
543020.811,4212888.780,-57.1 
543020.811,4212838.736,-56.6 
543020.811,4212788.692,-57.9 
543020.811,4212738.648,-61 
543020.811,4212688.604,-65 
543020.811,4212638.560,-69.8 
543020.811,4212588.516,-78.7 
543020.811,4212538.472,-105.2 
543020.811,4212488.428,-145.4 
543020.811,4212438.384,-168.9 
543020.811,4212388.339,-179.8 
543020.811,4212338.295,-181.9 
543020.811,4212288.251,-183.2 
543020.811,4212238.207,-185.8 
543020.811,4212188.163,-182.6 
543020.811,4212138.119,-181.6 
543020.811,4212088.075,-189.4 
543020.811,4212038.031,-196.2 
543020.811,4211987.987,-203 
543020.811,4211937.943,-213.6 
543070.879,4213689.486,-9.8 
543070.879,4213639.442,-10.7 
543070.879,4213589.398,-11.8 
543070.879,4213539.354,-12.4 
543070.879,4213489.310,-13.7 
543070.879,4213439.265,-15.9 
543070.879,4213389.221,-18.8 
543070.879,4213339.177,-21.1 
543070.879,4213289.133,-22.5 
543070.879,4213239.089,-24.6 
543070.879,4213189.045,-27.9 
543070.879,4213139.001,-32.4 
543070.879,4213088.957,-38.5 
543070.879,4213038.913,-47 
543070.879,4212988.869,-57 
543070.879,4212938.825,-63.6 
543070.879,4212888.780,-64.8 
543070.879,4212838.736,-63.5 
543070.879,4212788.692,-64.5 
543070.879,4212738.648,-67.1 
543070.879,4212688.604,-70.8 
543070.879,4212638.560,-74.4 
543070.879,4212588.516,-79.8 
543070.879,4212538.472,-99.9 
543070.879,4212488.428,-135.4 
543070.879,4212438.384,-166.5 
543070.879,4212388.339,-191 
543070.879,4212338.295,-201.7 
543070.879,4212288.251,-202.2 
543070.879,4212238.207,-203.6 
543070.879,4212188.163,-203.5 
543070.879,4212138.119,-200.8 
543070.879,4212088.075,-204.1 
543070.879,4212038.031,-208.2 
543120.947,4213789.574,-9.5 
543120.947,4213739.530,-10.2 
543120.947,4213689.486,-11.1 
543120.947,4213639.442,-12.2 
543120.947,4213589.398,-13 
543120.947,4213539.354,-13.9 
543120.947,4213489.310,-15.8 
543120.947,4213439.265,-18.9 
543120.947,4213389.221,-23.1 
543120.947,4213339.177,-26.1 
543120.947,4213289.133,-27.5 
543120.947,4213239.089,-30.1 
543120.947,4213189.045,-34 
543120.947,4213139.001,-38.7 
543120.947,4213088.957,-44.6 
543120.947,4213038.913,-52.8 
543120.947,4212988.869,-63.3 
543120.947,4212938.825,-71.5 
543120.947,4212888.780,-72.6 
543120.947,4212838.736,-70.3 
543120.947,4212788.692,-71.5 
543120.947,4212738.648,-75.9 
543120.947,4212688.604,-82.5 
543120.947,4212638.560,-85.4 
543120.947,4212588.516,-88.1 
543120.947,4212538.472,-102.2 
543120.947,4212488.428,-126.7 
543120.947,4212438.384,-155.3 
543120.947,4212388.339,-184.9 
543120.947,4212338.295,-204.4 
543171.015,4213889.662,-8.2 
543171.015,4213839.618,-9.2 
543171.015,4213789.574,-10.7 
543171.015,4213739.530,-11.9 
543171.015,4213689.486,-12.8 
543171.015,4213639.442,-13.6 
543171.015,4213589.398,-14.4 
543171.015,4213539.354,-15.9 
543171.015,4213489.310,-18.9 
543171.015,4213439.265,-23.6 
543171.015,4213389.221,-28.9 
543171.015,4213339.177,-32.4 
543171.015,4213289.133,-33.9 
543171.015,4213239.089,-36.7 
543171.015,4213189.045,-40.7 
543171.015,4213139.001,-45.1 
543171.015,4213088.957,-50.6 
543171.015,4213038.913,-58.4 
543171.015,4212988.869,-69.3 
543171.015,4212938.825,-79 
543171.015,4212888.780,-81.6 
543171.015,4212838.736,-80.8 
543171.015,4212788.692,-82.8 
543171.015,4212738.648,-89.4 
543171.015,4212688.604,-99.7 
543171.015,4212638.560,-103.4 
543171.015,4212588.516,-104.5 
543171.015,4212538.472,-113.8 
543171.015,4212488.428,-130.8 
543171.015,4212438.384,-152.8 
543171.015,4212388.339,-175.2 
543171.015,4212338.295,-195.3 
543171.015,4212288.251,-207.9 
543221.083,4213939.706,-8.7 
543221.083,4213889.662,-9.6 
543221.083,4213839.618,-11.1 
543221.083,4213789.574,-12.7 
543221.083,4213739.530,-13.8 
543221.083,4213689.486,-14.3 
543221.083,4213639.442,-14.9 
543221.083,4213589.398,-16.1 
543221.083,4213539.354,-19 
543221.083,4213489.310,-24.1 
543221.083,4213439.265,-30.2 
543221.083,4213389.221,-35.9 
543221.083,4213339.177,-39.7 
543221.083,4213289.133,-41.4 
543221.083,4213239.089,-43.9 
543221.083,4213189.045,-47.7 
543221.083,4213139.001,-51.5 
543221.083,4213088.957,-56.2 
543221.083,4213038.913,-63.2 
543221.083,4212988.869,-73.9 
543221.083,4212938.825,-85.6 
543221.083,4212888.780,-92.8 
543221.083,4212838.736,-96.8 
543221.083,4212788.692,-101.2 
543221.083,4212738.648,-107.3 
543221.083,4212688.604,-116.8 
543221.083,4212638.560,-122.3 
543221.083,4212588.516,-123.5 
543221.083,4212538.472,-128.6 
543221.083,4212488.428,-141.5 
543221.083,4212438.384,-159.6 
543221.083,4212388.339,-175.2 
543221.083,4212338.295,-190 
543221.083,4212288.251,-204.3 
543271.151,4213989.750,-9.4 
543271.151,4213939.706,-10.1 
543271.151,4213889.662,-11.4 
543271.151,4213839.618,-13.1 
543271.151,4213789.574,-14.6 
543271.151,4213739.530,-15.4 
543271.151,4213689.486,-15.9 
543271.151,4213639.442,-16.7 
543271.151,4213589.398,-19.3 
543271.151,4213539.354,-24.8 
543271.151,4213489.310,-32 
543271.151,4213439.265,-38.7 
543271.151,4213389.221,-43.9 
543271.151,4213339.177,-47.3 
543271.151,4213289.133,-49.5 
543271.151,4213239.089,-51.7 
543271.151,4213189.045,-54.8 
543271.151,4213139.001,-57.7 
543271.151,4213088.957,-60.8 
543271.151,4213038.913,-66.4 
543271.151,4212988.869,-75.6 
543271.151,4212938.825,-87.8 
543271.151,4212888.780,-101.2 
543271.151,4212838.736,-112.4 
543271.151,4212788.692,-119.8 
543271.151,4212738.648,-126.5 
543271.151,4212688.604,-134.4 
543271.151,4212638.560,-140.1 
543271.151,4212588.516,-141.8 
543271.151,4212538.472,-145.2 
543271.151,4212488.428,-155.6 
543271.151,4212438.384,-171.4 
543271.151,4212388.339,-184.7 
543271.151,4212338.295,-193.3 
543271.151,4212288.251,-203.8 
543271.151,4212238.207,-216.2 
543321.219,4214089.839,-9.8 
543321.219,4214039.795,-10.4 
543321.219,4213989.750,-11 
543321.219,4213939.706,-12.1 
543321.219,4213889.662,-13.5 
543321.219,4213839.618,-15 
543321.219,4213789.574,-16.2 
543321.219,4213739.530,-17 
543321.219,4213689.486,-17.8 
543321.219,4213639.442,-19.7 
543321.219,4213589.398,-25 
543321.219,4213539.354,-33.4 
543321.219,4213489.310,-41.7 
543321.219,4213439.265,-48.4 
543321.219,4213389.221,-52.8 
543321.219,4213339.177,-55.3 
543321.219,4213289.133,-57.4 
543321.219,4213239.089,-59.7 
543321.219,4213189.045,-62.3 
543321.219,4213139.001,-63.8 
543321.219,4213088.957,-65.5 
543321.219,4213038.913,-69.4 
543321.219,4212988.869,-76.4 
543321.219,4212938.825,-87.7 
543321.219,4212888.780,-105 
543321.219,4212838.736,-121.5 
543321.219,4212788.692,-131.2 
543321.219,4212738.648,-139.8 
543321.219,4212688.604,-148.9 
543321.219,4212638.560,-155.8 
543321.219,4212588.516,-160 
543321.219,4212538.472,-163.8 
543321.219,4212488.428,-171.5 
543321.219,4212438.384,-186.3 
543321.219,4212388.339,-196.6 
543321.219,4212338.295,-199.9 
543371.287,4214239.971,-8.7 
543371.287,4214189.927,-9.2 
543371.287,4214139.883,-10.6 
543371.287,4214089.839,-11.7 
543371.287,4214039.795,-12.6 
543371.287,4213989.750,-13.2 
543371.287,4213939.706,-14 
543371.287,4213889.662,-15.3 
543371.287,4213839.618,-16.6 
543371.287,4213789.574,-17.5 
543371.287,4213739.530,-18.6 
543371.287,4213689.486,-20.3 
543371.287,4213639.442,-24.4 
543371.287,4213589.398,-32.9 
543371.287,4213539.354,-43.4 
543371.287,4213489.310,-52.8 
543371.287,4213439.265,-60.2 
543371.287,4213389.221,-62.9 
543371.287,4213339.177,-63.6 
543371.287,4213289.133,-64.9 
543371.287,4213239.089,-68.2 
543371.287,4213189.045,-71.1 
543371.287,4213139.001,-70.9 
543371.287,4213088.957,-70.7 
543371.287,4213038.913,-74.2 
543371.287,4212988.869,-82.1 
543371.287,4212938.825,-95 
543371.287,4212888.780,-111.1 
543371.287,4212838.736,-125.8 
543371.287,4212788.692,-136.2 
543371.287,4212738.648,-145.2 
543371.287,4212688.604,-155.6 
543371.287,4212638.560,-165.2 
543371.287,4212588.516,-173.6 
543371.287,4212538.472,-179 
543371.287,4212488.428,-182.2 
543371.287,4212438.384,-194.5 
543371.287,4212388.339,-208.7 
543421.355,4214390.103,-8.6 
543421.355,4214340.059,-9.2 
543421.355,4214290.015,-10.1 
543421.355,4214239.971,-10.7 
543421.355,4214189.927,-11.8 
543421.355,4214139.883,-13.5 
543421.355,4214089.839,-14.8 
543421.355,4214039.795,-15.3 
543421.355,4213989.750,-15.3 
543421.355,4213939.706,-15.6 
543421.355,4213889.662,-16.6 
543421.355,4213839.618,-17.9 
543421.355,4213789.574,-19.2 
543421.355,4213739.530,-20.9 
543421.355,4213689.486,-24 
543421.355,4213639.442,-30.7 
543421.355,4213589.398,-41.5 
543421.355,4213539.354,-53.3 
543421.355,4213489.310,-65 
543421.355,4213439.265,-74.8 
543421.355,4213389.221,-76.7 
543421.355,4213339.177,-72.9 
543421.355,4213289.133,-72.9 
543421.355,4213239.089,-78.9 
543421.355,4213189.045,-84.1 
543421.355,4213139.001,-81.7 
543421.355,4213088.957,-77.3 
543421.355,4213038.913,-80.4 
543421.355,4212988.869,-92.5 
543421.355,4212938.825,-108.7 
543421.355,4212888.780,-122.5 
543421.355,4212838.736,-132.2 
543421.355,4212788.692,-140.2 
543421.355,4212738.648,-147.8 
543421.355,4212688.604,-157 
543421.355,4212638.560,-167 
543421.355,4212588.516,-178.4 
543421.355,4212538.472,-187.1 
543421.355,4212488.428,-188.2 
543471.423,4214540.235,-8.1 
543471.423,4214490.191,-8.5 
543471.423,4214440.147,-9.3 
543471.423,4214390.103,-10 
543471.423,4214340.059,-10.9 
543471.423,4214290.015,-12.2 
543471.423,4214239.971,-13.6 
543471.423,4214189.927,-15.3 
543471.423,4214139.883,-17 
543471.423,4214089.839,-18.2 
543471.423,4214039.795,-18.4 
543471.423,4213989.750,-17.6 
543471.423,4213939.706,-17.3 
543471.423,4213889.662,-18.1 
543471.423,4213839.618,-19.7 
543471.423,4213789.574,-21.7 
543471.423,4213739.530,-24.2 
543471.423,4213689.486,-29 
543471.423,4213639.442,-37.9 
543471.423,4213589.398,-50.1 
543471.423,4213539.354,-63.1 
543471.423,4213489.310,-77.7 
543471.423,4213439.265,-91.3 
