484101.396,4372203.771,-573.966
484101.396,4372103.771,-529.944
484101.396,4372003.771,-483.115
484101.396,4371903.771,-433.758
484101.396,4371803.771,-379.335
484101.396,4371703.771,-321.868
484101.396,4371603.771,-268.246
484101.396,4371503.771,-211.736
484101.396,4371403.771,-164.177
484101.396,4371303.771,-150.532
484101.396,4371203.771,-147.611
484101.396,4371103.771,-141.380
484101.396,4371003.771,-134.471
484101.396,4370903.771,-125.767
484101.396,4370803.771,-118.205
484101.396,4370703.771,-114.456
484101.396,4370603.771,-108.180
484101.396,4370503.771,-104.626
484101.396,4370403.771,-103.479
484101.396,4370303.771,-102.733
484101.396,4370203.771,-104.637
484101.396,4370103.771,-107.896
484101.396,4370003.771,-108.626
484101.396,4369903.771,-114.724
484101.396,4369803.771,-128.536
484101.396,4369703.771,-153.744
484101.396,4369603.771,-206.151
484101.396,4369503.771,-270.785
484101.396,4369403.771,-325.252
484101.396,4369303.771,-375.788
484101.396,4369203.771,-421.594
484101.396,4369103.771,-463.726
484101.396,4369003.771,-512.534
484101.396,4368903.771,-561.453
484101.396,4368803.771,-612.172
484101.396,4368703.771,-660.807
484201.396,4372403.771,-650.522
484201.396,4372303.771,-607.070
484201.396,4372203.771,-562.208
484201.396,4372103.771,-518.428
484201.396,4372003.771,-471.689
484201.396,4371903.771,-424.917
484201.396,4371803.771,-371.090
484201.396,4371703.771,-309.317
484201.396,4371603.771,-246.460
484201.396,4371503.771,-187.592
484201.396,4371403.771,-154.443
484201.396,4371303.771,-146.201
484201.396,4371203.771,-139.331
484201.396,4371103.771,-134.333
484201.396,4371003.771,-125.566
484201.396,4370903.771,-115.023
484201.396,4370803.771,-106.907
484201.396,4370703.771,-108.111
484201.396,4370603.771,-104.931
484201.396,4370503.771,-101.425
484201.396,4370403.771,-100.799
484201.396,4370203.771,-101.334
484201.396,4370103.771,-102.043
484201.396,4370003.771,-102.880
484201.396,4369903.771,-109.518
484201.396,4369803.771,-122.236
484201.396,4369703.771,-144.206
484201.396,4369603.771,-183.621
484201.396,4369503.771,-249.730
484201.396,4369403.771,-302.421
484201.396,4369303.771,-348.505
484201.396,4369203.771,-385.425
484201.396,4369103.771,-440.418
484201.396,4369003.771,-497.020
484201.396,4368903.771,-550.623
484201.396,4368803.771,-601.411
484201.396,4368703.771,-644.663
484301.396,4372403.771,-646.939
484301.396,4372303.771,-602.031
484301.396,4372203.771,-555.403
484301.396,4372103.771,-508.747
484301.396,4372003.771,-462.521
484301.396,4371903.771,-412.847
484301.396,4371803.771,-354.707
484301.396,4371703.771,-296.563
484301.396,4371603.771,-237.938
484301.396,4371503.771,-186.560
484301.396,4371403.771,-149.308
484301.396,4371303.771,-138.107
484301.396,4371203.771,-132.470
484301.396,4371103.771,-128.524
484301.396,4371003.771,-121.577
484301.396,4370903.771,-113.182
484301.396,4370803.771,-102.384
484301.396,4370703.771,-100.825
484301.396,4370603.771,-101.518
484301.396,4370503.771,-100.500
484301.396,4370003.771,-100.575
484301.396,4369903.771,-104.905
484301.396,4369803.771,-112.981
484301.396,4369703.771,-132.985
484301.396,4369603.771,-166.343
484301.396,4369503.771,-224.204
484301.396,4369403.771,-283.773
484301.396,4369303.771,-341.582
484301.396,4369203.771,-394.722
484301.396,4369103.771,-453.148
484301.396,4369003.771,-504.055
484301.396,4368903.771,-554.399
484301.396,4368803.771,-596.788
484301.396,4368703.771,-634.442
484401.396,4372403.771,-649.333
484401.396,4372303.771,-606.560
484401.396,4372203.771,-561.234
484401.396,4372103.771,-509.665
484401.396,4372003.771,-455.771
484401.396,4371903.771,-400.433
484401.396,4371803.771,-340.117
484401.396,4371703.771,-277.368
484401.396,4371603.771,-216.944
484401.396,4371503.771,-170.427
484401.396,4371403.771,-142.348
484401.396,4371303.771,-134.240
484401.396,4371203.771,-127.308
484401.396,4371103.771,-123.237
484401.396,4371003.771,-117.836
484401.396,4370903.771,-113.228
484401.396,4370803.771,-105.930
484401.396,4370703.771,-100.724
484401.396,4369903.771,-102.564
484401.396,4369803.771,-107.433
484401.396,4369703.771,-124.229
484401.396,4369603.771,-151.722
484401.396,4369503.771,-206.696
484401.396,4369403.771,-270.246
484401.396,4369303.771,-334.650
484401.396,4369203.771,-393.859
484401.396,4369103.771,-448.517
484401.396,4369003.771,-495.332
484401.396,4368903.771,-539.594
484401.396,4368803.771,-581.172
484401.396,4368703.771,-624.657
484401.396,4368603.771,-666.831
484501.396,4372403.771,-644.623
484501.396,4372303.771,-603.864
484501.396,4372203.771,-557.830
484501.396,4372103.771,-507.678
484501.396,4372003.771,-448.989
484501.396,4371903.771,-393.352
484501.396,4371803.771,-330.930
484501.396,4371703.771,-266.787
484501.396,4371603.771,-203.019
484501.396,4371503.771,-156.865
484501.396,4371403.771,-139.710
484501.396,4371303.771,-129.254
484501.396,4371203.771,-123.122
484501.396,4371103.771,-117.217
484501.396,4371003.771,-110.332
484501.396,4370903.771,-110.520
484501.396,4370803.771,-110.566
484501.396,4370703.771,-101.713
484501.396,4369803.771,-104.352
484501.396,4369703.771,-116.144
484501.396,4369603.771,-140.016
484501.396,4369503.771,-187.002
484501.396,4369403.771,-255.159
484501.396,4369303.771,-325.031
484501.396,4369203.771,-378.633
484501.396,4369103.771,-412.953
484501.396,4369003.771,-455.690
484501.396,4368903.771,-508.772
484501.396,4368803.771,-566.167
484501.396,4368703.771,-615.830
484501.396,4368603.771,-663.498
484601.396,4372403.771,-639.971
484601.396,4372303.771,-599.339
484601.396,4372203.771,-554.565
484601.396,4372103.771,-510.820
484601.396,4372003.771,-460.145
484601.396,4371903.771,-409.434
484601.396,4371803.771,-351.195
484601.396,4371703.771,-289.707
484601.396,4371603.771,-225.903
484601.396,4371503.771,-171.529
484601.396,4371403.771,-137.618
484601.396,4371303.771,-125.279
484601.396,4371203.771,-117.762
484601.396,4371103.771,-113.593
484601.396,4371003.771,-109.334
484601.396,4370903.771,-110.676
484601.396,4370803.771,-110.516
484601.396,4370703.771,-100.946
484601.396,4369803.771,-101.358
484601.396,4369703.771,-109.968
484601.396,4369603.771,-129.978
484601.396,4369503.771,-165.860
484601.396,4369403.771,-229.202
484601.396,4369303.771,-286.980
484601.396,4369203.771,-321.614
484601.396,4369103.771,-376.834
484601.396,4369003.771,-438.718
484601.396,4368903.771,-500.827
484601.396,4368803.771,-557.490
484601.396,4368703.771,-609.783
484601.396,4368603.771,-656.693
484701.396,4372403.771,-638.004
484701.396,4372303.771,-595.345
484701.396,4372203.771,-551.802
484701.396,4372103.771,-507.896
484701.396,4372003.771,-458.472
484701.396,4371903.771,-408.206
484701.396,4371803.771,-355.417
484701.396,4371703.771,-290.674
484701.396,4371603.771,-226.324
484701.396,4371503.771,-175.674
484701.396,4371403.771,-136.824
484701.396,4371303.771,-116.522
484701.396,4371203.771,-111.178
484701.396,4371103.771,-109.678
484701.396,4371003.771,-107.063
484701.396,4370903.771,-104.393
484701.396,4370803.771,-104.502
484701.396,4369703.771,-105.819
484701.396,4369603.771,-122.567
484701.396,4369503.771,-147.538
484701.396,4369403.771,-186.309
484701.396,4369303.771,-242.319
484701.396,4369203.771,-306.043
484701.396,4369103.771,-372.293
484701.396,4369003.771,-440.939
484701.396,4368903.771,-504.110
484701.396,4368803.771,-557.779
484701.396,4368703.771,-605.645
484701.396,4368603.771,-652.155
484801.396,4372403.771,-640.663
484801.396,4372303.771,-595.284
484801.396,4372203.771,-548.804
484801.396,4372103.771,-499.053
484801.396,4372003.771,-444.861
484801.396,4371903.771,-383.263
484801.396,4371803.771,-317.075
484801.396,4371703.771,-247.421
484801.396,4371603.771,-188.213
484801.396,4371503.771,-146.272
484801.396,4371403.771,-128.564
484801.396,4371303.771,-112.697
484801.396,4371203.771,-105.846
484801.396,4371103.771,-104.078
484801.396,4371003.771,-102.891
484801.396,4370903.771,-101.121
484801.396,4370803.771,-100.900
484801.396,4369703.771,-104.219
484801.396,4369603.771,-120.707
484801.396,4369503.771,-144.552
484801.396,4369403.771,-181.585
484801.396,4369303.771,-243.720
484801.396,4369203.771,-302.869
484801.396,4369103.771,-360.556
484801.396,4369003.771,-425.870
484801.396,4368903.771,-483.437
484801.396,4368803.771,-546.112
484801.396,4368703.771,-604.603
484801.396,4368603.771,-648.417
484901.396,4372403.771,-642.697
484901.396,4372303.771,-604.307
484901.396,4372203.771,-559.968
484901.396,4372103.771,-505.469
484901.396,4372003.771,-444.394
484901.396,4371903.771,-378.334
484901.396,4371803.771,-310.692
484901.396,4371703.771,-250.694
484901.396,4371603.771,-192.002
484901.396,4371503.771,-157.311
484901.396,4371403.771,-128.405
484901.396,4371303.771,-115.710
484901.396,4371203.771,-104.324
484901.396,4371103.771,-102.335
484901.396,4371003.771,-100.200
484901.396,4369703.771,-106.415
484901.396,4369603.771,-123.459
484901.396,4369503.771,-148.638
484901.396,4369403.771,-203.915
484901.396,4369303.771,-271.763
484901.396,4369203.771,-331.449
484901.396,4369103.771,-381.912
484901.396,4369003.771,-424.006
484901.396,4368903.771,-476.115
484901.396,4368803.771,-534.392
484901.396,4368703.771,-594.499
484901.396,4368603.771,-648.852
485001.396,4372403.771,-660.444
485001.396,4372303.771,-611.345
485001.396,4372203.771,-560.701
485001.396,4372103.771,-509.373
485001.396,4372003.771,-454.282
485001.396,4371903.771,-398.211
485001.396,4371803.771,-346.748
485001.396,4371703.771,-292.189
485001.396,4371603.771,-225.551
485001.396,4371503.771,-173.274
485001.396,4371403.771,-133.178
485001.396,4371303.771,-118.342
485001.396,4371203.771,-109.746
485001.396,4371103.771,-102.511
485001.396,4369703.771,-113.614
485001.396,4369603.771,-136.724
485001.396,4369503.771,-162.472
485001.396,4369403.771,-203.639
485001.396,4369303.771,-275.751
485001.396,4369203.771,-342.155
485001.396,4369103.771,-407.313
485001.396,4369003.771,-457.977
485001.396,4368903.771,-507.109
485001.396,4368803.771,-554.331
485001.396,4368703.771,-600.342
485001.396,4368603.771,-643.182
485101.396,4372403.771,-660.540
485101.396,4372303.771,-614.563
485101.396,4372203.771,-565.723
485101.396,4372103.771,-519.387
485101.396,4372003.771,-473.920
485101.396,4371903.771,-425.981
485101.396,4371803.771,-366.492
485101.396,4371703.771,-307.064
485101.396,4371603.771,-252.867
485101.396,4371503.771,-203.896
485101.396,4371403.771,-156.003
485101.396,4371303.771,-120.378
485101.396,4371203.771,-111.009
485101.396,4371103.771,-104.533
485101.396,4369703.771,-130.173
485101.396,4369603.771,-164.571
485101.396,4369503.771,-209.572
485101.396,4369403.771,-242.168
485101.396,4369303.771,-279.515
485101.396,4369203.771,-335.459
485101.396,4369103.771,-384.348
485101.396,4369003.771,-439.540
485101.396,4368903.771,-498.499
485101.396,4368803.771,-553.293
485101.396,4368703.771,-606.876
485101.396,4368603.771,-653.044
485201.396,4372403.771,-659.187
485201.396,4372303.771,-612.946
485201.396,4372203.771,-573.031
485201.396,4372103.771,-530.321
485201.396,4372003.771,-482.832
485201.396,4371903.771,-434.861
485201.396,4371803.771,-390.748
485201.396,4371703.771,-341.870
485201.396,4371603.771,-289.733
485201.396,4371503.771,-233.747
485201.396,4371403.771,-164.899
485201.396,4371303.771,-123.758
485201.396,4371203.771,-109.705
485201.396,4371103.771,-103.778
485201.396,4369803.771,-122.311
485201.396,4369703.771,-153.120
485201.396,4369603.771,-180.883
485201.396,4369503.771,-223.263
485201.396,4369403.771,-278.723
485201.396,4369303.771,-322.974
485201.396,4369203.771,-364.923
485201.396,4369103.771,-399.382
485201.396,4369003.771,-434.220
485201.396,4368903.771,-494.708
485201.396,4368803.771,-553.746
485201.396,4368703.771,-606.391
485201.396,4368603.771,-656.613
485301.396,4372303.771,-636.933
485301.396,4372203.771,-592.531
485301.396,4372103.771,-553.006
485301.396,4372003.771,-510.754
485301.396,4371903.771,-470.776
485301.396,4371803.771,-424.591
485301.396,4371703.771,-365.100
485301.396,4371603.771,-307.891
485301.396,4371503.771,-245.607
485301.396,4371403.771,-174.132
485301.396,4371303.771,-127.680
485301.396,4371203.771,-112.822
485301.396,4371103.771,-103.943
485301.396,4369903.771,-108.579
485301.396,4369803.771,-148.905
485301.396,4369703.771,-200.427
485301.396,4369603.771,-246.160
485301.396,4369503.771,-266.020
485301.396,4369403.771,-310.200
485301.396,4369303.771,-371.174
485301.396,4369203.771,-428.934
485301.396,4369103.771,-461.359
485301.396,4369003.771,-482.106
485301.396,4368903.771,-526.274
485301.396,4368803.771,-572.779
485301.396,4368703.771,-617.614
485301.396,4368603.771,-657.189
485401.396,4372303.771,-655.240
485401.396,4372203.771,-617.596
485401.396,4372103.771,-580.529
485401.396,4372003.771,-534.794
485401.396,4371903.771,-483.826
485401.396,4371803.771,-431.187
485401.396,4371703.771,-360.371
485401.396,4371603.771,-281.160
485401.396,4371503.771,-219.331
485401.396,4371403.771,-161.544
485401.396,4371303.771,-127.801
485401.396,4371203.771,-113.444
485401.396,4371103.771,-104.628
485401.396,4370003.771,-120.974
485401.396,4369903.771,-152.221
485401.396,4369803.771,-187.347
485401.396,4369703.771,-217.113
485401.396,4369603.771,-294.065
485401.396,4369503.771,-332.810
485401.396,4369403.771,-358.207
485401.396,4369303.771,-385.129
485401.396,4369203.771,-433.407
485401.396,4369103.771,-493.314
485401.396,4369003.771,-536.920
485401.396,4368903.771,-570.478
485401.396,4368803.771,-601.491
485401.396,4368703.771,-634.402
485401.396,4368603.771,-662.174
485501.396,4372303.771,-665.641
485501.396,4372203.771,-620.376
485501.396,4372103.771,-574.816
485501.396,4372003.771,-522.515
485501.396,4371903.771,-473.140
485501.396,4371803.771,-411.588
485501.396,4371703.771,-345.717
485501.396,4371603.771,-288.850
485501.396,4371503.771,-225.179
485501.396,4371403.771,-178.960
485501.396,4371303.771,-137.914
485501.396,4371203.771,-117.130
485501.396,4371103.771,-107.087
485501.396,4371003.771,-100.248
485501.396,4370103.771,-120.213
485501.396,4370003.771,-152.062
485501.396,4369903.771,-211.971
485501.396,4369803.771,-255.015
485501.396,4369703.771,-266.679
485501.396,4369603.771,-288.658
485501.396,4369503.771,-337.384
485501.396,4369403.771,-381.189
485501.396,4369303.771,-423.008
485501.396,4369203.771,-461.491
485501.396,4369103.771,-504.599
485501.396,4369003.771,-552.853
485501.396,4368903.771,-592.632
485501.396,4368803.771,-625.602
485501.396,4368703.771,-660.700
485601.396,4372303.771,-660.625
485601.396,4372203.771,-622.901
485601.396,4372103.771,-586.583
485601.396,4372003.771,-534.077
485601.396,4371903.771,-486.380
485601.396,4371803.771,-426.736
485601.396,4371703.771,-374.747
485601.396,4371603.771,-312.758
485601.396,4371503.771,-265.493
485601.396,4371403.771,-217.005
485601.396,4371303.771,-165.674
485601.396,4371203.771,-134.349
485601.396,4371103.771,-111.238
485601.396,4371003.771,-100.981
485601.396,4370203.771,-110.919
485601.396,4370103.771,-144.084
485601.396,4370003.771,-176.166
485601.396,4369903.771,-242.102
485601.396,4369803.771,-300.244
485601.396,4369703.771,-326.733
485601.396,4369603.771,-319.761
485601.396,4369503.771,-349.811
485601.396,4369403.771,-407.637
485601.396,4369303.771,-463.894
485601.396,4369203.771,-501.078
485601.396,4369103.771,-525.394
485601.396,4369003.771,-562.044
485601.396,4368903.771,-605.715
485601.396,4368803.771,-643.202
485701.396,4372203.771,-647.078
485701.396,4372103.771,-599.954
485701.396,4372003.771,-548.710
485701.396,4371903.771,-498.357
485701.396,4371803.771,-435.250
485701.396,4371703.771,-379.002
485701.396,4371603.771,-347.867
485701.396,4371503.771,-304.840
485701.396,4371403.771,-233.970
485701.396,4371303.771,-191.389
485701.396,4371203.771,-168.126
485701.396,4371103.771,-128.803
485701.396,4371003.771,-106.835
485701.396,4370203.771,-121.301
485701.396,4370103.771,-162.508
485701.396,4370003.771,-198.622
485701.396,4369903.771,-234.307
485701.396,4369803.771,-291.088
485701.396,4369703.771,-356.255
485701.396,4369603.771,-390.236
485701.396,4369503.771,-408.131
485701.396,4369403.771,-429.575
485701.396,4369303.771,-473.863
485701.396,4369203.771,-522.204
485701.396,4369103.771,-561.767
485701.396,4369003.771,-592.799
485701.396,4368903.771,-621.403
485701.396,4368803.771,-661.521
485801.396,4372203.771,-650.928
485801.396,4372103.771,-602.126
485801.396,4372003.771,-545.896
485801.396,4371903.771,-490.216
485801.396,4371803.771,-437.035
485801.396,4371703.771,-417.754
485801.396,4371603.771,-384.047
485801.396,4371503.771,-336.621
485801.396,4371403.771,-298.919
485801.396,4371303.771,-243.722
485801.396,4371203.771,-198.863
485801.396,4371103.771,-157.075
485801.396,4371003.771,-137.520
485801.396,4370903.771,-118.927
485801.396,4370803.771,-105.104
485801.396,4370503.771,-101.205
485801.396,4370403.771,-106.942
485801.396,4370303.771,-118.931
485801.396,4370203.771,-143.508
485801.396,4370103.771,-175.020
485801.396,4370003.771,-209.913
485801.396,4369903.771,-258.388
485801.396,4369803.771,-297.547
485801.396,4369703.771,-339.206
485801.396,4369603.771,-392.599
485801.396,4369503.771,-439.089
485801.396,4369403.771,-472.079
485801.396,4369303.771,-494.503
485801.396,4369203.771,-532.537
485801.396,4369103.771,-578.957
485801.396,4369003.771,-615.352
485801.396,4368903.771,-645.943
485901.396,4372203.771,-648.006
485901.396,4372103.771,-596.581
485901.396,4372003.771,-546.108
485901.396,4371903.771,-507.739
485901.396,4371803.771,-475.750
485901.396,4371703.771,-453.064
485901.396,4371603.771,-421.019
485901.396,4371503.771,-380.281
485901.396,4371403.771,-345.112
485901.396,4371303.771,-276.779
485901.396,4371203.771,-208.391
485901.396,4371103.771,-175.904
485901.396,4371003.771,-148.825
485901.396,4370903.771,-138.458
485901.396,4370803.771,-130.712
485901.396,4370703.771,-128.865
485901.396,4370603.771,-117.291
485901.396,4370503.771,-116.532
485901.396,4370403.771,-122.474
485901.396,4370303.771,-139.142
485901.396,4370203.771,-156.031
485901.396,4370103.771,-186.752
485901.396,4370003.771,-241.016
485901.396,4369903.771,-297.144
485901.396,4369803.771,-355.796
485901.396,4369703.771,-394.922
485901.396,4369603.771,-410.515
485901.396,4369503.771,-443.714
485901.396,4369403.771,-490.360
485901.396,4369303.771,-522.958
485901.396,4369203.771,-554.753
485901.396,4369103.771,-593.469
485901.396,4369003.771,-630.873
485901.396,4368903.771,-662.683
486001.396,4372203.771,-647.367
486001.396,4372103.771,-607.295
486001.396,4372003.771,-566.902
486001.396,4371903.771,-536.275
486001.396,4371803.771,-510.642
486001.396,4371703.771,-489.955
486001.396,4371603.771,-459.826
486001.396,4371503.771,-422.168
486001.396,4371403.771,-359.752
486001.396,4371303.771,-284.532
486001.396,4371203.771,-253.990
486001.396,4371103.771,-207.720
486001.396,4371003.771,-178.390
486001.396,4370903.771,-173.318
486001.396,4370803.771,-164.168
486001.396,4370703.771,-147.594
486001.396,4370603.771,-135.118
486001.396,4370503.771,-135.678
486001.396,4370403.771,-139.083
486001.396,4370303.771,-151.706
486001.396,4370203.771,-172.447
486001.396,4370103.771,-212.374
486001.396,4370003.771,-265.940
486001.396,4369903.771,-324.662
486001.396,4369803.771,-381.793
486001.396,4369703.771,-428.889
486001.396,4369603.771,-465.504
486001.396,4369503.771,-480.081
486001.396,4369403.771,-507.958
486001.396,4369303.771,-546.399
486001.396,4369203.771,-574.139
486001.396,4369103.771,-607.194
486001.396,4369003.771,-642.545
486101.396,4372203.771,-661.060
486101.396,4372103.771,-625.088
486101.396,4372003.771,-591.030
486101.396,4371903.771,-568.124
486101.396,4371803.771,-545.716
486101.396,4371703.771,-521.729
486101.396,4371603.771,-487.516
486101.396,4371503.771,-430.627
486101.396,4371403.771,-368.423
486101.396,4371303.771,-334.929
486101.396,4371203.771,-321.074
486101.396,4371103.771,-272.180
486101.396,4371003.771,-243.242
486101.396,4370903.771,-235.780
486101.396,4370803.771,-206.172
486101.396,4370703.771,-169.390
486101.396,4370603.771,-145.828
486101.396,4370503.771,-145.579
486101.396,4370403.771,-148.608
486101.396,4370303.771,-162.040
486101.396,4370203.771,-193.171
486101.396,4370103.771,-239.109
486101.396,4370003.771,-293.842
486101.396,4369903.771,-341.296
486101.396,4369803.771,-390.390
486101.396,4369703.771,-445.808
486101.396,4369603.771,-492.025
486101.396,4369503.771,-524.401
486101.396,4369403.771,-546.121
486101.396,4369303.771,-568.607
486101.396,4369203.771,-598.151
486101.396,4369103.771,-628.008
486101.396,4369003.771,-656.258
486201.396,4372103.771,-648.619
486201.396,4372003.771,-619.633
486201.396,4371903.771,-593.251
486201.396,4371803.771,-568.730
486201.396,4371703.771,-546.264
486201.396,4371603.771,-505.568
486201.396,4371503.771,-451.608
486201.396,4371403.771,-415.488
486201.396,4371303.771,-395.868
486201.396,4371203.771,-364.249
486201.396,4371103.771,-321.823
486201.396,4371003.771,-303.283
486201.396,4370903.771,-279.052
486201.396,4370803.771,-231.929
486201.396,4370703.771,-191.321
486201.396,4370603.771,-167.809
486201.396,4370503.771,-160.770
486201.396,4370403.771,-164.068
486201.396,4370303.771,-175.017
486201.396,4370203.771,-196.619
486201.396,4370103.771,-237.146
486201.396,4370003.771,-313.751
486201.396,4369903.771,-375.112
486201.396,4369803.771,-409.280
486201.396,4369703.771,-446.931
486201.396,4369603.771,-493.884
486201.396,4369503.771,-543.660
486201.396,4369403.771,-579.677
486201.396,4369303.771,-606.245
486201.396,4369203.771,-632.104
486201.396,4369103.771,-657.362
486301.396,4372003.771,-647.669
486301.396,4371903.771,-622.360
486301.396,4371803.771,-597.576
486301.396,4371703.771,-570.950
486301.396,4371603.771,-533.202
486301.396,4371503.771,-487.600
486301.396,4371403.771,-460.974
486301.396,4371303.771,-434.512
486301.396,4371203.771,-404.527
486301.396,4371103.771,-366.890
486301.396,4371003.771,-340.955
486301.396,4370903.771,-309.036
486301.396,4370803.771,-257.091
486301.396,4370703.771,-219.983
486301.396,4370603.771,-197.725
486301.396,4370503.771,-181.915
486301.396,4370403.771,-181.083
486301.396,4370303.771,-186.554
486301.396,4370203.771,-201.327
486301.396,4370103.771,-246.657
486301.396,4370003.771,-309.356
486301.396,4369903.771,-366.810
486301.396,4369803.771,-421.536
486301.396,4369703.771,-469.455
486301.396,4369603.771,-502.051
486301.396,4369503.771,-543.292
486301.396,4369403.771,-581.350
486301.396,4369303.771,-618.131
486301.396,4369203.771,-654.107
486401.396,4372003.771,-668.874
486401.396,4371903.771,-643.129
486401.396,4371803.771,-620.431
486401.396,4371703.771,-588.276
486401.396,4371603.771,-553.300
486401.396,4371503.771,-522.868
486401.396,4371403.771,-493.895
486401.396,4371303.771,-465.867
486401.396,4371203.771,-435.580
486401.396,4371103.771,-398.854
486401.396,4371003.771,-374.178
486401.396,4370903.771,-343.365
486401.396,4370803.771,-305.909
486401.396,4370703.771,-280.420
486401.396,4370603.771,-251.297
486401.396,4370503.771,-209.235
486401.396,4370403.771,-199.833
486401.396,4370303.771,-199.623
486401.396,4370203.771,-212.435
486401.396,4370103.771,-248.849
486401.396,4370003.771,-315.317
486401.396,4369903.771,-366.713
486401.396,4369803.771,-410.753
486401.396,4369703.771,-457.264
486401.396,4369603.771,-511.213
486401.396,4369503.771,-558.176
486401.396,4369403.771,-600.015
486401.396,4369303.771,-629.235
486401.396,4369203.771,-662.370
486501.396,4371903.771,-663.613
486501.396,4371803.771,-635.771
486501.396,4371703.771,-601.354
486501.396,4371603.771,-571.339
486501.396,4371503.771,-541.631
486501.396,4371403.771,-516.504
486501.396,4371303.771,-489.807
486501.396,4371203.771,-458.442
486501.396,4371103.771,-427.721
486501.396,4371003.771,-402.668
486501.396,4370903.771,-373.839
486501.396,4370803.771,-347.760
486501.396,4370703.771,-336.565
486501.396,4370603.771,-300.393
486501.396,4370503.771,-260.895
486501.396,4370403.771,-221.425
486501.396,4370303.771,-210.453
486501.396,4370203.771,-244.507
486501.396,4370103.771,-282.666
486501.396,4370003.771,-326.158
486501.396,4369903.771,-367.891
486501.396,4369803.771,-410.110
486501.396,4369703.771,-456.467
486501.396,4369603.771,-505.506
486501.396,4369503.771,-550.584
486501.396,4369403.771,-593.720
486501.396,4369303.771,-625.200
486501.396,4369203.771,-658.297
486601.396,4371803.771,-653.386
486601.396,4371703.771,-620.958
486601.396,4371603.771,-589.266
486601.396,4371503.771,-560.925
486601.396,4371403.771,-538.601
486601.396,4371303.771,-509.891
486601.396,4371203.771,-483.118
486601.396,4371103.771,-456.669
486601.396,4371003.771,-429.467
486601.396,4370903.771,-410.859
486601.396,4370803.771,-394.261
486601.396,4370703.771,-377.375
486601.396,4370603.771,-339.607
486601.396,4370503.771,-298.633
486601.396,4370403.771,-248.847
486601.396,4370303.771,-244.985
486601.396,4370203.771,-276.997
486601.396,4370103.771,-318.016
486601.396,4370003.771,-364.396
486601.396,4369903.771,-398.609
486601.396,4369803.771,-433.017
486601.396,4369703.771,-471.768
486601.396,4369603.771,-514.425
486601.396,4369503.771,-551.018
486601.396,4369403.771,-571.748
486601.396,4369303.771,-583.975
486601.396,4369203.771,-629.367
486701.396,4371803.771,-666.000
486701.396,4371703.771,-639.799
486701.396,4371603.771,-611.043
486701.396,4371503.771,-587.350
486701.396,4371403.771,-561.668
486701.396,4371303.771,-536.546
486701.396,4371203.771,-508.519
486701.396,4371103.771,-484.273
486701.396,4371003.771,-463.895
486701.396,4370903.771,-453.275
486701.396,4370803.771,-437.030
486701.396,4370703.771,-403.498
486701.396,4370603.771,-342.567
486701.396,4370503.771,-298.123
486701.396,4370403.771,-259.951
486701.396,4370303.771,-258.192
486701.396,4370203.771,-282.318
486701.396,4370103.771,-329.677
486701.396,4370003.771,-375.995
486701.396,4369903.771,-415.217
486701.396,4369803.771,-446.015
486701.396,4369703.771,-477.324
486701.396,4369603.771,-501.605
486701.396,4369503.771,-517.582
486701.396,4369403.771,-539.417
486701.396,4369303.771,-576.663
486701.396,4369203.771,-624.385
486801.396,4371703.771,-658.126
486801.396,4371603.771,-630.179
486801.396,4371503.771,-607.069
486801.396,4371403.771,-583.575
486801.396,4371303.771,-561.244
486801.396,4371203.771,-539.150
486801.396,4371103.771,-520.267
486801.396,4371003.771,-504.231
486801.396,4370903.771,-487.345
486801.396,4370803.771,-453.353
486801.396,4370703.771,-399.788
486801.396,4370603.771,-321.044
486801.396,4370503.771,-273.640
486801.396,4370403.771,-252.866
486801.396,4370303.771,-252.630
486801.396,4370203.771,-273.881
486801.396,4370103.771,-315.192
486801.396,4370003.771,-364.112
486801.396,4369903.771,-403.499
486801.396,4369803.771,-422.450
486801.396,4369703.771,-431.665
486801.396,4369603.771,-445.292
486801.396,4369503.771,-465.562
486801.396,4369403.771,-506.555
486801.396,4369303.771,-552.482
486801.396,4369203.771,-606.124
486801.396,4369103.771,-648.979
486901.396,4371603.771,-652.466
486901.396,4371503.771,-630.389
486901.396,4371403.771,-607.959
486901.396,4371303.771,-587.768
486901.396,4371203.771,-568.961
486901.396,4371103.771,-553.849
486901.396,4371003.771,-534.331
486901.396,4370903.771,-499.934
486901.396,4370803.771,-440.181
486901.396,4370703.771,-380.823
486901.396,4370603.771,-314.941
486901.396,4370503.771,-268.266
486901.396,4370403.771,-244.482
486901.396,4370303.771,-238.873
486901.396,4370203.771,-250.096
486901.396,4370103.771,-298.594
486901.396,4370003.771,-347.951
486901.396,4369903.771,-365.546
486901.396,4369803.771,-365.999
486901.396,4369703.771,-368.036
486901.396,4369603.771,-398.418
486901.396,4369503.771,-443.832
486901.396,4369403.771,-494.740
486901.396,4369303.771,-539.443
486901.396,4369203.771,-578.207
486901.396,4369103.771,-625.902
486901.396,4369003.771,-666.605
487001.396,4371503.771,-653.838
487001.396,4371403.771,-633.621
487001.396,4371303.771,-616.759
487001.396,4371203.771,-597.925
487001.396,4371103.771,-579.023
487001.396,4371003.771,-547.410
487001.396,4370903.771,-500.133
487001.396,4370803.771,-438.765
487001.396,4370703.771,-381.898
487001.396,4370603.771,-318.539
487001.396,4370503.771,-261.700
487001.396,4370403.771,-236.668
487001.396,4370303.771,-235.233
487001.396,4370203.771,-247.843
487001.396,4370103.771,-290.699
487001.396,4370003.771,-306.193
487001.396,4369903.771,-300.930
487001.396,4369803.771,-288.973
487001.396,4369703.771,-318.535
487001.396,4369603.771,-366.722
487001.396,4369503.771,-413.738
487001.396,4369403.771,-460.529
487001.396,4369303.771,-498.744
487001.396,4369203.771,-548.871
487001.396,4369103.771,-589.885
487001.396,4369003.771,-628.465
487101.396,4371403.771,-656.736
487101.396,4371303.771,-639.574
487101.396,4371203.771,-619.474
487101.396,4371103.771,-592.705
487101.396,4371003.771,-545.960
487101.396,4370903.771,-493.046
487101.396,4370803.771,-436.282
487101.396,4370703.771,-367.863
487101.396,4370603.771,-318.737
487101.396,4370503.771,-279.075
487101.396,4370403.771,-251.320
487101.396,4370303.771,-264.351
487101.396,4370203.771,-267.732
487101.396,4370103.771,-261.755
487101.396,4370003.771,-255.645
487101.396,4369903.771,-253.497
487101.396,4369803.771,-261.662
487101.396,4369703.771,-293.345
487101.396,4369603.771,-331.517
487101.396,4369503.771,-385.154
487101.396,4369403.771,-444.480
487101.396,4369303.771,-501.083
487101.396,4369203.771,-548.009
487101.396,4369103.771,-592.625
487101.396,4369003.771,-636.725
487201.396,4371303.771,-657.797
487201.396,4371203.771,-634.868
487201.396,4371103.771,-595.818
487201.396,4371003.771,-550.155
487201.396,4370903.771,-499.823
487201.396,4370803.771,-449.719
487201.396,4370703.771,-398.206
487201.396,4370603.771,-349.842
487201.396,4370503.771,-303.475
487201.396,4370403.771,-298.630
487201.396,4370303.771,-306.943
487201.396,4370203.771,-294.721
487201.396,4370103.771,-257.965
487201.396,4370003.771,-243.920
487201.396,4369903.771,-249.386
487201.396,4369803.771,-263.483
487201.396,4369703.771,-302.770
487201.396,4369603.771,-355.085
487201.396,4369503.771,-400.287
487201.396,4369403.771,-448.137
487201.396,4369303.771,-502.903
487201.396,4369203.771,-549.167
487201.396,4369103.771,-592.113
487201.396,4369003.771,-634.546
487301.396,4371203.771,-639.602
487301.396,4371103.771,-599.858
487301.396,4371003.771,-557.432
487301.396,4370903.771,-513.415
487301.396,4370803.771,-462.254
487301.396,4370703.771,-406.052
487301.396,4370603.771,-357.974
487301.396,4370503.771,-343.803
487301.396,4370403.771,-344.642
487301.396,4370303.771,-340.952
487301.396,4370203.771,-313.999
487301.396,4370103.771,-266.725
487301.396,4370003.771,-263.039
487301.396,4369903.771,-284.527
487301.396,4369803.771,-294.729
487301.396,4369703.771,-320.286
487301.396,4369603.771,-370.235
487301.396,4369503.771,-423.037
487301.396,4369403.771,-469.026
487301.396,4369303.771,-510.860
487301.396,4369203.771,-545.394
487301.396,4369103.771,-583.476
487301.396,4369003.771,-628.040
487401.396,4371203.771,-646.552
487401.396,4371103.771,-609.666
487401.396,4371003.771,-564.053
487401.396,4370903.771,-513.347
487401.396,4370803.771,-460.377
487401.396,4370703.771,-412.661
487401.396,4370603.771,-395.516
487401.396,4370503.771,-393.041
487401.396,4370403.771,-387.290
487401.396,4370303.771,-370.675
487401.396,4370203.771,-332.035
487401.396,4370103.771,-290.362
487401.396,4370003.771,-293.325
487401.396,4369903.771,-321.035
487401.396,4369803.771,-342.589
487401.396,4369703.771,-362.733
487401.396,4369603.771,-401.791
487401.396,4369503.771,-444.485
487401.396,4369403.771,-491.884
487401.396,4369303.771,-536.943
487401.396,4369203.771,-577.106
487401.396,4369103.771,-608.290
487401.396,4369003.771,-646.851
487501.396,4371203.771,-655.329
487501.396,4371103.771,-614.574
487501.396,4371003.771,-570.954
487501.396,4370903.771,-530.437
487501.396,4370803.771,-485.989
487501.396,4370703.771,-446.350
487501.396,4370603.771,-436.330
487501.396,4370503.771,-431.735
487501.396,4370403.771,-422.295
487501.396,4370303.771,-391.436
487501.396,4370203.771,-344.485
487501.396,4370103.771,-319.419
487501.396,4370003.771,-337.971
487501.396,4369903.771,-356.702
487501.396,4369803.771,-383.023
487501.396,4369703.771,-407.771
487501.396,4369603.771,-438.511
487501.396,4369503.771,-477.570
487501.396,4369403.771,-516.831
487501.396,4369303.771,-555.492
487501.396,4369203.771,-593.015
487501.396,4369103.771,-632.036
487501.396,4369003.771,-664.832
487601.396,4371203.771,-664.263
487601.396,4371103.771,-633.037
487601.396,4371003.771,-596.001
487601.396,4370903.771,-555.051
487601.396,4370803.771,-514.633
487601.396,4370703.771,-485.287
487601.396,4370603.771,-475.544
487601.396,4370503.771,-464.007
487601.396,4370403.771,-446.007
487601.396,4370303.771,-403.388
487601.396,4370203.771,-354.850
487601.396,4370103.771,-360.224
487601.396,4370003.771,-379.119
487601.396,4369903.771,-397.745
487601.396,4369803.771,-418.218
487601.396,4369703.771,-446.374
487601.396,4369603.771,-475.325
487601.396,4369503.771,-508.496
487601.396,4369403.771,-546.023
487601.396,4369303.771,-581.747
487601.396,4369203.771,-613.284
487601.396,4369103.771,-643.883
487701.396,4371103.771,-646.702
487701.396,4371003.771,-610.119
487701.396,4370903.771,-573.232
487701.396,4370803.771,-540.050
487701.396,4370703.771,-519.150
487701.396,4370603.771,-505.601
487701.396,4370503.771,-490.544
487701.396,4370403.771,-464.098
487701.396,4370303.771,-420.442
487701.396,4370203.771,-401.484
487701.396,4370103.771,-407.943
487701.396,4370003.771,-425.220
487701.396,4369903.771,-440.952
487701.396,4369803.771,-458.559
487701.396,4369703.771,-482.427
487701.396,4369603.771,-509.087
487701.396,4369503.771,-537.492
487701.396,4369403.771,-570.699
487701.396,4369303.771,-603.935
487701.396,4369203.771,-630.266
487701.396,4369103.771,-659.397
487801.396,4371103.771,-653.912
487801.396,4371003.771,-620.104
487801.396,4370903.771,-588.727
487801.396,4370803.771,-564.263
487801.396,4370703.771,-548.756
487801.396,4370603.771,-531.410
487801.396,4370503.771,-511.737
487801.396,4370403.771,-485.802
487801.396,4370303.771,-459.245
487801.396,4370203.771,-454.823
487801.396,4370103.771,-461.683
487801.396,4370003.771,-471.629
487801.396,4369903.771,-485.161
487801.396,4369803.771,-500.724
487801.396,4369703.771,-516.851
487801.396,4369603.771,-540.460
487801.396,4369503.771,-565.088
487801.396,4369403.771,-594.141
487801.396,4369303.771,-622.082
487801.396,4369203.771,-649.659
487901.396,4371103.771,-660.857
487901.396,4371003.771,-631.813
487901.396,4370903.771,-610.283
487901.396,4370803.771,-590.283
487901.396,4370703.771,-571.076
487901.396,4370603.771,-552.208
487901.396,4370503.771,-534.292
487901.396,4370403.771,-515.652
487901.396,4370303.771,-502.428
487901.396,4370203.771,-505.738
487901.396,4370103.771,-509.059
487901.396,4370003.771,-513.841
487901.396,4369903.771,-525.096
487901.396,4369803.771,-540.680
487901.396,4369703.771,-556.270
487901.396,4369603.771,-574.843
487901.396,4369503.771,-595.817
487901.396,4369403.771,-617.169
487901.396,4369303.771,-642.107
487901.396,4369203.771,-664.764
488001.396,4371003.771,-650.921
488001.396,4370903.771,-631.617
488001.396,4370803.771,-610.635
488001.396,4370703.771,-591.642
488001.396,4370603.771,-573.154
488001.396,4370503.771,-553.370
488001.396,4370403.771,-541.581
488001.396,4370303.771,-537.981
488001.396,4370203.771,-542.081
488001.396,4370103.771,-550.572
488001.396,4370003.771,-554.774
488001.396,4369903.771,-560.069
488001.396,4369803.771,-576.841
488001.396,4369703.771,-593.441
488001.396,4369603.771,-608.831
488001.396,4369503.771,-628.014
488001.396,4369403.771,-644.719
488001.396,4369303.771,-662.903
488101.396,4371003.771,-663.947
488101.396,4370903.771,-643.655
488101.396,4370803.771,-624.057
488101.396,4370703.771,-605.856
488101.396,4370603.771,-583.997
488101.396,4370503.771,-567.794
488101.396,4370403.771,-558.291
488101.396,4370303.771,-557.472
488101.396,4370203.771,-567.627
488101.396,4370103.771,-582.380
488101.396,4370003.771,-589.861
488101.396,4369903.771,-593.979
488101.396,4369803.771,-609.336
488101.396,4369703.771,-624.858
488101.396,4369603.771,-640.443
488101.396,4369503.771,-655.366
488101.396,4369403.771,-668.782
488201.396,4370903.771,-654.718
488201.396,4370803.771,-636.002
488201.396,4370703.771,-614.935
488201.396,4370603.771,-590.982
488201.396,4370503.771,-576.028
488201.396,4370403.771,-572.324
488201.396,4370303.771,-576.048
488201.396,4370203.771,-589.144
488201.396,4370103.771,-611.397
488201.396,4370003.771,-620.860
488201.396,4369903.771,-624.878
488201.396,4369803.771,-637.513
488201.396,4369703.771,-653.488
488201.396,4369603.771,-666.135
488301.396,4370903.771,-660.250
488301.396,4370803.771,-641.495
488301.396,4370703.771,-623.392
488301.396,4370603.771,-601.650
488301.396,4370503.771,-579.231
488301.396,4370403.771,-585.634
488301.396,4370303.771,-601.616
488301.396,4370203.771,-611.951
488301.396,4370103.771,-637.144
488301.396,4370003.771,-650.854
488301.396,4369903.771,-653.656
488301.396,4369803.771,-664.639
488401.396,4370903.771,-663.431
488401.396,4370803.771,-646.891
488401.396,4370703.771,-629.425
488401.396,4370603.771,-603.196
488401.396,4370503.771,-589.425
488401.396,4370403.771,-609.904
488401.396,4370303.771,-631.495
488401.396,4370203.771,-643.008
488401.396,4370103.771,-659.889
488501.396,4370803.771,-651.790
488501.396,4370703.771,-626.003
488501.396,4370603.771,-606.627
488501.396,4370503.771,-606.855
488501.396,4370403.771,-630.733
488501.396,4370303.771,-654.834
488501.396,4370203.771,-666.028
488601.396,4370803.771,-650.455
488601.396,4370703.771,-622.909
488601.396,4370603.771,-608.968
488601.396,4370503.771,-617.498
488601.396,4370403.771,-638.957
488601.396,4370303.771,-666.636
488701.396,4370803.771,-645.839
488701.396,4370703.771,-626.018
488701.396,4370603.771,-620.239
488701.396,4370503.771,-627.077
488701.396,4370403.771,-644.517
488701.396,4370303.771,-668.664
488801.396,4370803.771,-662.209
488801.396,4370703.771,-645.207
488801.396,4370603.771,-637.865
488801.396,4370503.771,-640.888
488801.396,4370403.771,-648.778
488801.396,4370303.771,-667.695
488901.396,4370703.771,-659.201
488901.396,4370603.771,-649.943
488901.396,4370503.771,-651.336
488901.396,4370403.771,-664.783
489001.396,4370703.771,-656.901
489001.396,4370603.771,-652.343
489001.396,4370503.771,-661.170
489101.396,4370703.771,-663.797
490201.396,4370603.771,-660.367
490201.396,4370503.771,-653.534
490201.396,4370403.771,-665.300
490201.396,4369903.771,-648.426
490201.396,4369803.771,-641.855
490201.396,4369703.771,-653.565
490201.396,4369603.771,-666.007
490301.396,4371103.771,-664.674
490301.396,4371003.771,-658.592
490301.396,4370903.771,-659.115
490301.396,4370803.771,-664.293
490301.396,4370703.771,-659.711
490301.396,4370603.771,-639.540
490301.396,4370503.771,-624.998
490301.396,4370403.771,-632.210
490301.396,4370303.771,-639.420
490301.396,4370203.771,-638.989
490301.396,4370103.771,-642.836
490301.396,4370003.771,-626.207
490301.396,4369903.771,-611.153
490301.396,4369803.771,-620.838
490301.396,4369703.771,-639.999
490301.396,4369603.771,-659.136
490401.396,4371203.771,-656.282
490401.396,4371103.771,-633.649
490401.396,4371003.771,-626.503
490401.396,4370903.771,-630.798
490401.396,4370803.771,-638.776
490401.396,4370703.771,-637.170
490401.396,4370603.771,-624.056
490401.396,4370503.771,-608.868
490401.396,4370403.771,-599.065
490401.396,4370303.771,-594.545
490401.396,4370203.771,-591.312
490401.396,4370103.771,-590.675
490401.396,4370003.771,-581.725
490401.396,4369903.771,-585.646
490401.396,4369803.771,-607.460
490401.396,4369703.771,-633.968
490401.396,4369603.771,-658.389
490501.396,4371303.771,-667.048
490501.396,4371203.771,-637.051
490501.396,4371103.771,-617.147
490501.396,4371003.771,-609.174
490501.396,4370903.771,-609.993
490501.396,4370803.771,-615.951
490501.396,4370703.771,-618.887
490501.396,4370603.771,-614.148
490501.396,4370503.771,-605.839
490501.396,4370403.771,-591.784
490501.396,4370303.771,-579.071
490501.396,4370203.771,-571.995
490501.396,4370103.771,-567.168
490501.396,4370003.771,-562.263
490501.396,4369903.771,-562.788
490501.396,4369803.771,-581.576
490501.396,4369703.771,-609.629
490501.396,4369603.771,-647.251
490601.396,4371303.771,-654.338
490601.396,4371203.771,-626.790
490601.396,4371103.771,-610.354
490601.396,4371003.771,-603.241
490601.396,4370903.771,-600.358
490601.396,4370803.771,-603.508
490601.396,4370703.771,-614.448
490601.396,4370603.771,-625.430
490601.396,4370503.771,-626.430
490601.396,4370403.771,-618.206
490601.396,4370303.771,-601.568
490601.396,4370203.771,-584.901
490601.396,4370103.771,-568.490
490601.396,4370003.771,-558.949
490601.396,4369903.771,-557.214
490601.396,4369803.771,-572.107
490601.396,4369703.771,-605.139
490601.396,4369603.771,-644.148
490701.396,4371303.771,-655.559
490701.396,4371203.771,-624.807
490701.396,4371103.771,-610.057
490701.396,4371003.771,-602.049
490701.396,4370903.771,-598.139
490701.396,4370803.771,-600.141
490701.396,4370703.771,-615.813
490701.396,4370603.771,-638.385
490701.396,4370503.771,-656.581
490701.396,4370403.771,-655.172
490701.396,4370303.771,-640.077
490701.396,4370203.771,-609.618
490701.396,4370103.771,-580.379
490701.396,4370003.771,-570.939
490701.396,4369903.771,-567.831
490701.396,4369803.771,-578.041
490701.396,4369703.771,-606.181
490701.396,4369603.771,-637.970
490701.396,4369503.771,-663.664
490801.396,4371303.771,-662.750
490801.396,4371203.771,-629.967
490801.396,4371103.771,-610.399
490801.396,4371003.771,-601.653
490801.396,4370903.771,-595.919
490801.396,4370803.771,-593.909
490801.396,4370703.771,-598.421
490801.396,4370603.771,-618.923
490801.396,4370503.771,-656.330
490801.396,4370403.771,-667.080
490801.396,4370303.771,-661.066
490801.396,4370203.771,-641.958
490801.396,4370103.771,-613.390
490801.396,4370003.771,-591.111
490801.396,4369903.771,-575.669
490801.396,4369803.771,-573.654
490801.396,4369703.771,-589.619
490801.396,4369603.771,-622.606
490801.396,4369503.771,-651.732
490901.396,4371303.771,-661.387
490901.396,4371203.771,-625.826
490901.396,4371103.771,-607.472
490901.396,4371003.771,-596.889
490901.396,4370903.771,-590.506
490901.396,4370803.771,-585.435
490901.396,4370703.771,-582.355
490901.396,4370603.771,-602.199
490901.396,4370503.771,-650.781
490901.396,4370403.771,-666.921
490901.396,4370303.771,-665.762
490901.396,4370203.771,-659.003
490901.396,4370103.771,-637.847
490901.396,4370003.771,-601.448
490901.396,4369903.771,-577.258
490901.396,4369803.771,-566.484
490901.396,4369703.771,-570.827
490901.396,4369603.771,-598.246
490901.396,4369503.771,-630.551
490901.396,4369403.771,-659.085
491001.396,4371303.771,-651.039
491001.396,4371203.771,-618.869
491001.396,4371103.771,-599.865
491001.396,4371003.771,-587.680
491001.396,4370903.771,-579.390
491001.396,4370803.771,-570.764
491001.396,4370703.771,-574.381
491001.396,4370603.771,-601.471
491001.396,4370503.771,-641.048
491001.396,4370403.771,-661.836
491001.396,4370303.771,-663.780
491001.396,4370203.771,-661.538
491001.396,4370103.771,-646.726
491001.396,4370003.771,-609.630
491001.396,4369903.771,-575.326
491001.396,4369803.771,-563.750
491001.396,4369703.771,-560.773
491001.396,4369603.771,-574.859
491001.396,4369503.771,-605.642
491001.396,4369403.771,-632.452
491001.396,4369303.771,-650.455
491001.396,4369203.771,-646.432
491001.396,4369103.771,-654.233
491101.396,4371303.771,-652.703
491101.396,4371203.771,-616.909
491101.396,4371103.771,-593.319
491101.396,4371003.771,-579.389
491101.396,4370903.771,-567.614
491101.396,4370803.771,-559.995
491101.396,4370703.771,-559.768
491101.396,4370603.771,-588.569
491101.396,4370503.771,-628.587
491101.396,4370403.771,-651.232
491101.396,4370303.771,-659.593
491101.396,4370203.771,-658.327
491101.396,4370103.771,-646.097
491101.396,4370003.771,-611.605
491101.396,4369903.771,-578.050
491101.396,4369803.771,-562.209
491101.396,4369703.771,-551.854
491101.396,4369603.771,-556.872
491101.396,4369503.771,-578.458
491101.396,4369403.771,-599.509
491101.396,4369303.771,-607.786
491101.396,4369203.771,-615.691
491101.396,4369103.771,-645.330
491201.396,4371303.771,-659.034
491201.396,4371203.771,-618.621
491201.396,4371103.771,-586.687
491201.396,4371003.771,-570.488
491201.396,4370903.771,-558.857
491201.396,4370803.771,-550.094
491201.396,4370703.771,-548.587
491201.396,4370603.771,-568.982
491201.396,4370503.771,-587.444
491201.396,4370403.771,-619.068
491201.396,4370303.771,-639.010
491201.396,4370203.771,-641.997
491201.396,4370103.771,-629.306
491201.396,4370003.771,-595.927
491201.396,4369903.771,-568.334
491201.396,4369803.771,-549.563
491201.396,4369703.771,-541.349
491201.396,4369603.771,-547.415
491201.396,4369503.771,-570.717
491201.396,4369403.771,-593.023
491201.396,4369303.771,-612.794
491201.396,4369203.771,-635.718
491201.396,4369103.771,-663.683
491301.396,4371303.771,-664.845
491301.396,4371203.771,-627.655
491301.396,4371103.771,-588.031
491301.396,4371003.771,-567.998
491301.396,4370903.771,-556.265
491301.396,4370803.771,-546.816
491301.396,4370703.771,-542.738
491301.396,4370603.771,-544.349
491301.396,4370503.771,-554.074
491301.396,4370403.771,-573.707
491301.396,4370303.771,-595.851
491301.396,4370203.771,-597.155
491301.396,4370103.771,-588.349
491301.396,4370003.771,-564.489
491301.396,4369903.771,-544.206
491301.396,4369803.771,-534.792
491301.396,4369703.771,-539.178
491301.396,4369603.771,-549.971
491301.396,4369503.771,-572.661
491301.396,4369403.771,-603.426
491301.396,4369303.771,-634.090
491401.396,4371203.771,-637.797
491401.396,4371103.771,-601.112
491401.396,4371003.771,-572.877
491401.396,4370903.771,-556.861
491401.396,4370803.771,-546.624
491401.396,4370703.771,-540.623
491401.396,4370603.771,-540.334
491401.396,4370503.771,-543.722
491401.396,4370403.771,-551.690
491401.396,4370303.771,-556.108
491401.396,4370203.771,-554.907
491401.396,4370103.771,-550.824
491401.396,4370003.771,-542.632
491401.396,4369903.771,-533.694
491401.396,4369803.771,-534.325
491401.396,4369703.771,-535.477
491401.396,4369603.771,-550.859
491401.396,4369503.771,-583.952
491401.396,4369403.771,-619.269
491401.396,4369303.771,-656.547
491501.396,4371203.771,-648.789
491501.396,4371103.771,-621.013
491501.396,4371003.771,-585.925
491501.396,4370903.771,-559.652
491501.396,4370803.771,-547.343
491501.396,4370703.771,-541.280
491501.396,4370603.771,-537.873
491501.396,4370503.771,-538.368
491501.396,4370403.771,-539.363
491501.396,4370303.771,-539.517
491501.396,4370203.771,-539.499
491501.396,4370103.771,-530.467
491501.396,4370003.771,-523.292
491501.396,4369903.771,-518.892
491501.396,4369803.771,-518.296
491501.396,4369703.771,-528.606
491501.396,4369603.771,-563.332
