496495.790,4356009.377,-3044.631
496495.790,4355809.377,-3053.499
496495.790,4355609.377,-3055.330
496495.790,4355409.377,-3076.911
496495.790,4355209.377,-3090.347
496495.790,4355009.377,-3110.912
496495.790,4354809.377,-3110.486
496495.790,4354609.377,-3117.565
496495.790,4354409.377,-3133.582
496495.790,4354209.377,-3138.577
496495.790,4354009.377,-3139.782
496495.790,4353809.377,-3148.651
496495.790,4353609.377,-3153.838
496495.790,4353409.377,-3147.025
496495.790,4353209.377,-3160.143
496495.790,4353009.377,-3161.975
496495.790,4352809.377,-3167.475
496495.790,4352609.377,-3166.853
496495.790,4352409.377,-3179.989
496495.790,4352209.377,-3192.951
496495.790,4352009.377,-3193.261
496495.790,4351809.377,-3203.171
496495.790,4351609.377,-3198.189
496495.790,4351409.377,-3199.264
496495.790,4351209.377,-3207.777
496495.790,4351009.377,-3205.639
496495.790,4350809.377,-3207.236
496495.790,4350609.377,-3209.257
496495.790,4350409.377,-3209.518
496695.790,4386609.377,-1759.311
496695.790,4386409.377,-1753.850
496695.790,4386209.377,-1750.956
496695.790,4386009.377,-1742.726
496695.790,4385809.377,-1735.291
496695.790,4385609.377,-1728.188
496695.790,4385409.377,-1709.392
496695.790,4385209.377,-1704.284
496695.790,4385009.377,-1687.046
496695.790,4384809.377,-1673.420
496695.790,4384609.377,-1657.471
496695.790,4384409.377,-1656.726
496695.790,4384209.377,-1668.130
496695.790,4384009.377,-1667.952
496695.790,4383809.377,-1665.712
496695.790,4383609.377,-1647.908
496695.790,4383409.377,-1619.617
496695.790,4383209.377,-1602.404
496695.790,4383009.377,-1587.239
496695.790,4382809.377,-1577.568
496695.790,4382609.377,-1564.773
496695.790,4382409.377,-1561.360
496695.790,4382209.377,-1564.635
496695.790,4382009.377,-1571.534
496695.790,4381809.377,-1580.682
496695.790,4381609.377,-1581.489
496695.790,4381409.377,-1595.090
496695.790,4381209.377,-1599.217
496695.790,4381009.377,-1598.432
496695.790,4380809.377,-1596.522
496695.790,4380609.377,-1594.371
496695.790,4380409.377,-1595.427
496695.790,4380209.377,-1595.364
496695.790,4380009.377,-1593.337
496695.790,4379809.377,-1594.323
496695.790,4379609.377,-1593.923
496695.790,4379409.377,-1592.600
496695.790,4379209.377,-1592.767
496695.790,4379009.377,-1587.281
496695.790,4378809.377,-1579.584
496695.790,4378609.377,-1574.258
496695.790,4378409.377,-1575.263
496695.790,4378209.377,-1569.534
496695.790,4378009.377,-1551.190
496695.790,4377809.377,-1522.659
496695.790,4377609.377,-1498.599
496695.790,4377409.377,-1487.028
496695.790,4377209.377,-1483.589
496695.790,4377009.377,-1463.668
496695.790,4376809.377,-1424.368
496695.790,4376609.377,-1382.738
496695.790,4376409.377,-1349.755
496695.790,4376209.377,-1312.483
496695.790,4376009.377,-1303.811
496695.790,4375809.377,-1290.996
496695.790,4375609.377,-1249.845
496695.790,4375409.377,-1260.693
496695.790,4375209.377,-1259.200
496695.790,4375009.377,-1238.045
496695.790,4374809.377,-1232.837
496695.790,4374609.377,-1222.313
496695.790,4374409.377,-1215.609
496695.790,4374209.377,-1181.172
496695.790,4374009.377,-1164.445
496695.790,4373809.377,-1130.283
496695.790,4373609.377,-1097.346
496695.790,4373409.377,-1036.650
496695.790,4373209.377,-1000.072
496695.790,4373009.377,-957.584
496695.790,4372809.377,-874.260
496695.790,4372609.377,-808.839
496695.790,4372409.377,-812.207
496695.790,4372209.377,-751.206
496695.790,4372009.377,-687.557
496695.790,4371809.377,-659.501
496695.790,4371609.377,-657.096
496695.790,4371409.377,-663.489
496695.790,4371209.377,-688.828
496695.790,4371009.377,-711.935
496695.790,4370809.377,-731.598
496695.790,4370609.377,-769.839
496695.790,4370409.377,-832.639
496695.790,4370209.377,-900.911
496695.790,4370009.377,-960.874
496695.790,4369809.377,-1005.262
496695.790,4369609.377,-1047.552
496695.790,4369409.377,-1082.941
496695.790,4369209.377,-1131.863
496695.790,4369009.377,-1177.888
496695.790,4368809.377,-1239.595
496695.790,4368609.377,-1294.322
496695.790,4368409.377,-1346.869
496695.790,4368209.377,-1397.562
496695.790,4368009.377,-1453.449
496695.790,4367809.377,-1511.489
496695.790,4367609.377,-1575.491
496695.790,4367409.377,-1648.113
496695.790,4367209.377,-1705.804
496695.790,4367009.377,-1756.297
496695.790,4366809.377,-1814.272
496695.790,4366609.377,-1862.391
496695.790,4366409.377,-1904.073
496695.790,4366209.377,-1951.206
496695.790,4366009.377,-1997.160
496695.790,4365809.377,-2038.405
496695.790,4365609.377,-2086.188
496695.790,4365409.377,-2130.442
496695.790,4365209.377,-2167.167
496695.790,4365009.377,-2202.363
496695.790,4364809.377,-2227.706
496695.790,4364609.377,-2250.416
496695.790,4364409.377,-2280.461
496695.790,4364209.377,-2303.568
496695.790,4364009.377,-2337.423
496695.790,4363809.377,-2363.662
496695.790,4363609.377,-2379.323
496695.790,4363409.377,-2403.210
496695.790,4363209.377,-2415.950
496695.790,4363009.377,-2435.579
496695.790,4362809.377,-2453.287
496695.790,4362609.377,-2475.637
496695.790,4362409.377,-2482.220
496695.790,4362209.377,-2496.676
496695.790,4362009.377,-2502.562
496695.790,4361809.377,-2519.543
496695.790,4361609.377,-2531.214
496695.790,4361409.377,-2544.458
496695.790,4361209.377,-2553.205
496695.790,4361009.377,-2560.623
496695.790,4360809.377,-2582.344
496695.790,4360609.377,-2605.373
496695.790,4360409.377,-2629.925
496695.790,4360209.377,-2656.717
496695.790,4360009.377,-2674.946
496695.790,4359809.377,-2700.117
496695.790,4359609.377,-2726.253
496695.790,4359409.377,-2754.915
496695.790,4359209.377,-2771.714
496695.790,4359009.377,-2796.473
496695.790,4358809.377,-2815.043
496695.790,4358609.377,-2846.967
496695.790,4358409.377,-2867.513
496695.790,4358209.377,-2891.271
496695.790,4358009.377,-2905.377
496695.790,4357809.377,-2915.057
496695.790,4357609.377,-2926.692
496695.790,4357409.377,-2942.306
496695.790,4357209.377,-2956.745
496695.790,4357009.377,-2956.283
496695.790,4356809.377,-2977.403
496695.790,4356609.377,-2990.311
496695.790,4356409.377,-3010.502
496695.790,4356209.377,-3029.592
496695.790,4356009.377,-3036.305
496695.790,4355809.377,-3026.559
496695.790,4355609.377,-3033.798
496695.790,4355409.377,-3058.362
496695.790,4355209.377,-3076.139
496695.790,4355009.377,-3096.952
496695.790,4354809.377,-3114.344
496695.790,4354609.377,-3117.338
496695.790,4354409.377,-3132.307
496695.790,4354209.377,-3138.465
496695.790,4354009.377,-3139.274
496695.790,4353809.377,-3150.153
496695.790,4353609.377,-3157.662
496695.790,4353409.377,-3152.509
496695.790,4353209.377,-3163.049
496695.790,4353009.377,-3163.850
496695.790,4352809.377,-3169.074
496695.790,4352609.377,-3170.689
496695.790,4352409.377,-3179.875
496695.790,4352209.377,-3195.563
496695.790,4352009.377,-3195.345
496695.790,4351809.377,-3201.733
496695.790,4351609.377,-3200.948
496695.790,4351409.377,-3199.637
496695.790,4351209.377,-3206.014
496695.790,4351009.377,-3207.227
496695.790,4350809.377,-3207.634
496695.790,4350609.377,-3213.834
496695.790,4350409.377,-3209.333
496895.790,4386609.377,-1761.641
496895.790,4386409.377,-1761.819
496895.790,4386209.377,-1751.153
496895.790,4386009.377,-1726.758
496895.790,4385809.377,-1692.507
496895.790,4385609.377,-1672.250
496895.790,4385409.377,-1653.917
496895.790,4385209.377,-1640.598
496895.790,4385009.377,-1619.878
496895.790,4384809.377,-1612.149
496895.790,4384609.377,-1621.048
496895.790,4384409.377,-1634.700
496895.790,4384209.377,-1647.398
496895.790,4384009.377,-1654.088
496895.790,4383809.377,-1652.400
496895.790,4383609.377,-1644.528
496895.790,4383409.377,-1616.717
496895.790,4383209.377,-1601.009
496895.790,4383009.377,-1579.979
496895.790,4382809.377,-1564.088
496895.790,4382609.377,-1558.110
496895.790,4382409.377,-1559.433
496895.790,4382209.377,-1559.953
496895.790,4382009.377,-1558.276
496895.790,4381809.377,-1564.167
496895.790,4381609.377,-1577.353
496895.790,4381409.377,-1588.484
496895.790,4381209.377,-1593.516
496895.790,4381009.377,-1594.063
496895.790,4380809.377,-1592.833
496895.790,4380609.377,-1592.866
496895.790,4380409.377,-1594.525
496895.790,4380209.377,-1594.291
496895.790,4380009.377,-1593.960
496895.790,4379809.377,-1593.779
496895.790,4379609.377,-1594.762
496895.790,4379409.377,-1593.496
496895.790,4379209.377,-1591.505
496895.790,4379009.377,-1590.651
496895.790,4378809.377,-1582.598
496895.790,4378609.377,-1578.706
496895.790,4378409.377,-1581.238
496895.790,4378209.377,-1579.428
496895.790,4378009.377,-1565.629
496895.790,4377809.377,-1541.153
496895.790,4377609.377,-1514.551
496895.790,4377409.377,-1499.997
496895.790,4377209.377,-1492.901
496895.790,4377009.377,-1477.312
496895.790,4376809.377,-1429.353
496895.790,4376609.377,-1385.915
496895.790,4376409.377,-1364.002
496895.790,4376209.377,-1354.092
496895.790,4376009.377,-1326.103
496895.790,4375809.377,-1314.928
496895.790,4375609.377,-1284.997
496895.790,4375409.377,-1296.549
496895.790,4375209.377,-1287.767
496895.790,4375009.377,-1262.719
496895.790,4374809.377,-1270.816
496895.790,4374609.377,-1259.637
496895.790,4374409.377,-1250.758
496895.790,4374209.377,-1224.604
496895.790,4374009.377,-1202.779
496895.790,4373809.377,-1174.566
496895.790,4373609.377,-1125.072
496895.790,4373409.377,-1079.427
496895.790,4373209.377,-1035.437
496895.790,4373009.377,-984.364
496895.790,4372809.377,-934.869
496895.790,4372609.377,-899.816
496895.790,4372409.377,-887.388
496895.790,4372209.377,-823.742
496895.790,4372009.377,-777.669
496895.790,4371809.377,-752.686
496895.790,4371609.377,-738.679
496895.790,4371409.377,-699.887
496895.790,4371209.377,-681.358
496895.790,4371009.377,-701.838
496895.790,4370809.377,-757.221
496895.790,4370609.377,-798.798
496895.790,4370409.377,-833.276
496895.790,4370209.377,-897.248
496895.790,4370009.377,-964.652
496895.790,4369809.377,-1022.685
496895.790,4369609.377,-1078.543
496895.790,4369409.377,-1128.898
496895.790,4369209.377,-1165.128
496895.790,4369009.377,-1203.261
496895.790,4368809.377,-1254.122
496895.790,4368609.377,-1318.100
496895.790,4368409.377,-1370.065
496895.790,4368209.377,-1422.062
496895.790,4368009.377,-1481.844
496895.790,4367809.377,-1539.883
496895.790,4367609.377,-1614.538
496895.790,4367409.377,-1681.682
496895.790,4367209.377,-1735.622
496895.790,4367009.377,-1784.621
496895.790,4366809.377,-1844.595
496895.790,4366609.377,-1882.253
496895.790,4366409.377,-1916.179
496895.790,4366209.377,-1945.891
496895.790,4366009.377,-1984.970
496895.790,4365809.377,-2029.631
496895.790,4365609.377,-2068.622
496895.790,4365409.377,-2107.863
496895.790,4365209.377,-2142.883
496895.790,4365009.377,-2184.382
496895.790,4364809.377,-2220.478
496895.790,4364609.377,-2248.590
496895.790,4364409.377,-2275.199
496895.790,4364209.377,-2301.785
496895.790,4364009.377,-2347.431
496895.790,4363809.377,-2375.078
496895.790,4363609.377,-2390.787
496895.790,4363409.377,-2416.447
496895.790,4363209.377,-2431.120
496895.790,4363009.377,-2439.157
496895.790,4362809.377,-2461.970
496895.790,4362609.377,-2481.354
496895.790,4362409.377,-2510.331
496895.790,4362209.377,-2522.198
496895.790,4362009.377,-2522.523
496895.790,4361809.377,-2536.523
496895.790,4361609.377,-2548.610
496895.790,4361409.377,-2561.341
496895.790,4361209.377,-2569.024
496895.790,4361009.377,-2584.803
496895.790,4360809.377,-2592.240
496895.790,4360609.377,-2601.447
496895.790,4360409.377,-2624.292
496895.790,4360209.377,-2653.007
496895.790,4360009.377,-2672.450
496895.790,4359809.377,-2696.662
496895.790,4359609.377,-2721.777
496895.790,4359409.377,-2747.049
496895.790,4359209.377,-2763.204
496895.790,4359009.377,-2789.726
496895.790,4358809.377,-2815.721
496895.790,4358609.377,-2834.348
496895.790,4358409.377,-2859.496
496895.790,4358209.377,-2881.889
496895.790,4358009.377,-2902.674
496895.790,4357809.377,-2920.537
496895.790,4357609.377,-2938.660
496895.790,4357409.377,-2942.558
496895.790,4357209.377,-2954.238
496895.790,4357009.377,-2962.276
496895.790,4356809.377,-2982.356
496895.790,4356609.377,-2996.004
496895.790,4356409.377,-3001.789
496895.790,4356209.377,-3012.286
496895.790,4356009.377,-3015.326
496895.790,4355809.377,-3018.639
496895.790,4355609.377,-3031.849
496895.790,4355409.377,-3052.278
496895.790,4355209.377,-3066.552
496895.790,4355009.377,-3094.740
496895.790,4354809.377,-3106.381
496895.790,4354609.377,-3116.217
496895.790,4354409.377,-3122.447
496895.790,4354209.377,-3136.759
496895.790,4354009.377,-3141.949
496895.790,4353809.377,-3149.140
496895.790,4353609.377,-3153.989
496895.790,4353409.377,-3152.906
496895.790,4353209.377,-3165.145
496895.790,4353009.377,-3164.831
496895.790,4352809.377,-3171.174
496895.790,4352609.377,-3172.685
496895.790,4352409.377,-3182.076
496895.790,4352209.377,-3194.064
496895.790,4352009.377,-3197.322
496895.790,4351809.377,-3199.227
496895.790,4351609.377,-3194.504
496895.790,4351409.377,-3200.893
496895.790,4351209.377,-3206.845
496895.790,4351009.377,-3212.474
496895.790,4350809.377,-3214.012
496895.790,4350609.377,-3208.640
496895.790,4350409.377,-3211.762
497095.790,4386609.377,-1770.885
497095.790,4386409.377,-1766.114
497095.790,4386209.377,-1739.678
497095.790,4386009.377,-1683.099
497095.790,4385809.377,-1637.123
497095.790,4385609.377,-1594.725
497095.790,4385409.377,-1570.510
497095.790,4385209.377,-1567.074
497095.790,4385009.377,-1556.368
497095.790,4384809.377,-1579.644
497095.790,4384609.377,-1602.836
497095.790,4384409.377,-1623.950
497095.790,4384209.377,-1630.251
497095.790,4384009.377,-1642.143
497095.790,4383809.377,-1637.786
497095.790,4383609.377,-1631.623
497095.790,4383409.377,-1617.517
497095.790,4383209.377,-1590.729
497095.790,4383009.377,-1575.864
497095.790,4382809.377,-1560.802
497095.790,4382609.377,-1556.154
497095.790,4382409.377,-1557.484
497095.790,4382209.377,-1558.079
497095.790,4382009.377,-1561.644
497095.790,4381809.377,-1569.638
497095.790,4381609.377,-1578.641
497095.790,4381409.377,-1589.460
497095.790,4381209.377,-1592.622
497095.790,4381009.377,-1592.065
497095.790,4380809.377,-1590.251
497095.790,4380609.377,-1591.084
497095.790,4380409.377,-1595.150
497095.790,4380209.377,-1594.816
497095.790,4380009.377,-1594.393
497095.790,4379809.377,-1594.471
497095.790,4379609.377,-1592.983
497095.790,4379409.377,-1591.760
497095.790,4379209.377,-1589.065
497095.790,4379009.377,-1581.881
497095.790,4378809.377,-1582.380
497095.790,4378609.377,-1584.975
497095.790,4378409.377,-1584.094
497095.790,4378209.377,-1581.635
497095.790,4378009.377,-1576.494
497095.790,4377809.377,-1560.481
497095.790,4377609.377,-1523.016
497095.790,4377409.377,-1508.043
497095.790,4377209.377,-1501.548
497095.790,4377009.377,-1483.663
497095.790,4376809.377,-1442.347
497095.790,4376609.377,-1399.465
497095.790,4376409.377,-1391.567
497095.790,4376209.377,-1376.574
497095.790,4376009.377,-1363.437
497095.790,4375809.377,-1333.923
497095.790,4375609.377,-1319.199
497095.790,4375409.377,-1309.154
497095.790,4375209.377,-1299.808
497095.790,4375009.377,-1282.906
497095.790,4374809.377,-1298.361
497095.790,4374609.377,-1283.275
497095.790,4374409.377,-1270.950
497095.790,4374209.377,-1247.221
497095.790,4374009.377,-1237.667
497095.790,4373809.377,-1197.528
497095.790,4373609.377,-1137.541
497095.790,4373409.377,-1101.603
497095.790,4373209.377,-1069.597
497095.790,4373009.377,-1017.654
497095.790,4372809.377,-982.809
497095.790,4372609.377,-955.325
497095.790,4372409.377,-924.806
497095.790,4372209.377,-856.603
497095.790,4372009.377,-812.184
497095.790,4371809.377,-771.611
497095.790,4371609.377,-742.958
497095.790,4371409.377,-717.270
497095.790,4371209.377,-725.833
497095.790,4371009.377,-740.208
497095.790,4370809.377,-773.533
497095.790,4370609.377,-821.199
497095.790,4370409.377,-873.176
497095.790,4370209.377,-930.826
497095.790,4370009.377,-993.991
497095.790,4369809.377,-1052.180
497095.790,4369609.377,-1098.136
497095.790,4369409.377,-1154.708
497095.790,4369209.377,-1200.715
497095.790,4369009.377,-1240.413
497095.790,4368809.377,-1274.099
497095.790,4368609.377,-1318.696
497095.790,4368409.377,-1363.732
497095.790,4368209.377,-1423.563
497095.790,4368009.377,-1486.745
497095.790,4367809.377,-1545.637
497095.790,4367609.377,-1627.531
497095.790,4367409.377,-1696.910
497095.790,4367209.377,-1771.411
497095.790,4367009.377,-1838.789
497095.790,4366809.377,-1884.126
497095.790,4366609.377,-1920.424
497095.790,4366409.377,-1939.495
497095.790,4366209.377,-1973.890
497095.790,4366009.377,-1994.726
497095.790,4365809.377,-2024.035
497095.790,4365609.377,-2064.191
497095.790,4365409.377,-2094.290
497095.790,4365209.377,-2124.976
497095.790,4365009.377,-2161.196
497095.790,4364809.377,-2199.175
497095.790,4364609.377,-2239.354
497095.790,4364409.377,-2278.237
497095.790,4364209.377,-2307.892
497095.790,4364009.377,-2341.106
497095.790,4363809.377,-2377.115
497095.790,4363609.377,-2400.448
497095.790,4363409.377,-2421.519
497095.790,4363209.377,-2444.501
497095.790,4363009.377,-2460.915
497095.790,4362809.377,-2472.804
497095.790,4362609.377,-2491.210
497095.790,4362409.377,-2513.284
497095.790,4362209.377,-2528.849
497095.790,4362009.377,-2540.080
497095.790,4361809.377,-2553.040
497095.790,4361609.377,-2567.527
497095.790,4361409.377,-2577.609
497095.790,4361209.377,-2589.524
497095.790,4361009.377,-2602.465
497095.790,4360809.377,-2615.492
497095.790,4360609.377,-2622.570
497095.790,4360409.377,-2634.080
497095.790,4360209.377,-2647.928
497095.790,4360009.377,-2665.855
497095.790,4359809.377,-2696.799
497095.790,4359609.377,-2726.867
497095.790,4359409.377,-2751.302
497095.790,4359209.377,-2764.677
497095.790,4359009.377,-2775.652
497095.790,4358809.377,-2795.345
497095.790,4358609.377,-2815.951
497095.790,4358409.377,-2848.370
497095.790,4358209.377,-2872.819
497095.790,4358009.377,-2895.990
497095.790,4357809.377,-2910.630
497095.790,4357609.377,-2937.141
497095.790,4357409.377,-2947.933
497095.790,4357209.377,-2958.872
497095.790,4357009.377,-2972.531
497095.790,4356809.377,-2982.672
497095.790,4356609.377,-2995.467
497095.790,4356409.377,-2995.419
497095.790,4356209.377,-3002.717
497095.790,4356009.377,-3002.532
497095.790,4355809.377,-3013.320
497095.790,4355609.377,-3035.613
497095.790,4355409.377,-3067.899
497095.790,4355209.377,-3069.736
497095.790,4355009.377,-3085.472
497095.790,4354809.377,-3091.682
497095.790,4354609.377,-3118.372
497095.790,4354409.377,-3116.436
497095.790,4354209.377,-3135.581
497095.790,4354009.377,-3148.045
497095.790,4353809.377,-3148.279
497095.790,4353609.377,-3156.656
497095.790,4353409.377,-3154.340
497095.790,4353209.377,-3165.635
497095.790,4353009.377,-3167.248
497095.790,4352809.377,-3171.383
497095.790,4352609.377,-3175.740
497095.790,4352409.377,-3184.595
497095.790,4352209.377,-3188.576
497095.790,4352009.377,-3192.719
497095.790,4351809.377,-3193.602
497095.790,4351609.377,-3195.207
497095.790,4351409.377,-3196.615
497095.790,4351209.377,-3210.170
497095.790,4351009.377,-3212.067
497095.790,4350809.377,-3216.156
497095.790,4350609.377,-3211.683
497095.790,4350409.377,-3221.059
497295.790,4386609.377,-1785.542
497295.790,4386409.377,-1760.659
497295.790,4386209.377,-1716.847
497295.790,4386009.377,-1651.552
497295.790,4385809.377,-1569.449
497295.790,4385609.377,-1526.679
497295.790,4385409.377,-1527.369
497295.790,4385209.377,-1537.183
497295.790,4385009.377,-1557.716
497295.790,4384809.377,-1583.204
497295.790,4384609.377,-1607.416
497295.790,4384409.377,-1619.602
497295.790,4384209.377,-1625.297
497295.790,4384009.377,-1627.793
497295.790,4383809.377,-1603.338
497295.790,4383609.377,-1595.454
497295.790,4383409.377,-1594.769
497295.790,4383209.377,-1577.457
497295.790,4383009.377,-1564.759
497295.790,4382809.377,-1555.213
497295.790,4382609.377,-1552.610
497295.790,4382409.377,-1555.009
497295.790,4382209.377,-1559.178
497295.790,4382009.377,-1568.584
497295.790,4381809.377,-1573.308
497295.790,4381609.377,-1585.405
497295.790,4381409.377,-1592.947
497295.790,4381209.377,-1596.116
497295.790,4381009.377,-1596.975
497295.790,4380809.377,-1593.383
497295.790,4380609.377,-1593.631
497295.790,4380409.377,-1594.089
497295.790,4380209.377,-1594.873
497295.790,4380009.377,-1593.177
497295.790,4379809.377,-1592.646
497295.790,4379609.377,-1590.888
497295.790,4379409.377,-1590.275
497295.790,4379209.377,-1587.452
497295.790,4379009.377,-1582.327
497295.790,4378809.377,-1588.828
497295.790,4378609.377,-1587.349
497295.790,4378409.377,-1586.001
497295.790,4378209.377,-1583.128
497295.790,4378009.377,-1578.583
497295.790,4377809.377,-1565.506
497295.790,4377609.377,-1534.556
497295.790,4377409.377,-1504.569
497295.790,4377209.377,-1508.005
497295.790,4377009.377,-1485.698
497295.790,4376809.377,-1450.886
497295.790,4376609.377,-1410.066
497295.790,4376409.377,-1404.857
497295.790,4376209.377,-1401.251
497295.790,4376009.377,-1391.963
497295.790,4375809.377,-1372.040
497295.790,4375609.377,-1357.309
497295.790,4375409.377,-1326.457
497295.790,4375209.377,-1320.519
497295.790,4375009.377,-1315.705
497295.790,4374809.377,-1313.813
497295.790,4374609.377,-1302.555
497295.790,4374409.377,-1288.436
497295.790,4374209.377,-1266.642
497295.790,4374009.377,-1244.072
497295.790,4373809.377,-1201.554
497295.790,4373609.377,-1141.524
497295.790,4373409.377,-1111.730
497295.790,4373209.377,-1077.242
497295.790,4373009.377,-1044.018
497295.790,4372809.377,-999.415
497295.790,4372609.377,-954.330
497295.790,4372409.377,-898.058
497295.790,4372209.377,-836.018
497295.790,4372009.377,-810.254
497295.790,4371809.377,-794.734
497295.790,4371609.377,-791.922
497295.790,4371409.377,-786.457
497295.790,4371209.377,-785.846
497295.790,4371009.377,-795.282
497295.790,4370809.377,-807.092
497295.790,4370609.377,-839.818
497295.790,4370409.377,-910.596
497295.790,4370209.377,-966.032
497295.790,4370009.377,-1014.714
497295.790,4369809.377,-1068.275
497295.790,4369609.377,-1126.993
497295.790,4369409.377,-1186.754
497295.790,4369209.377,-1235.334
497295.790,4369009.377,-1288.192
497295.790,4368809.377,-1309.440
497295.790,4368609.377,-1359.504
497295.790,4368409.377,-1409.560
497295.790,4368209.377,-1437.644
497295.790,4368009.377,-1465.752
497295.790,4367809.377,-1513.720
497295.790,4367609.377,-1586.876
497295.790,4367409.377,-1663.374
497295.790,4367209.377,-1734.432
497295.790,4367009.377,-1801.803
497295.790,4366809.377,-1867.682
497295.790,4366609.377,-1925.651
497295.790,4366409.377,-1967.580
497295.790,4366209.377,-1990.318
497295.790,4366009.377,-2021.701
497295.790,4365809.377,-2050.194
497295.790,4365609.377,-2072.111
497295.790,4365409.377,-2105.525
497295.790,4365209.377,-2136.069
497295.790,4365009.377,-2162.021
497295.790,4364809.377,-2199.582
497295.790,4364609.377,-2229.881
497295.790,4364409.377,-2265.074
497295.790,4364209.377,-2299.923
497295.790,4364009.377,-2335.816
497295.790,4363809.377,-2362.632
497295.790,4363609.377,-2391.385
497295.790,4363409.377,-2416.214
497295.790,4363209.377,-2448.137
497295.790,4363009.377,-2472.813
497295.790,4362809.377,-2488.107
497295.790,4362609.377,-2502.704
497295.790,4362409.377,-2519.473
497295.790,4362209.377,-2535.884
497295.790,4362009.377,-2548.429
497295.790,4361809.377,-2562.382
497295.790,4361609.377,-2577.774
497295.790,4361409.377,-2594.219
497295.790,4361209.377,-2612.929
497295.790,4361009.377,-2626.186
497295.790,4360809.377,-2646.883
497295.790,4360609.377,-2657.057
497295.790,4360409.377,-2663.381
497295.790,4360209.377,-2670.986
497295.790,4360009.377,-2683.093
497295.790,4359809.377,-2707.403
497295.790,4359609.377,-2723.216
497295.790,4359409.377,-2747.297
497295.790,4359209.377,-2757.271
497295.790,4359009.377,-2776.855
497295.790,4358809.377,-2790.465
497295.790,4358609.377,-2806.806
497295.790,4358409.377,-2835.916
497295.790,4358209.377,-2865.566
497295.790,4358009.377,-2887.282
497295.790,4357809.377,-2901.662
497295.790,4357609.377,-2926.648
497295.790,4357409.377,-2946.445
497295.790,4357209.377,-2962.217
497295.790,4357009.377,-2973.655
497295.790,4356809.377,-2985.015
497295.790,4356609.377,-2988.997
497295.790,4356409.377,-2987.952
497295.790,4356209.377,-2999.251
497295.790,4356009.377,-3012.401
497295.790,4355809.377,-3031.668
497295.790,4355609.377,-3050.979
497295.790,4355409.377,-3057.390
497295.790,4355209.377,-3078.158
497295.790,4355009.377,-3085.703
497295.790,4354809.377,-3084.687
497295.790,4354609.377,-3117.436
497295.790,4354409.377,-3112.929
497295.790,4354209.377,-3136.350
497295.790,4354009.377,-3151.385
497295.790,4353809.377,-3143.831
497295.790,4353609.377,-3157.933
497295.790,4353409.377,-3163.043
497295.790,4353209.377,-3178.242
497295.790,4353009.377,-3173.767
497295.790,4352809.377,-3174.036
497295.790,4352609.377,-3186.534
497295.790,4352409.377,-3188.680
497295.790,4352209.377,-3186.771
497295.790,4352009.377,-3201.874
497295.790,4351809.377,-3197.405
497295.790,4351609.377,-3192.964
497295.790,4351409.377,-3193.486
497295.790,4351209.377,-3222.804
497295.790,4351009.377,-3222.141
497295.790,4350809.377,-3208.843
497295.790,4350609.377,-3201.084
497295.790,4350409.377,-3212.713
497495.790,4386609.377,-1771.706
497495.790,4386409.377,-1715.683
497495.790,4386209.377,-1664.072
497495.790,4386009.377,-1607.970
497495.790,4385809.377,-1568.991
497495.790,4385609.377,-1562.570
497495.790,4385409.377,-1550.840
497495.790,4385209.377,-1551.572
497495.790,4385009.377,-1566.054
497495.790,4384809.377,-1586.142
497495.790,4384609.377,-1604.274
497495.790,4384409.377,-1614.771
497495.790,4384209.377,-1615.753
497495.790,4384009.377,-1604.182
497495.790,4383809.377,-1564.003
497495.790,4383609.377,-1541.438
497495.790,4383409.377,-1545.741
497495.790,4383209.377,-1543.870
497495.790,4383009.377,-1540.610
497495.790,4382809.377,-1534.343
497495.790,4382609.377,-1542.598
497495.790,4382409.377,-1550.325
497495.790,4382209.377,-1561.135
497495.790,4382009.377,-1575.051
497495.790,4381809.377,-1587.726
497495.790,4381609.377,-1595.158
497495.790,4381409.377,-1599.990
497495.790,4381209.377,-1600.200
497495.790,4381009.377,-1601.917
497495.790,4380809.377,-1600.210
497495.790,4380609.377,-1597.101
497495.790,4380409.377,-1594.508
497495.790,4380209.377,-1594.448
497495.790,4380009.377,-1593.526
497495.790,4379809.377,-1590.440
497495.790,4379609.377,-1591.244
497495.790,4379409.377,-1591.900
497495.790,4379209.377,-1589.602
497495.790,4379009.377,-1589.335
497495.790,4378809.377,-1589.353
497495.790,4378609.377,-1588.415
497495.790,4378409.377,-1588.703
497495.790,4378209.377,-1583.308
497495.790,4378009.377,-1578.493
497495.790,4377809.377,-1556.928
497495.790,4377609.377,-1528.964
497495.790,4377409.377,-1521.622
497495.790,4377209.377,-1515.119
497495.790,4377009.377,-1489.833
497495.790,4376809.377,-1469.266
497495.790,4376609.377,-1445.858
497495.790,4376409.377,-1415.843
497495.790,4376209.377,-1419.414
497495.790,4376009.377,-1419.664
497495.790,4375809.377,-1415.263
497495.790,4375609.377,-1378.802
497495.790,4375409.377,-1351.451
497495.790,4375209.377,-1343.411
497495.790,4375009.377,-1334.558
497495.790,4374809.377,-1319.793
497495.790,4374609.377,-1313.539
497495.790,4374409.377,-1303.371
497495.790,4374209.377,-1288.054
497495.790,4374009.377,-1250.826
497495.790,4373809.377,-1205.925
497495.790,4373609.377,-1175.795
497495.790,4373409.377,-1138.395
497495.790,4373209.377,-1089.258
497495.790,4373009.377,-1045.258
497495.790,4372809.377,-983.743
497495.790,4372609.377,-940.244
497495.790,4372409.377,-904.159
497495.790,4372209.377,-881.316
497495.790,4372009.377,-853.984
497495.790,4371809.377,-853.530
497495.790,4371609.377,-847.974
497495.790,4371409.377,-837.034
497495.790,4371209.377,-828.455
497495.790,4371009.377,-837.775
497495.790,4370809.377,-870.266
497495.790,4370609.377,-893.054
497495.790,4370409.377,-936.290
497495.790,4370209.377,-996.919
497495.790,4370009.377,-1039.950
497495.790,4369809.377,-1096.376
497495.790,4369609.377,-1151.198
497495.790,4369409.377,-1204.372
497495.790,4369209.377,-1267.934
497495.790,4369009.377,-1323.316
497495.790,4368809.377,-1359.895
497495.790,4368609.377,-1384.012
497495.790,4368409.377,-1442.424
497495.790,4368209.377,-1486.182
497495.790,4368009.377,-1512.471
497495.790,4367809.377,-1549.583
497495.790,4367609.377,-1586.224
497495.790,4367409.377,-1646.157
497495.790,4367209.377,-1725.997
497495.790,4367009.377,-1787.305
497495.790,4366809.377,-1831.941
497495.790,4366609.377,-1915.640
497495.790,4366409.377,-1979.222
497495.790,4366209.377,-1999.419
497495.790,4366009.377,-2032.920
497495.790,4365809.377,-2058.525
497495.790,4365609.377,-2079.520
497495.790,4365409.377,-2123.926
497495.790,4365209.377,-2154.079
497495.790,4365009.377,-2175.818
497495.790,4364809.377,-2204.186
497495.790,4364609.377,-2240.019
497495.790,4364409.377,-2273.010
497495.790,4364209.377,-2296.693
497495.790,4364009.377,-2333.804
497495.790,4363809.377,-2368.248
497495.790,4363609.377,-2395.241
497495.790,4363409.377,-2419.412
497495.790,4363209.377,-2449.364
497495.790,4363009.377,-2473.590
497495.790,4362809.377,-2497.068
497495.790,4362609.377,-2512.843
497495.790,4362409.377,-2529.145
497495.790,4362209.377,-2540.412
497495.790,4362009.377,-2555.874
497495.790,4361809.377,-2570.266
497495.790,4361609.377,-2583.984
497495.790,4361409.377,-2602.140
497495.790,4361209.377,-2623.887
497495.790,4361009.377,-2639.677
497495.790,4360809.377,-2661.345
497495.790,4360609.377,-2682.204
497495.790,4360409.377,-2697.109
497495.790,4360209.377,-2716.406
497495.790,4360009.377,-2712.240
497495.790,4359809.377,-2723.036
497495.790,4359609.377,-2737.316
497495.790,4359409.377,-2751.147
497495.790,4359209.377,-2765.893
497495.790,4359009.377,-2784.381
497495.790,4358809.377,-2799.954
497495.790,4358609.377,-2817.144
497495.790,4358409.377,-2843.129
497495.790,4358209.377,-2862.658
497495.790,4358009.377,-2884.920
497495.790,4357809.377,-2894.341
497495.790,4357609.377,-2924.059
497495.790,4357409.377,-2940.737
497495.790,4357209.377,-2962.773
497495.790,4357009.377,-2979.829
497495.790,4356809.377,-2988.628
497495.790,4356609.377,-3002.294
497495.790,4356409.377,-2997.447
497495.790,4356209.377,-3005.341
497495.790,4356009.377,-3030.769
497495.790,4355809.377,-3047.844
497495.790,4355609.377,-3062.427
497495.790,4355409.377,-3075.917
497495.790,4355209.377,-3080.583
497495.790,4355009.377,-3075.299
497495.790,4354809.377,-3082.852
497495.790,4354609.377,-3113.683
497495.790,4354409.377,-3114.221
497495.790,4354209.377,-3136.116
497495.790,4354009.377,-3154.175
497495.790,4353809.377,-3140.586
497495.790,4353609.377,-3155.749
497495.790,4353409.377,-3160.155
497495.790,4353209.377,-3159.381
497495.790,4353009.377,-3177.244
497495.790,4352809.377,-3184.299
497495.790,4352609.377,-3190.941
497495.790,4352409.377,-3192.356
497495.790,4352209.377,-3189.924
497495.790,4352009.377,-3197.321
497495.790,4351809.377,-3204.220
497495.790,4351609.377,-3196.841
497495.790,4351409.377,-3202.224
497495.790,4351209.377,-3218.174
497495.790,4351009.377,-3213.255
497495.790,4350809.377,-3209.886
497495.790,4350609.377,-3197.462
497495.790,4350409.377,-3200.548
497695.790,4386609.377,-1775.184
497695.790,4386409.377,-1729.308
497695.790,4386209.377,-1681.205
497695.790,4386009.377,-1634.092
497695.790,4385809.377,-1610.711
497695.790,4385609.377,-1592.441
497695.790,4385409.377,-1568.669
497695.790,4385209.377,-1567.204
497695.790,4385009.377,-1577.975
497695.790,4384809.377,-1590.661
497695.790,4384609.377,-1598.671
497695.790,4384409.377,-1603.763
497695.790,4384209.377,-1603.959
497695.790,4384009.377,-1592.917
497695.790,4383809.377,-1548.990
497695.790,4383609.377,-1508.022
497695.790,4383409.377,-1506.910
497695.790,4383209.377,-1502.963
497695.790,4383009.377,-1509.568
497695.790,4382809.377,-1514.012
497695.790,4382609.377,-1528.977
497695.790,4382409.377,-1544.747
497695.790,4382209.377,-1559.602
497695.790,4382009.377,-1575.896
497695.790,4381809.377,-1586.159
497695.790,4381609.377,-1597.057
497695.790,4381409.377,-1603.594
497695.790,4381209.377,-1603.860
497695.790,4381009.377,-1602.202
497695.790,4380809.377,-1601.940
497695.790,4380609.377,-1599.303
497695.790,4380409.377,-1597.915
497695.790,4380209.377,-1596.376
497695.790,4380009.377,-1596.336
497695.790,4379809.377,-1594.192
497695.790,4379609.377,-1592.868
497695.790,4379409.377,-1590.683
497695.790,4379209.377,-1588.512
497695.790,4379009.377,-1591.010
497695.790,4378809.377,-1592.371
497695.790,4378609.377,-1588.611
497695.790,4378409.377,-1589.197
497695.790,4378209.377,-1586.318
497695.790,4378009.377,-1575.727
497695.790,4377809.377,-1547.569
497695.790,4377609.377,-1536.015
497695.790,4377409.377,-1528.670
497695.790,4377209.377,-1518.166
497695.790,4377009.377,-1494.506
497695.790,4376809.377,-1483.852
497695.790,4376609.377,-1466.583
497695.790,4376409.377,-1431.874
497695.790,4376209.377,-1441.175
497695.790,4376009.377,-1438.801
497695.790,4375809.377,-1422.407
497695.790,4375609.377,-1390.970
497695.790,4375409.377,-1371.168
497695.790,4375209.377,-1366.027
497695.790,4375009.377,-1347.151
497695.790,4374809.377,-1330.848
497695.790,4374609.377,-1325.446
497695.790,4374409.377,-1327.403
497695.790,4374209.377,-1297.206
497695.790,4374009.377,-1263.732
497695.790,4373809.377,-1229.515
497695.790,4373609.377,-1205.726
497695.790,4373409.377,-1160.158
497695.790,4373209.377,-1101.654
497695.790,4373009.377,-1052.287
497695.790,4372809.377,-1005.912
497695.790,4372609.377,-985.741
497695.790,4372409.377,-950.614
497695.790,4372209.377,-924.308
497695.790,4372009.377,-896.276
497695.790,4371809.377,-891.768
497695.790,4371609.377,-886.402
497695.790,4371409.377,-880.586
497695.790,4371209.377,-880.289
497695.790,4371009.377,-882.249
497695.790,4370809.377,-902.746
497695.790,4370609.377,-939.876
497695.790,4370409.377,-965.783
497695.790,4370209.377,-1038.476
497695.790,4370009.377,-1085.837
497695.790,4369809.377,-1136.479
497695.790,4369609.377,-1185.895
497695.790,4369409.377,-1225.635
497695.790,4369209.377,-1273.629
497695.790,4369009.377,-1342.111
497695.790,4368809.377,-1396.837
497695.790,4368609.377,-1430.991
497695.790,4368409.377,-1475.186
497695.790,4368209.377,-1535.154
497695.790,4368009.377,-1577.488
497695.790,4367809.377,-1585.150
497695.790,4367609.377,-1646.850
497695.790,4367409.377,-1694.240
497695.790,4367209.377,-1754.749
497695.790,4367009.377,-1817.654
497695.790,4366809.377,-1868.865
497695.790,4366609.377,-1937.821
497695.790,4366409.377,-1987.074
497695.790,4366209.377,-2018.126
497695.790,4366009.377,-2037.901
497695.790,4365809.377,-2057.464
497695.790,4365609.377,-2081.207
497695.790,4365409.377,-2113.737
497695.790,4365209.377,-2147.685
497695.790,4365009.377,-2184.335
497695.790,4364809.377,-2209.977
497695.790,4364609.377,-2248.277
497695.790,4364409.377,-2282.375
497695.790,4364209.377,-2316.243
497695.790,4364009.377,-2352.333
497695.790,4363809.377,-2385.335
497695.790,4363609.377,-2406.921
497695.790,4363409.377,-2430.210
497695.790,4363209.377,-2453.724
497695.790,4363009.377,-2476.259
497695.790,4362809.377,-2494.648
497695.790,4362609.377,-2506.356
497695.790,4362409.377,-2527.866
497695.790,4362209.377,-2545.194
497695.790,4362009.377,-2561.301
497695.790,4361809.377,-2576.037
497695.790,4361609.377,-2594.798
497695.790,4361409.377,-2615.725
497695.790,4361209.377,-2631.082
497695.790,4361009.377,-2647.038
497695.790,4360809.377,-2670.526
497695.790,4360609.377,-2687.714
497695.790,4360409.377,-2704.560
497695.790,4360209.377,-2726.627
497695.790,4360009.377,-2741.113
497695.790,4359809.377,-2750.333
497695.790,4359609.377,-2758.892
497695.790,4359409.377,-2770.972
497695.790,4359209.377,-2786.067
497695.790,4359009.377,-2796.879
497695.790,4358809.377,-2817.130
497695.790,4358609.377,-2833.381
497695.790,4358409.377,-2850.006
497695.790,4358209.377,-2866.165
497695.790,4358009.377,-2881.914
497695.790,4357809.377,-2908.850
497695.790,4357609.377,-2927.925
497695.790,4357409.377,-2949.684
497695.790,4357209.377,-2967.069
497695.790,4357009.377,-2985.495
497695.790,4356809.377,-2993.645
497695.790,4356609.377,-3013.059
497695.790,4356409.377,-3017.924
497695.790,4356209.377,-3013.239
497695.790,4356009.377,-3029.546
497695.790,4355809.377,-3051.027
497695.790,4355609.377,-3064.959
497695.790,4355409.377,-3089.035
497695.790,4355209.377,-3088.010
497695.790,4355009.377,-3080.031
497695.790,4354809.377,-3095.103
497695.790,4354609.377,-3120.721
497695.790,4354409.377,-3127.184
497695.790,4354209.377,-3140.821
497695.790,4354009.377,-3151.579
497695.790,4353809.377,-3149.248
497695.790,4353609.377,-3159.214
497695.790,4353409.377,-3171.199
497695.790,4353209.377,-3177.111
497695.790,4353009.377,-3179.513
497695.790,4352809.377,-3185.773
497695.790,4352609.377,-3182.737
497695.790,4352409.377,-3188.663
497695.790,4352209.377,-3196.620
497695.790,4352009.377,-3197.033
497695.790,4351809.377,-3197.301
497695.790,4351609.377,-3199.179
497695.790,4351409.377,-3197.049
497695.790,4351209.377,-3203.319
497695.790,4351009.377,-3204.801
497695.790,4350809.377,-3205.806
497695.790,4350609.377,-3211.283
497695.790,4350409.377,-3197.238
497895.790,4386609.377,-1787.972
497895.790,4386409.377,-1747.323
497895.790,4386209.377,-1707.021
497895.790,4386009.377,-1667.136
497895.790,4385809.377,-1632.754
497895.790,4385609.377,-1601.159
497895.790,4385409.377,-1585.740
497895.790,4385209.377,-1574.115
497895.790,4385009.377,-1577.010
497895.790,4384809.377,-1587.323
497895.790,4384609.377,-1593.114
497895.790,4384409.377,-1593.309
497895.790,4384209.377,-1583.648
497895.790,4384009.377,-1548.328
497895.790,4383809.377,-1510.735
497895.790,4383609.377,-1488.691
497895.790,4383409.377,-1479.030
497895.790,4383209.377,-1484.045
497895.790,4383009.377,-1499.385
497895.790,4382809.377,-1508.921
497895.790,4382609.377,-1521.035
497895.790,4382409.377,-1541.279
497895.790,4382209.377,-1562.426
497895.790,4382009.377,-1580.041
497895.790,4381809.377,-1593.791
497895.790,4381609.377,-1601.298
497895.790,4381409.377,-1602.648
497895.790,4381209.377,-1603.700
497895.790,4381009.377,-1604.581
497895.790,4380809.377,-1605.029
497895.790,4380609.377,-1602.069
497895.790,4380409.377,-1599.390
497895.790,4380209.377,-1599.093
497895.790,4380009.377,-1597.610
497895.790,4379809.377,-1595.524
497895.790,4379609.377,-1591.929
497895.790,4379409.377,-1591.296
497895.790,4379209.377,-1588.731
497895.790,4379009.377,-1591.406
497895.790,4378809.377,-1590.242
497895.790,4378609.377,-1589.706
497895.790,4378409.377,-1588.974
497895.790,4378209.377,-1585.660
497895.790,4378009.377,-1573.805
497895.790,4377809.377,-1563.958
497895.790,4377609.377,-1541.756
497895.790,4377409.377,-1529.064
497895.790,4377209.377,-1515.333
497895.790,4377009.377,-1501.694
497895.790,4376809.377,-1493.937
497895.790,4376609.377,-1482.851
497895.790,4376409.377,-1470.668
497895.790,4376209.377,-1462.048
497895.790,4376009.377,-1445.639
497895.790,4375809.377,-1418.262
497895.790,4375609.377,-1413.628
497895.790,4375409.377,-1394.514
497895.790,4375209.377,-1375.937
497895.790,4375009.377,-1351.442
497895.790,4374809.377,-1345.633
497895.790,4374609.377,-1353.814
497895.790,4374409.377,-1336.639
497895.790,4374209.377,-1307.527
497895.790,4374009.377,-1283.434
497895.790,4373809.377,-1256.330
497895.790,4373609.377,-1225.074
497895.790,4373409.377,-1172.623
497895.790,4373209.377,-1122.615
497895.790,4373009.377,-1066.317
497895.790,4372809.377,-1018.240
497895.790,4372609.377,-1001.159
497895.790,4372409.377,-970.829
497895.790,4372209.377,-941.277
497895.790,4372009.377,-907.759
497895.790,4371809.377,-906.909
497895.790,4371609.377,-924.863
497895.790,4371409.377,-923.410
497895.790,4371209.377,-915.705
497895.790,4371009.377,-925.061
497895.790,4370809.377,-949.819
497895.790,4370609.377,-982.297
497895.790,4370409.377,-1023.891
497895.790,4370209.377,-1052.639
497895.790,4370009.377,-1122.255
497895.790,4369809.377,-1177.087
497895.790,4369609.377,-1219.215
497895.790,4369409.377,-1260.725
497895.790,4369209.377,-1286.870
497895.790,4369009.377,-1336.898
497895.790,4368809.377,-1408.633
497895.790,4368609.377,-1456.274
497895.790,4368409.377,-1513.741
497895.790,4368209.377,-1564.465
497895.790,4368009.377,-1625.423
497895.790,4367809.377,-1647.946
497895.790,4367609.377,-1683.689
497895.790,4367409.377,-1737.042
497895.790,4367209.377,-1789.111
497895.790,4367009.377,-1837.924
497895.790,4366809.377,-1880.911
497895.790,4366609.377,-1930.115
497895.790,4366409.377,-1973.855
497895.790,4366209.377,-2014.092
497895.790,4366009.377,-2045.422
497895.790,4365809.377,-2076.337
497895.790,4365609.377,-2092.678
497895.790,4365409.377,-2116.826
497895.790,4365209.377,-2134.634
497895.790,4365009.377,-2157.565
497895.790,4364809.377,-2184.740
497895.790,4364609.377,-2226.354
497895.790,4364409.377,-2262.835
497895.790,4364209.377,-2287.647
497895.790,4364009.377,-2325.901
497895.790,4363809.377,-2355.460
497895.790,4363609.377,-2377.502
497895.790,4363409.377,-2410.238
497895.790,4363209.377,-2426.832
497895.790,4363009.377,-2456.824
497895.790,4362809.377,-2471.871
497895.790,4362609.377,-2493.441
497895.790,4362409.377,-2512.573
497895.790,4362209.377,-2528.255
497895.790,4362009.377,-2557.260
497895.790,4361809.377,-2576.022
497895.790,4361609.377,-2606.016
497895.790,4361409.377,-2631.518
497895.790,4361209.377,-2646.185
497895.790,4361009.377,-2660.532
497895.790,4360809.377,-2679.345
497895.790,4360609.377,-2694.467
497895.790,4360409.377,-2714.977
497895.790,4360209.377,-2733.770
497895.790,4360009.377,-2751.218
497895.790,4359809.377,-2761.718
497895.790,4359609.377,-2779.678
497895.790,4359409.377,-2798.168
497895.790,4359209.377,-2810.943
497895.790,4359009.377,-2813.981
497895.790,4358809.377,-2833.937
497895.790,4358609.377,-2846.326
497895.790,4358409.377,-2859.557
497895.790,4358209.377,-2867.043
497895.790,4358009.377,-2885.783
497895.790,4357809.377,-2910.855
497895.790,4357609.377,-2930.390
497895.790,4357409.377,-2961.635
497895.790,4357209.377,-2974.121
497895.790,4357009.377,-2982.412
497895.790,4356809.377,-2988.511
497895.790,4356609.377,-3024.104
497895.790,4356409.377,-3021.819
497895.790,4356209.377,-3032.310
497895.790,4356009.377,-3035.950
497895.790,4355809.377,-3053.598
497895.790,4355609.377,-3079.080
497895.790,4355409.377,-3090.134
497895.790,4355209.377,-3095.340
497895.790,4355009.377,-3093.870
497895.790,4354809.377,-3108.714
497895.790,4354609.377,-3118.557
497895.790,4354409.377,-3135.048
497895.790,4354209.377,-3148.506
497895.790,4354009.377,-3146.318
497895.790,4353809.377,-3150.889
497895.790,4353609.377,-3154.854
497895.790,4353409.377,-3158.762
497895.790,4353209.377,-3177.150
497895.790,4353009.377,-3182.132
497895.790,4352809.377,-3179.775
497895.790,4352609.377,-3176.623
497895.790,4352409.377,-3183.728
497895.790,4352209.377,-3179.462
497895.790,4352009.377,-3194.257
497895.790,4351809.377,-3187.936
497895.790,4351609.377,-3188.827
497895.790,4351409.377,-3197.480
497895.790,4351209.377,-3191.770
497895.790,4351009.377,-3207.595
497895.790,4350809.377,-3207.690
497895.790,4350609.377,-3204.624
497895.790,4350409.377,-3192.722
498095.790,4386609.377,-1783.024
498095.790,4386409.377,-1718.156
498095.790,4386209.377,-1688.719
498095.790,4386009.377,-1658.385
498095.790,4385809.377,-1633.071
498095.790,4385609.377,-1608.873
498095.790,4385409.377,-1590.555
498095.790,4385209.377,-1578.345
498095.790,4385009.377,-1579.767
498095.790,4384809.377,-1584.255
498095.790,4384609.377,-1586.323
498095.790,4384409.377,-1586.203
498095.790,4384209.377,-1564.618
498095.790,4384009.377,-1513.714
498095.790,4383809.377,-1482.235
498095.790,4383609.377,-1455.172
498095.790,4383409.377,-1455.114
498095.790,4383209.377,-1482.979
498095.790,4383009.377,-1500.794
498095.790,4382809.377,-1518.298
498095.790,4382609.377,-1528.660
498095.790,4382409.377,-1543.697
498095.790,4382209.377,-1566.436
498095.790,4382009.377,-1584.324
498095.790,4381809.377,-1596.799
498095.790,4381609.377,-1601.790
498095.790,4381409.377,-1601.390
498095.790,4381209.377,-1604.784
498095.790,4381009.377,-1607.674
498095.790,4380809.377,-1605.817
498095.790,4380609.377,-1604.687
498095.790,4380409.377,-1600.766
498095.790,4380209.377,-1598.236
498095.790,4380009.377,-1597.242
498095.790,4379809.377,-1594.117
498095.790,4379609.377,-1591.848
498095.790,4379409.377,-1590.432
498095.790,4379209.377,-1590.313
498095.790,4379009.377,-1588.313
498095.790,4378809.377,-1588.155
498095.790,4378609.377,-1587.385
498095.790,4378409.377,-1586.240
498095.790,4378209.377,-1582.906
498095.790,4378009.377,-1577.913
498095.790,4377809.377,-1568.501
498095.790,4377609.377,-1537.556
498095.790,4377409.377,-1524.345
498095.790,4377209.377,-1515.849
498095.790,4377009.377,-1505.288
498095.790,4376809.377,-1499.434
498095.790,4376609.377,-1490.211
498095.790,4376409.377,-1482.674
498095.790,4376209.377,-1476.190
498095.790,4376009.377,-1462.496
498095.790,4375809.377,-1443.716
498095.790,4375609.377,-1439.235
498095.790,4375409.377,-1412.343
498095.790,4375209.377,-1373.068
498095.790,4375009.377,-1353.476
498095.790,4374809.377,-1375.236
498095.790,4374609.377,-1370.662
498095.790,4374409.377,-1348.613
498095.790,4374209.377,-1323.382
498095.790,4374009.377,-1295.760
498095.790,4373809.377,-1266.777
498095.790,4373609.377,-1227.888
498095.790,4373409.377,-1181.304
498095.790,4373209.377,-1135.902
498095.790,4373009.377,-1070.181
498095.790,4372809.377,-1047.634
498095.790,4372609.377,-1028.273
498095.790,4372409.377,-986.152
498095.790,4372209.377,-949.611
498095.790,4372009.377,-903.198
498095.790,4371809.377,-913.007
498095.790,4371609.377,-934.902
498095.790,4371409.377,-968.447
498095.790,4371209.377,-970.806
498095.790,4371009.377,-991.976
498095.790,4370809.377,-1003.526
498095.790,4370609.377,-1034.664
498095.790,4370409.377,-1060.268
498095.790,4370209.377,-1100.094
498095.790,4370009.377,-1154.839
498095.790,4369809.377,-1212.153
498095.790,4369609.377,-1255.013
498095.790,4369409.377,-1292.052
498095.790,4369209.377,-1318.130
498095.790,4369009.377,-1331.318
498095.790,4368809.377,-1391.729
498095.790,4368609.377,-1468.909
498095.790,4368409.377,-1533.485
498095.790,4368209.377,-1591.970
498095.790,4368009.377,-1642.842
498095.790,4367809.377,-1697.267
498095.790,4367609.377,-1741.854
498095.790,4367409.377,-1780.274
498095.790,4367209.377,-1823.412
498095.790,4367009.377,-1858.280
498095.790,4366809.377,-1884.677
498095.790,4366609.377,-1913.336
498095.790,4366409.377,-1966.175
498095.790,4366209.377,-2008.870
498095.790,4366009.377,-2043.375
498095.790,4365809.377,-2071.703
498095.790,4365609.377,-2106.270
498095.790,4365409.377,-2135.873
498095.790,4365209.377,-2156.070
498095.790,4365009.377,-2181.142
498095.790,4364809.377,-2194.613
498095.790,4364609.377,-2221.500
