481288.150,4372370.652,-193.177
481288.150,4372320.652,-204.848
481338.150,4372770.652,-206.501
481338.150,4372720.652,-195.796
481338.150,4372670.652,-182.846
481338.150,4372620.652,-178.895
481338.150,4372570.652,-176.855
481338.150,4372520.652,-174.689
481338.150,4372470.652,-174.208
481338.150,4372420.652,-176.364
481338.150,4372370.652,-182.329
481338.150,4372320.652,-194.307
481338.150,4372270.652,-207.358
481388.150,4372820.652,-201.700
481388.150,4372770.652,-197.019
481388.150,4372720.652,-181.815
481388.150,4372670.652,-171.100
481388.150,4372620.652,-168.929
481388.150,4372570.652,-167.228
481388.150,4372520.652,-165.422
481388.150,4372470.652,-164.755
481388.150,4372420.652,-164.828
481388.150,4372370.652,-167.030
481388.150,4372320.652,-175.321
481388.150,4372270.652,-192.339
481388.150,4372220.652,-208.952
481438.150,4372870.652,-216.900
481438.150,4372820.652,-202.239
481438.150,4372770.652,-185.864
481438.150,4372720.652,-175.442
481438.150,4372670.652,-169.851
481438.150,4372620.652,-166.235
481438.150,4372570.652,-162.654
481438.150,4372520.652,-160.110
481438.150,4372470.652,-159.203
481438.150,4372420.652,-159.154
481438.150,4372370.652,-160.670
481438.150,4372320.652,-166.018
481438.150,4372270.652,-178.681
481438.150,4372220.652,-200.403
481488.150,4372870.652,-214.342
481488.150,4372820.652,-197.045
481488.150,4372770.652,-180.032
481488.150,4372720.652,-173.083
481488.150,4372670.652,-169.837
481488.150,4372620.652,-167.095
481488.150,4372570.652,-164.702
481488.150,4372520.652,-162.300
481488.150,4372470.652,-159.711
481488.150,4372420.652,-157.042
481488.150,4372370.652,-156.493
481488.150,4372320.652,-160.208
481488.150,4372270.652,-170.436
481488.150,4372220.652,-189.534
481538.150,4372870.652,-210.795
481538.150,4372820.652,-194.156
481538.150,4372770.652,-177.397
481538.150,4372720.652,-171.201
481538.150,4372670.652,-169.650
481538.150,4372620.652,-168.889
481538.150,4372570.652,-167.898
481538.150,4372520.652,-165.847
481538.150,4372470.652,-162.843
481538.150,4372420.652,-158.643
481538.150,4372370.652,-155.322
481538.150,4372320.652,-156.778
481538.150,4372270.652,-165.878
481538.150,4372220.652,-183.943
481538.150,4372170.652,-201.069
481588.150,4372870.652,-208.676
481588.150,4372820.652,-192.230
481588.150,4372770.652,-176.051
481588.150,4372720.652,-170.431
481588.150,4372670.652,-169.759
481588.150,4372620.652,-169.238
481588.150,4372570.652,-167.385
481588.150,4372520.652,-164.673
481588.150,4372470.652,-162.135
481588.150,4372420.652,-158.976
481588.150,4372370.652,-155.708
481588.150,4372320.652,-155.873
481588.150,4372270.652,-163.418
481588.150,4372220.652,-180.827
481588.150,4372170.652,-206.427
481638.150,4372870.652,-207.386
481638.150,4372820.652,-190.821
481638.150,4372770.652,-174.892
481638.150,4372720.652,-169.628
481638.150,4372670.652,-169.055
481638.150,4372620.652,-168.425
481638.150,4372570.652,-166.324
481638.150,4372520.652,-163.392
481638.150,4372470.652,-160.546
481638.150,4372420.652,-157.904
481638.150,4372370.652,-155.632
481638.150,4372320.652,-155.379
481638.150,4372270.652,-161.880
481638.150,4372220.652,-179.105
481638.150,4372170.652,-204.246
481688.150,4372870.652,-206.124
481688.150,4372820.652,-189.190
481688.150,4372770.652,-173.122
481688.150,4372720.652,-167.906
481688.150,4372670.652,-167.352
481688.150,4372620.652,-166.816
481688.150,4372570.652,-165.181
481688.150,4372520.652,-162.997
481688.150,4372470.652,-160.310
481688.150,4372420.652,-157.803
481688.150,4372370.652,-155.579
481688.150,4372320.652,-154.419
481688.150,4372270.652,-160.689
481688.150,4372220.652,-178.418
481688.150,4372170.652,-202.437
481738.150,4372870.652,-206.437
481738.150,4372820.652,-188.600
481738.150,4372770.652,-171.637
481738.150,4372720.652,-165.520
481738.150,4372670.652,-164.079
481738.150,4372620.652,-163.694
481738.150,4372570.652,-163.177
481738.150,4372520.652,-162.167
481738.150,4372470.652,-160.442
481738.150,4372420.652,-158.274
481738.150,4372370.652,-155.784
481738.150,4372320.652,-154.324
481738.150,4372270.652,-160.747
481738.150,4372220.652,-178.731
481738.150,4372170.652,-202.125
481788.150,4372870.652,-209.795
481788.150,4372820.652,-191.247
481788.150,4372770.652,-172.476
481788.150,4372720.652,-164.027
481788.150,4372670.652,-160.476
481788.150,4372620.652,-159.066
481788.150,4372570.652,-158.881
481788.150,4372520.652,-158.885
481788.150,4372470.652,-158.130
481788.150,4372420.652,-156.391
481788.150,4372370.652,-154.355
481788.150,4372320.652,-154.526
481788.150,4372270.652,-163.128
481788.150,4372220.652,-181.823
481788.150,4372170.652,-204.721
481838.150,4372870.652,-213.350
481838.150,4372820.652,-196.191
481838.150,4372770.652,-176.400
481838.150,4372720.652,-164.809
481838.150,4372670.652,-159.205
481838.150,4372620.652,-156.355
481838.150,4372570.652,-155.057
481838.150,4372520.652,-154.781
481838.150,4372470.652,-154.023
481838.150,4372420.652,-152.546
481838.150,4372370.652,-151.831
481838.150,4372320.652,-155.384
481838.150,4372270.652,-167.733
481838.150,4372220.652,-187.279
481838.150,4372170.652,-208.621
481888.150,4372820.652,-203.450
481888.150,4372770.652,-185.246
481888.150,4372720.652,-169.430
481888.150,4372670.652,-160.358
481888.150,4372620.652,-156.950
481888.150,4372570.652,-155.874
481888.150,4372520.652,-155.072
481888.150,4372470.652,-153.435
481888.150,4372420.652,-151.674
481888.150,4372370.652,-152.622
481888.150,4372320.652,-159.757
481888.150,4372270.652,-175.001
481888.150,4372220.652,-194.681
481938.150,4372820.652,-205.200
481938.150,4372770.652,-199.113
481938.150,4372720.652,-183.477
481938.150,4372670.652,-168.948
481938.150,4372620.652,-161.720
481938.150,4372570.652,-159.204
481938.150,4372520.652,-157.509
481938.150,4372470.652,-155.436
481938.150,4372420.652,-154.355
481938.150,4372370.652,-157.581
481938.150,4372320.652,-167.513
481938.150,4372270.652,-183.883
481938.150,4372220.652,-203.032
481988.150,4372770.652,-207.700
481988.150,4372720.652,-201.756
481988.150,4372670.652,-188.397
481988.150,4372620.652,-177.597
481988.150,4372570.652,-171.784
481988.150,4372520.652,-167.615
481988.150,4372470.652,-164.615
481988.150,4372420.652,-164.691
481988.150,4372370.652,-169.905
481988.150,4372320.652,-180.682
481988.150,4372270.652,-195.131
481988.150,4372220.652,-210.864
482038.150,4372720.652,-210.800
482038.150,4372670.652,-208.195
482038.150,4372620.652,-201.332
482038.150,4372570.652,-195.311
482038.150,4372520.652,-190.431
482038.150,4372470.652,-186.982
482038.150,4372420.652,-187.327
482038.150,4372370.652,-191.835
482038.150,4372320.652,-199.900
482038.150,4372270.652,-200.840
482038.150,4372220.652,-210.615
482088.150,4372670.652,-218.700
482088.150,4372620.652,-215.971
482088.150,4372570.652,-209.737
482088.150,4372520.652,-205.902
482088.150,4372470.652,-202.540
482088.150,4372420.652,-201.573
482088.150,4372370.652,-203.996
482088.150,4372320.652,-208.824
483388.150,4370670.652,-208.399
483388.150,4370620.652,-207.262
483388.150,4370570.652,-207.107
483388.150,4370520.652,-211.209
483438.150,4370770.652,-210.480
483438.150,4370720.652,-204.164
483438.150,4370670.652,-194.459
483438.150,4370620.652,-189.086
483438.150,4370570.652,-188.266
483438.150,4370520.652,-190.697
483438.150,4370470.652,-196.364
483438.150,4370420.652,-205.397
483488.150,4370870.652,-210.868
483488.150,4370820.652,-206.674
483488.150,4370770.652,-197.777
483488.150,4370720.652,-189.600
483488.150,4370670.652,-182.304
483488.150,4370620.652,-176.599
483488.150,4370570.652,-173.321
483488.150,4370520.652,-173.090
483488.150,4370470.652,-176.226
483488.150,4370420.652,-182.399
483488.150,4370370.652,-190.832
483488.150,4370320.652,-199.774
483488.150,4370270.652,-206.246
483488.150,4370220.652,-209.018
483538.150,4370970.652,-205.938
483538.150,4370920.652,-203.965
483538.150,4370870.652,-197.614
483538.150,4370820.652,-192.254
483538.150,4370770.652,-187.678
483538.150,4370720.652,-182.689
483538.150,4370670.652,-176.325
483538.150,4370620.652,-169.019
483538.150,4370570.652,-162.373
483538.150,4370520.652,-158.467
483538.150,4370470.652,-158.733
483538.150,4370420.652,-162.464
483538.150,4370370.652,-168.191
483538.150,4370320.652,-174.714
483538.150,4370270.652,-179.065
483538.150,4370220.652,-179.836
483538.150,4370170.652,-182.358
483538.150,4370120.652,-191.900
483538.150,4370070.652,-206.512
483588.150,4371120.652,-207.884
483588.150,4371070.652,-205.553
483588.150,4371020.652,-198.951
483588.150,4370970.652,-193.027
483588.150,4370920.652,-188.126
483588.150,4370870.652,-184.425
483588.150,4370820.652,-181.765
483588.150,4370770.652,-179.258
483588.150,4370720.652,-175.223
483588.150,4370670.652,-168.359
483588.150,4370620.652,-160.076
483588.150,4370570.652,-152.506
483588.150,4370520.652,-146.676
483588.150,4370470.652,-145.198
483588.150,4370420.652,-148.025
483588.150,4370370.652,-153.265
483588.150,4370320.652,-159.072
483588.150,4370270.652,-161.360
483588.150,4370220.652,-160.193
483588.150,4370170.652,-160.842
483588.150,4370120.652,-167.917
483588.150,4370070.652,-181.536
483588.150,4370020.652,-200.646
483638.150,4371220.652,-208.821
483638.150,4371170.652,-202.921
483638.150,4371120.652,-196.015
483638.150,4371070.652,-190.555
483638.150,4371020.652,-185.839
483638.150,4370970.652,-181.665
483638.150,4370920.652,-178.036
483638.150,4370870.652,-175.577
483638.150,4370820.652,-174.086
483638.150,4370770.652,-171.796
483638.150,4370720.652,-166.664
483638.150,4370670.652,-158.491
483638.150,4370620.652,-150.288
483638.150,4370570.652,-144.618
483638.150,4370520.652,-140.930
483638.150,4370470.652,-140.065
483638.150,4370420.652,-142.022
483638.150,4370370.652,-144.522
483638.150,4370320.652,-146.434
483638.150,4370270.652,-147.308
483638.150,4370220.652,-146.625
483638.150,4370170.652,-146.470
483638.150,4370120.652,-151.442
483638.150,4370070.652,-162.753
483638.150,4370020.652,-180.003
483638.150,4369970.652,-201.146
483688.150,4371270.652,-207.922
483688.150,4371220.652,-199.681
483688.150,4371170.652,-191.864
483688.150,4371120.652,-186.338
483688.150,4371070.652,-181.956
483688.150,4371020.652,-178.432
483688.150,4370970.652,-175.371
483688.150,4370920.652,-172.589
483688.150,4370870.652,-170.373
483688.150,4370820.652,-168.097
483688.150,4370770.652,-164.023
483688.150,4370720.652,-156.569
483688.150,4370670.652,-146.574
483688.150,4370620.652,-138.690
483688.150,4370570.652,-135.893
483688.150,4370520.652,-137.004
483688.150,4370470.652,-138.643
483688.150,4370420.652,-137.312
483688.150,4370370.652,-132.493
483688.150,4370320.652,-128.040
483688.150,4370270.652,-129.937
483688.150,4370220.652,-134.912
483688.150,4370170.652,-137.640
483688.150,4370120.652,-140.693
483688.150,4370070.652,-148.334
483688.150,4370020.652,-163.049
483688.150,4369970.652,-183.881
483688.150,4369920.652,-208.325
483738.150,4371320.652,-208.006
483738.150,4371270.652,-201.376
483738.150,4371220.652,-191.701
483738.150,4371170.652,-185.080
483738.150,4371120.652,-180.549
483738.150,4371070.652,-177.005
483738.150,4371020.652,-173.850
483738.150,4370970.652,-171.038
483738.150,4370920.652,-168.671
483738.150,4370870.652,-166.145
483738.150,4370820.652,-162.195
483738.150,4370770.652,-155.911
483738.150,4370720.652,-145.559
483738.150,4370670.652,-131.426
483738.150,4370620.652,-120.679
483738.150,4370570.652,-119.064
483738.150,4370520.652,-125.470
483738.150,4370470.652,-132.384
483738.150,4370420.652,-132.188
483738.150,4370370.652,-126.159
483738.150,4370320.652,-120.760
483738.150,4370270.652,-121.317
483738.150,4370220.652,-125.728
483738.150,4370170.652,-130.645
483738.150,4370120.652,-134.580
483738.150,4370070.652,-139.303
483738.150,4370020.652,-151.583
483738.150,4369970.652,-173.173
483738.150,4369920.652,-200.252
483788.150,4371320.652,-208.554
483788.150,4371270.652,-195.386
483788.150,4371220.652,-186.105
483788.150,4371170.652,-180.176
483788.150,4371120.652,-176.116
483788.150,4371070.652,-172.724
483788.150,4371020.652,-169.593
483788.150,4370970.652,-166.933
483788.150,4370920.652,-164.576
483788.150,4370870.652,-160.823
483788.150,4370820.652,-155.022
483788.150,4370770.652,-148.168
483788.150,4370720.652,-139.169
483788.150,4370670.652,-126.331
483788.150,4370620.652,-114.315
483788.150,4370570.652,-111.819
483788.150,4370520.652,-118.614
483788.150,4370470.652,-125.373
483788.150,4370420.652,-126.790
483788.150,4370370.652,-123.939
483788.150,4370320.652,-118.656
483788.150,4370270.652,-115.290
483788.150,4370220.652,-118.610
483788.150,4370170.652,-125.919
483788.150,4370120.652,-130.950
483788.150,4370070.652,-134.432
483788.150,4370020.652,-143.514
483788.150,4369970.652,-162.012
483788.150,4369920.652,-186.932
483838.150,4371370.652,-214.693
483838.150,4371320.652,-201.798
483838.150,4371270.652,-188.852
483838.150,4371220.652,-181.210
483838.150,4371170.652,-176.486
483838.150,4371120.652,-173.065
483838.150,4371070.652,-169.906
483838.150,4371020.652,-166.405
483838.150,4370970.652,-162.613
483838.150,4370920.652,-158.422
483838.150,4370870.652,-153.101
483838.150,4370820.652,-147.527
483838.150,4370770.652,-142.011
483838.150,4370720.652,-134.481
483838.150,4370670.652,-124.060
483838.150,4370620.652,-113.531
483838.150,4370570.652,-109.943
483838.150,4370520.652,-114.918
483838.150,4370470.652,-120.330
483838.150,4370420.652,-121.572
483838.150,4370370.652,-119.630
483838.150,4370320.652,-115.105
483838.150,4370270.652,-112.271
483838.150,4370220.652,-115.808
483838.150,4370170.652,-122.521
483838.150,4370120.652,-126.996
483838.150,4370070.652,-129.560
483838.150,4370020.652,-135.172
483838.150,4369970.652,-148.862
483838.150,4369920.652,-169.456
483838.150,4369870.652,-191.366
483888.150,4371420.652,-211.410
483888.150,4371370.652,-200.469
483888.150,4371320.652,-186.403
483888.150,4371270.652,-179.705
483888.150,4371220.652,-175.696
483888.150,4371170.652,-172.426
483888.150,4371120.652,-169.444
483888.150,4371070.652,-165.976
483888.150,4371020.652,-161.599
483888.150,4370970.652,-156.851
483888.150,4370920.652,-151.861
483888.150,4370870.652,-146.681
483888.150,4370820.652,-142.143
483888.150,4370770.652,-137.628
483888.150,4370720.652,-130.604
483888.150,4370670.652,-120.824
483888.150,4370620.652,-111.771
483888.150,4370570.652,-108.751
483888.150,4370520.652,-112.134
483888.150,4370470.652,-115.944
483888.150,4370420.652,-116.841
483888.150,4370370.652,-115.430
483888.150,4370320.652,-112.876
483888.150,4370270.652,-112.738
483888.150,4370220.652,-115.717
483888.150,4370170.652,-119.391
483888.150,4370120.652,-122.716
483888.150,4370070.652,-125.105
483888.150,4370020.652,-128.779
483888.150,4369970.652,-137.137
483888.150,4369920.652,-151.563
483888.150,4369870.652,-168.335
483888.150,4369820.652,-180.814
483888.150,4369770.652,-192.737
483938.150,4371420.652,-205.798
483938.150,4371370.652,-188.217
483938.150,4371320.652,-172.411
483938.150,4371270.652,-168.386
483938.150,4371220.652,-167.164
483938.150,4371170.652,-164.353
483938.150,4371120.652,-160.514
483938.150,4371070.652,-156.708
483938.150,4371020.652,-153.285
483938.150,4370970.652,-149.630
483938.150,4370920.652,-145.828
483938.150,4370870.652,-142.382
483938.150,4370820.652,-139.074
483938.150,4370770.652,-134.986
483938.150,4370720.652,-128.895
483938.150,4370670.652,-121.273
483938.150,4370620.652,-114.304
483938.150,4370570.652,-110.764
483938.150,4370520.652,-111.129
483938.150,4370470.652,-112.345
483938.150,4370420.652,-112.288
483938.150,4370370.652,-111.988
483938.150,4370320.652,-112.645
483938.150,4370270.652,-113.585
483938.150,4370220.652,-114.422
483938.150,4370170.652,-116.403
483938.150,4370120.652,-118.848
483938.150,4370070.652,-120.084
483938.150,4370020.652,-120.036
483938.150,4369970.652,-122.021
483938.150,4369920.652,-131.844
483938.150,4369870.652,-145.886
483938.150,4369820.652,-156.696
483938.150,4369770.652,-169.205
483938.150,4369720.652,-188.116
483988.150,4371420.652,-206.930
483988.150,4371370.652,-189.225
483988.150,4371320.652,-171.841
483988.150,4371270.652,-160.797
483988.150,4371220.652,-156.375
483988.150,4371170.652,-154.329
483988.150,4371120.652,-151.303
483988.150,4371070.652,-148.021
483988.150,4371020.652,-145.562
483988.150,4370970.652,-143.310
483988.150,4370920.652,-140.905
483988.150,4370870.652,-138.275
483988.150,4370820.652,-134.944
483988.150,4370770.652,-130.383
483988.150,4370720.652,-124.563
483988.150,4370670.652,-118.485
483988.150,4370620.652,-113.706
483988.150,4370570.652,-110.952
483988.150,4370520.652,-110.005
483988.150,4370470.652,-110.047
483988.150,4370420.652,-109.945
483988.150,4370370.652,-109.404
483988.150,4370320.652,-108.922
483988.150,4370270.652,-109.265
483988.150,4370220.652,-110.683
483988.150,4370170.652,-112.780
483988.150,4370120.652,-114.559
483988.150,4370070.652,-115.315
483988.150,4370020.652,-115.782
483988.150,4369970.652,-118.512
483988.150,4369920.652,-124.713
483988.150,4369870.652,-130.454
483988.150,4369820.652,-136.380
483988.150,4369770.652,-149.311
483988.150,4369720.652,-167.914
483988.150,4369670.652,-190.886
484038.150,4371470.652,-203.778
484038.150,4371420.652,-194.934
484038.150,4371370.652,-177.510
484038.150,4371320.652,-164.628
484038.150,4371270.652,-156.773
484038.150,4371220.652,-152.570
484038.150,4371170.652,-149.327
484038.150,4371120.652,-146.892
484038.150,4371070.652,-144.671
484038.150,4371020.652,-141.444
484038.150,4370970.652,-137.817
484038.150,4370920.652,-134.809
484038.150,4370870.652,-131.791
484038.150,4370820.652,-127.739
484038.150,4370770.652,-123.183
484038.150,4370720.652,-118.954
484038.150,4370670.652,-115.304
484038.150,4370620.652,-112.072
484038.150,4370570.652,-109.519
484038.150,4370520.652,-108.172
484038.150,4370470.652,-107.481
484038.150,4370420.652,-106.639
484038.150,4370370.652,-105.809
484038.150,4370320.652,-105.660
484038.150,4370270.652,-106.504
484038.150,4370220.652,-108.017
484038.150,4370170.652,-109.668
484038.150,4370120.652,-110.975
484038.150,4370070.652,-111.371
484038.150,4370020.652,-111.589
484038.150,4369970.652,-113.364
484038.150,4369920.652,-116.150
484038.150,4369870.652,-118.704
484038.150,4369820.652,-124.778
484038.150,4369770.652,-136.176
484038.150,4369720.652,-151.827
484038.150,4369670.652,-173.241
484038.150,4369620.652,-203.125
484088.150,4371470.652,-193.309
484088.150,4371420.652,-173.622
484088.150,4371370.652,-158.839
484088.150,4371320.652,-152.061
484088.150,4371270.652,-149.558
484088.150,4371220.652,-148.753
484088.150,4371170.652,-146.396
484088.150,4371120.652,-143.487
484088.150,4371070.652,-140.939
484088.150,4371020.652,-137.264
484088.150,4370970.652,-132.238
484088.150,4370920.652,-127.877
484088.150,4370870.652,-124.464
484088.150,4370820.652,-120.258
484088.150,4370770.652,-116.789
484088.150,4370720.652,-115.224
484088.150,4370670.652,-113.174
484088.150,4370620.652,-110.140
484088.150,4370570.652,-107.438
484088.150,4370520.652,-105.717
484088.150,4370470.652,-104.706
484088.150,4370420.652,-104.235
484088.150,4370370.652,-103.908
484088.150,4370320.652,-103.578
484088.150,4370270.652,-103.801
484088.150,4370220.652,-104.970
484088.150,4370170.652,-106.751
484088.150,4370120.652,-108.443
484088.150,4370070.652,-109.405
484088.150,4370020.652,-109.347
484088.150,4369970.652,-110.202
484088.150,4369920.652,-113.924
484088.150,4369870.652,-119.572
484088.150,4369820.652,-126.426
484088.150,4369770.652,-136.322
484088.150,4369720.652,-150.061
484088.150,4369670.652,-169.632
484088.150,4369620.652,-197.545
484138.150,4371520.652,-204.199
484138.150,4371470.652,-183.181
484138.150,4371420.652,-164.625
484138.150,4371370.652,-154.668
484138.150,4371320.652,-150.812
484138.150,4371270.652,-148.533
484138.150,4371220.652,-145.810
484138.150,4371170.652,-142.590
484138.150,4371120.652,-139.387
484138.150,4371070.652,-136.168
484138.150,4371020.652,-132.177
484138.150,4370970.652,-127.549
484138.150,4370920.652,-123.616
484138.150,4370870.652,-120.720
484138.150,4370820.652,-117.229
484138.150,4370770.652,-114.265
484138.150,4370720.652,-113.080
484138.150,4370670.652,-110.681
484138.150,4370620.652,-107.409
484138.150,4370570.652,-104.817
484138.150,4370520.652,-103.402
484138.150,4370470.652,-102.673
484138.150,4370420.652,-102.088
484138.150,4370370.652,-101.533
484138.150,4370320.652,-101.099
484138.150,4370270.652,-101.347
484138.150,4370220.652,-102.361
484138.150,4370170.652,-103.584
484138.150,4370120.652,-104.769
484138.150,4370070.652,-105.911
484138.150,4370020.652,-106.512
484138.150,4369970.652,-107.648
484138.150,4369920.652,-111.135
484138.150,4369870.652,-116.926
484138.150,4369820.652,-124.417
484138.150,4369770.652,-134.178
484138.150,4369720.652,-145.894
484138.150,4369670.652,-162.451
484138.150,4369620.652,-189.114
484188.150,4371570.652,-216.096
484188.150,4371520.652,-195.870
484188.150,4371470.652,-172.121
484188.150,4371420.652,-158.343
484188.150,4371370.652,-151.831
484188.150,4371320.652,-148.222
484188.150,4371270.652,-144.813
484188.150,4371220.652,-141.522
484188.150,4371170.652,-138.706
484188.150,4371120.652,-136.003
484188.150,4371070.652,-132.331
484188.150,4371020.652,-127.742
484188.150,4370970.652,-122.920
484188.150,4370920.652,-117.554
484188.150,4370870.652,-113.026
484188.150,4370820.652,-110.013
484188.150,4370770.652,-108.463
484188.150,4370720.652,-108.957
484188.150,4370670.652,-108.302
484188.150,4370620.652,-106.162
484188.150,4370570.652,-103.837
484188.150,4370520.652,-102.151
484188.150,4370470.652,-101.204
484188.150,4370420.652,-100.571
484188.150,4370370.652,-99.967
484188.150,4370320.652,-99.674
484188.150,4370270.652,-100.034
484188.150,4370220.652,-100.997
484188.150,4370170.652,-101.994
484188.150,4370120.652,-102.446
484188.150,4370070.652,-102.441
484188.150,4370020.652,-102.945
484188.150,4369970.652,-104.988
484188.150,4369920.652,-108.866
484188.150,4369870.652,-114.213
484188.150,4369820.652,-121.004
484188.150,4369770.652,-130.159
484188.150,4369720.652,-141.433
484188.150,4369670.652,-155.614
484188.150,4369620.652,-177.778
484238.150,4371570.652,-215.423
484238.150,4371520.652,-198.811
484238.150,4371470.652,-174.879
484238.150,4371420.652,-157.599
484238.150,4371370.652,-149.376
484238.150,4371320.652,-144.464
484238.150,4371270.652,-140.101
484238.150,4371220.652,-137.056
484238.150,4371170.652,-135.031
484238.150,4371120.652,-132.979
484238.150,4371070.652,-129.742
484238.150,4371020.652,-125.517
484238.150,4370970.652,-121.275
484238.150,4370920.652,-115.780
484238.150,4370870.652,-108.541
484238.150,4370820.652,-103.487
484238.150,4370770.652,-102.738
484238.150,4370720.652,-104.108
484238.150,4370670.652,-104.704
484238.150,4370620.652,-104.073
484238.150,4370570.652,-102.874
484238.150,4370520.652,-101.359
484238.150,4370470.652,-99.924
484238.150,4370420.652,-98.779
484238.150,4370370.652,-98.243
484238.150,4370320.652,-98.495
484238.150,4370270.652,-98.645
484238.150,4370220.652,-98.778
484238.150,4370170.652,-99.460
484238.150,4370120.652,-100.432
484238.150,4370070.652,-100.970
484238.150,4370020.652,-101.640
484238.150,4369970.652,-103.357
484238.150,4369920.652,-106.252
484238.150,4369870.652,-110.445
484238.150,4369820.652,-116.485
484238.150,4369770.652,-125.090
484238.150,4369720.652,-136.251
484238.150,4369670.652,-149.898
484238.150,4369620.652,-168.990
484238.150,4369570.652,-197.454
484288.150,4371570.652,-210.474
484288.150,4371520.652,-195.694
484288.150,4371470.652,-172.925
484288.150,4371420.652,-155.119
484288.150,4371370.652,-145.408
484288.150,4371320.652,-139.553
484288.150,4371270.652,-135.104
484288.150,4371220.652,-133.074
484288.150,4371170.652,-132.075
484288.150,4371120.652,-130.083
484288.150,4371070.652,-127.181
484288.150,4371020.652,-123.373
484288.150,4370970.652,-119.442
484288.150,4370920.652,-114.968
484288.150,4370870.652,-109.007
484288.150,4370820.652,-103.606
484288.150,4370770.652,-100.852
484288.150,4370720.652,-100.747
484288.150,4370670.652,-101.527
484288.150,4370620.652,-101.947
484288.150,4370570.652,-101.634
484288.150,4370520.652,-100.668
484288.150,4370470.652,-99.070
484288.150,4370420.652,-97.344
484288.150,4370370.652,-96.528
484288.150,4370320.652,-96.745
484288.150,4370270.652,-97.132
484288.150,4370220.652,-97.505
484288.150,4370170.652,-98.050
484288.150,4370120.652,-98.842
484288.150,4370070.652,-99.603
484288.150,4370020.652,-100.382
484288.150,4369970.652,-101.967
484288.150,4369920.652,-104.434
484288.150,4369870.652,-107.483
484288.150,4369820.652,-112.203
484288.150,4369770.652,-119.793
484288.150,4369720.652,-130.179
484288.150,4369670.652,-143.189
484288.150,4369620.652,-161.319
484288.150,4369570.652,-186.978
484338.150,4371570.652,-202.519
484338.150,4371520.652,-190.438
484338.150,4371470.652,-169.520
484338.150,4371420.652,-152.270
484338.150,4371370.652,-143.346
484338.150,4371320.652,-139.239
484338.150,4371270.652,-135.561
484338.150,4371220.652,-132.300
484338.150,4371170.652,-129.763
484338.150,4371120.652,-127.413
484338.150,4371070.652,-124.825
484338.150,4371020.652,-121.575
484338.150,4370970.652,-118.173
484338.150,4370920.652,-114.383
484338.150,4370870.652,-109.761
484338.150,4370820.652,-105.069
484338.150,4370770.652,-101.826
484338.150,4370720.652,-100.656
484338.150,4370670.652,-100.399
484338.150,4370620.652,-100.294
484338.150,4370570.652,-99.973
484338.150,4370520.652,-99.401
484338.150,4370470.652,-98.190
484338.150,4370420.652,-96.332
484338.150,4370370.652,-94.867
484338.150,4370320.652,-94.462
484338.150,4370270.652,-94.885
484338.150,4370220.652,-95.697
484338.150,4370170.652,-96.578
484338.150,4370120.652,-97.241
484338.150,4370070.652,-97.879
484338.150,4370020.652,-99.007
484338.150,4369970.652,-100.773
484338.150,4369920.652,-103.028
484338.150,4369870.652,-105.429
484338.150,4369820.652,-108.927
484338.150,4369770.652,-115.823
484338.150,4369720.652,-126.134
484338.150,4369670.652,-138.361
484338.150,4369620.652,-154.937
484338.150,4369570.652,-179.791
484388.150,4371570.652,-200.192
484388.150,4371520.652,-180.980
484388.150,4371470.652,-161.828
484388.150,4371420.652,-146.970
484388.150,4371370.652,-139.255
484388.150,4371320.652,-135.645
484388.150,4371270.652,-132.242
484388.150,4371220.652,-129.007
484388.150,4371170.652,-126.632
484388.150,4371120.652,-124.711
484388.150,4371070.652,-122.340
484388.150,4371020.652,-119.419
484388.150,4370970.652,-116.686
484388.150,4370920.652,-114.282
484388.150,4370870.652,-110.955
484388.150,4370820.652,-106.818
484388.150,4370770.652,-103.624
484388.150,4370720.652,-101.309
484388.150,4370670.652,-99.581
484388.150,4370620.652,-98.938
484388.150,4370570.652,-98.773
484388.150,4370520.652,-98.243
484388.150,4370470.652,-96.978
484388.150,4370420.652,-95.014
484388.150,4370370.652,-93.373
484388.150,4370320.652,-92.539
484388.150,4370270.652,-92.300
484388.150,4370220.652,-92.975
484388.150,4370170.652,-94.391
484388.150,4370120.652,-95.713
484388.150,4370070.652,-96.584
484388.150,4370020.652,-97.857
484388.150,4369970.652,-99.832
484388.150,4369920.652,-102.133
484388.150,4369870.652,-104.293
484388.150,4369820.652,-106.937
484388.150,4369770.652,-112.666
484388.150,4369720.652,-121.766
484388.150,4369670.652,-133.112
484388.150,4369620.652,-148.259
484388.150,4369570.652,-170.453
484388.150,4369520.652,-199.617
484438.150,4371620.652,-206.923
484438.150,4371570.652,-190.783
484438.150,4371520.652,-168.065
484438.150,4371470.652,-152.746
484438.150,4371420.652,-143.900
484438.150,4371370.652,-138.380
484438.150,4371320.652,-134.132
484438.150,4371270.652,-130.192
484438.150,4371220.652,-126.629
484438.150,4371170.652,-124.012
484438.150,4371120.652,-121.707
484438.150,4371070.652,-119.129
484438.150,4371020.652,-116.626
484438.150,4370970.652,-114.770
484438.150,4370920.652,-112.921
484438.150,4370870.652,-111.037
484438.150,4370820.652,-108.567
484438.150,4370770.652,-105.513
484438.150,4370720.652,-102.245
484438.150,4370670.652,-98.994
484438.150,4370620.652,-97.174
484438.150,4370570.652,-96.867
484438.150,4370520.652,-96.671
484438.150,4370470.652,-95.425
484438.150,4370420.652,-93.388
484438.150,4370370.652,-92.055
484438.150,4370320.652,-92.257
484438.150,4370270.652,-92.342
484438.150,4370220.652,-92.340
484438.150,4370170.652,-93.334
484438.150,4370120.652,-94.559
484438.150,4370070.652,-95.791
484438.150,4370020.652,-97.129
484438.150,4369970.652,-98.690
484438.150,4369920.652,-100.695
484438.150,4369870.652,-102.966
484438.150,4369820.652,-105.307
484438.150,4369770.652,-110.072
484438.150,4369720.652,-118.282
484438.150,4369670.652,-128.446
484438.150,4369620.652,-141.414
484438.150,4369570.652,-160.310
484438.150,4369520.652,-187.367
484488.150,4371620.652,-203.403
484488.150,4371570.652,-183.090
484488.150,4371520.652,-161.474
484488.150,4371470.652,-149.511
484488.150,4371420.652,-142.503
484488.150,4371370.652,-136.739
484488.150,4371320.652,-131.537
484488.150,4371270.652,-127.247
484488.150,4371220.652,-124.331
484488.150,4371170.652,-122.148
484488.150,4371120.652,-119.104
484488.150,4371070.652,-114.752
484488.150,4371020.652,-111.902
484488.150,4370970.652,-111.729
484488.150,4370920.652,-110.906
484488.150,4370870.652,-110.347
484488.150,4370820.652,-110.304
484488.150,4370770.652,-108.443
484488.150,4370720.652,-103.681
484488.150,4370670.652,-98.573
484488.150,4370620.652,-96.166
484488.150,4370570.652,-95.873
484488.150,4370520.652,-95.875
484488.150,4370470.652,-94.682
484488.150,4370420.652,-92.313
484488.150,4370370.652,-90.619
484488.150,4370320.652,-90.319
484488.150,4370270.652,-90.508
484488.150,4370220.652,-90.949
484488.150,4370170.652,-91.624
484488.150,4370120.652,-92.643
484488.150,4370070.652,-94.081
484488.150,4370020.652,-95.454
484488.150,4369970.652,-96.945
484488.150,4369920.652,-98.910
484488.150,4369870.652,-101.213
484488.150,4369820.652,-103.738
484488.150,4369770.652,-107.898
484488.150,4369720.652,-114.567
484488.150,4369670.652,-123.757
484488.150,4369620.652,-136.500
484488.150,4369570.652,-154.412
484488.150,4369520.652,-179.051
484538.150,4371620.652,-205.800
484538.150,4371570.652,-189.995
484538.150,4371520.652,-168.532
484538.150,4371470.652,-151.224
484538.150,4371420.652,-140.808
484538.150,4371370.652,-134.502
484538.150,4371320.652,-129.441
484538.150,4371270.652,-125.487
484538.150,4371220.652,-122.569
484538.150,4371170.652,-120.144
484538.150,4371120.652,-116.807
484538.150,4371070.652,-111.739
484538.150,4371020.652,-108.885
484538.150,4370970.652,-110.030
484538.150,4370920.652,-110.879
484538.150,4370870.652,-111.212
484538.150,4370820.652,-111.233
484538.150,4370770.652,-109.141
484538.150,4370720.652,-103.729
484538.150,4370670.652,-97.953
484538.150,4370620.652,-95.275
484538.150,4370570.652,-95.208
484538.150,4370520.652,-95.443
484538.150,4370470.652,-94.180
484538.150,4370420.652,-91.928
484538.150,4370370.652,-90.676
484538.150,4370320.652,-90.616
484538.150,4370270.652,-90.214
484538.150,4370220.652,-89.855
484538.150,4370170.652,-90.328
484538.150,4370120.652,-91.282
484538.150,4370070.652,-92.337
484538.150,4370020.652,-93.689
484538.150,4369970.652,-95.528
484538.150,4369920.652,-97.763
484538.150,4369870.652,-100.079
484538.150,4369820.652,-102.598
484538.150,4369770.652,-106.019
484538.150,4369720.652,-111.450
484538.150,4369670.652,-119.946
484538.150,4369620.652,-131.982
484538.150,4369570.652,-149.376
484538.150,4369520.652,-173.209
484538.150,4369470.652,-201.502
484588.150,4371570.652,-197.002
484588.150,4371520.652,-178.772
484588.150,4371470.652,-156.921
484588.150,4371420.652,-142.133
484588.150,4371370.652,-134.282
484588.150,4371320.652,-128.416
484588.150,4371270.652,-123.131
484588.150,4371220.652,-119.423
484588.150,4371170.652,-117.133
484588.150,4371120.652,-114.852
484588.150,4371070.652,-111.563
484588.150,4371020.652,-109.486
484588.150,4370970.652,-110.229
484588.150,4370920.652,-111.019
484588.150,4370870.652,-111.012
484588.150,4370820.652,-110.866
484588.150,4370770.652,-108.986
484588.150,4370720.652,-103.422
484588.150,4370670.652,-97.034
484588.150,4370620.652,-93.947
484588.150,4370570.652,-94.007
484588.150,4370520.652,-94.515
484588.150,4370470.652,-93.569
484588.150,4370420.652,-92.117
484588.150,4370370.652,-91.319
484588.150,4370320.652,-90.723
484588.150,4370270.652,-89.866
484588.150,4370220.652,-89.198
484588.150,4370170.652,-89.212
484588.150,4370120.652,-90.112
484588.150,4370070.652,-91.471
484588.150,4370020.652,-92.681
484588.150,4369970.652,-94.089
484588.150,4369920.652,-95.964
484588.150,4369870.652,-98.183
484588.150,4369820.652,-100.806
484588.150,4369770.652,-104.017
484588.150,4369720.652,-108.800
484588.150,4369670.652,-116.486
484588.150,4369620.652,-127.347
484588.150,4369570.652,-141.640
484588.150,4369520.652,-161.199
484588.150,4369470.652,-188.494
484638.150,4371570.652,-200.129
484638.150,4371520.652,-182.773
484638.150,4371470.652,-159.298
484638.150,4371420.652,-141.521
484638.150,4371370.652,-130.888
484638.150,4371320.652,-124.278
484638.150,4371270.652,-119.830
484638.150,4371220.652,-116.866
484638.150,4371170.652,-115.012
484638.150,4371120.652,-113.099
484638.150,4371070.652,-111.393
484638.150,4371020.652,-110.020
484638.150,4370970.652,-109.375
484638.150,4370920.652,-109.098
484638.150,4370870.652,-109.087
484638.150,4370820.652,-109.277
484638.150,4370770.652,-107.382
484638.150,4370720.652,-102.405
484638.150,4370670.652,-96.887
484638.150,4370620.652,-93.699
484638.150,4370570.652,-93.278
484638.150,4370520.652,-93.411
484638.150,4370470.652,-92.603
484638.150,4370420.652,-91.669
484638.150,4370370.652,-90.902
484638.150,4370320.652,-89.711
484638.150,4370270.652,-88.456
484638.150,4370220.652,-87.672
484638.150,4370170.652,-87.597
484638.150,4370120.652,-88.509
484638.150,4370070.652,-90.022
484638.150,4370020.652,-91.601
484638.150,4369970.652,-93.052
484638.150,4369920.652,-94.650
484638.150,4369870.652,-96.790
484638.150,4369820.652,-99.376
484638.150,4369770.652,-102.296
484638.150,4369720.652,-106.527
484638.150,4369670.652,-113.384
484638.150,4369620.652,-122.867
484638.150,4369570.652,-135.224
484638.150,4369520.652,-152.139
484638.150,4369470.652,-175.561
484688.150,4371570.652,-198.171
484688.150,4371520.652,-183.554
484688.150,4371470.652,-161.292
484688.150,4371420.652,-142.067
484688.150,4371370.652,-128.371
484688.150,4371320.652,-120.703
484688.150,4371270.652,-116.822
484688.150,4371220.652,-113.923
484688.150,4371170.652,-111.722
484688.150,4371120.652,-110.630
484688.150,4371070.652,-109.765
484688.150,4371020.652,-108.213
484688.150,4370970.652,-106.596
484688.150,4370920.652,-105.344
484688.150,4370870.652,-105.329
484688.150,4370820.652,-105.643
484688.150,4370770.652,-103.978
484688.150,4370720.652,-100.467
484688.150,4370670.652,-96.905
484688.150,4370620.652,-93.953
484688.150,4370570.652,-91.976
484688.150,4370520.652,-91.601
484688.150,4370470.652,-91.936
484688.150,4370420.652,-91.643
484688.150,4370370.652,-90.215
484688.150,4370320.652,-88.674
484688.150,4370270.652,-87.744
484688.150,4370220.652,-87.000
484688.150,4370170.652,-86.747
484688.150,4370120.652,-87.534
484688.150,4370070.652,-89.175
484688.150,4370020.652,-90.728
484688.150,4369970.652,-92.085
484688.150,4369920.652,-93.602
484688.150,4369870.652,-95.600
484688.150,4369820.652,-98.158
484688.150,4369770.652,-100.872
484688.150,4369720.652,-104.732
484688.150,4369670.652,-111.104
484688.150,4369620.652,-119.778
484688.150,4369570.652,-130.767
484688.150,4369520.652,-144.176
484688.150,4369470.652,-159.965
484688.150,4369420.652,-181.862
484738.150,4371570.652,-191.704
484738.150,4371520.652,-178.575
484738.150,4371470.652,-160.811
484738.150,4371420.652,-143.225
484738.150,4371370.652,-125.666
484738.150,4371320.652,-114.309
484738.150,4371270.652,-110.308
484738.150,4371220.652,-107.972
484738.150,4371170.652,-106.677
484738.150,4371120.652,-107.280
484738.150,4371070.652,-107.320
484738.150,4371020.652,-106.098
484738.150,4370970.652,-104.618
484738.150,4370920.652,-103.320
484738.150,4370870.652,-102.617
484738.150,4370820.652,-101.936
484738.150,4370770.652,-100.431
484738.150,4370720.652,-98.404
484738.150,4370670.652,-96.395
484738.150,4370620.652,-94.554
484738.150,4370570.652,-92.588
484738.150,4370520.652,-91.330
484738.150,4370470.652,-91.052
484738.150,4370420.652,-91.160
484738.150,4370370.652,-91.185
484738.150,4370320.652,-90.783
484738.150,4370270.652,-89.440
484738.150,4370220.652,-87.429
484738.150,4370170.652,-86.342
484738.150,4370120.652,-86.791
484738.150,4370070.652,-88.512
484738.150,4370020.652,-90.426
484738.150,4369970.652,-91.712
484738.150,4369920.652,-92.782
484738.150,4369870.652,-94.578
484738.150,4369820.652,-97.242
484738.150,4369770.652,-100.057
484738.150,4369720.652,-103.508
484738.150,4369670.652,-109.537
484738.150,4369620.652,-118.323
484738.150,4369570.652,-128.837
484738.150,4369520.652,-140.286
484738.150,4369470.652,-153.011
484738.150,4369420.652,-170.569
484738.150,4369370.652,-195.409
484788.150,4371620.652,-198.700
484788.150,4371570.652,-174.925
484788.150,4371520.652,-154.738
484788.150,4371470.652,-139.478
484788.150,4371420.652,-130.929
484788.150,4371370.652,-122.890
484788.150,4371320.652,-114.727
484788.150,4371270.652,-109.717
484788.150,4371220.652,-107.101
484788.150,4371170.652,-105.609
484788.150,4371120.652,-104.947
484788.150,4371070.652,-104.700
484788.150,4371020.652,-103.827
484788.150,4370970.652,-102.698
484788.150,4370920.652,-101.822
484788.150,4370870.652,-101.126
484788.150,4370820.652,-100.774
484788.150,4370770.652,-100.059
484788.150,4370720.652,-98.368
484788.150,4370670.652,-96.608
484788.150,4370620.652,-95.317
484788.150,4370570.652,-93.743
484788.150,4370520.652,-91.925
484788.150,4370470.652,-90.193
484788.150,4370420.652,-89.172
484788.150,4370370.652,-89.919
484788.150,4370320.652,-90.896
484788.150,4370270.652,-90.316
484788.150,4370220.652,-89.017
484788.150,4370170.652,-88.012
484788.150,4370120.652,-87.739
484788.150,4370070.652,-88.315
484788.150,4370020.652,-89.439
484788.150,4369970.652,-90.638
484788.150,4369920.652,-91.851
484788.150,4369870.652,-93.543
484788.150,4369820.652,-95.810
484788.150,4369770.652,-98.640
484788.150,4369720.652,-102.699
484788.150,4369670.652,-109.011
484788.150,4369620.652,-117.506
484788.150,4369570.652,-127.763
484788.150,4369520.652,-139.750
484788.150,4369470.652,-153.311
484788.150,4369420.652,-170.745
484788.150,4369370.652,-192.430
484838.150,4371670.652,-213.516
484838.150,4371620.652,-193.242
484838.150,4371570.652,-166.056
484838.150,4371520.652,-147.636
484838.150,4371470.652,-137.090
484838.150,4371420.652,-130.117
484838.150,4371370.652,-123.315
484838.150,4371320.652,-116.383
484838.150,4371270.652,-110.377
484838.150,4371220.652,-105.763
484838.150,4371170.652,-103.256
484838.150,4371120.652,-102.488
484838.150,4371070.652,-102.325
484838.150,4371020.652,-101.765
484838.150,4370970.652,-100.825
484838.150,4370920.652,-100.080
484838.150,4370870.652,-99.601
484838.150,4370820.652,-99.366
484838.150,4370770.652,-98.861
484838.150,4370720.652,-97.962
484838.150,4370670.652,-96.936
484838.150,4370620.652,-95.778
484838.150,4370570.652,-94.172
484838.150,4370520.652,-92.144
484838.150,4370470.652,-90.354
484838.150,4370420.652,-89.554
484838.150,4370370.652,-90.260
484838.150,4370320.652,-91.176
484838.150,4370270.652,-90.821
484838.150,4370220.652,-89.459
484838.150,4370170.652,-88.150
484838.150,4370120.652,-87.495
484838.150,4370070.652,-87.499
484838.150,4370020.652,-88.248
484838.150,4369970.652,-89.540
484838.150,4369920.652,-91.342
484838.150,4369870.652,-93.423
484838.150,4369820.652,-95.557
484838.150,4369770.652,-98.050
484838.150,4369720.652,-102.437
484838.150,4369670.652,-109.488
484838.150,4369620.652,-118.116
484838.150,4369570.652,-127.944
484838.150,4369520.652,-141.194
484838.150,4369470.652,-160.045
484838.150,4369420.652,-184.428
484888.150,4371670.652,-211.400
484888.150,4371620.652,-193.713
484888.150,4371570.652,-173.074
484888.150,4371520.652,-158.425
484888.150,4371470.652,-143.530
484888.150,4371420.652,-131.673
484888.150,4371370.652,-124.022
484888.150,4371320.652,-117.420
484888.150,4371270.652,-110.786
484888.150,4371220.652,-105.176
484888.150,4371170.652,-102.610
484888.150,4371120.652,-102.267
484888.150,4371070.652,-101.643
484888.150,4371020.652,-100.375
484888.150,4370970.652,-99.244
484888.150,4370920.652,-98.453
484888.150,4370870.652,-97.891
484888.150,4370820.652,-97.876
484888.150,4370770.652,-98.067
484888.150,4370720.652,-97.883
484888.150,4370670.652,-97.379
484888.150,4370620.652,-96.746
484888.150,4370570.652,-95.409
484888.150,4370520.652,-92.920
484888.150,4370470.652,-90.786
484888.150,4370420.652,-90.723
484888.150,4370370.652,-91.593
484888.150,4370320.652,-91.660
484888.150,4370270.652,-90.842
484888.150,4370220.652,-89.047
484888.150,4370170.652,-87.270
484888.150,4370120.652,-86.936
484888.150,4370070.652,-88.038
484888.150,4370020.652,-89.310
484888.150,4369970.652,-89.989
484888.150,4369920.652,-91.036
484888.150,4369870.652,-93.024
484888.150,4369820.652,-95.426
484888.150,4369770.652,-98.459
484888.150,4369720.652,-103.545
484888.150,4369670.652,-111.202
484888.150,4369620.652,-119.838
484888.150,4369570.652,-129.042
484888.150,4369520.652,-143.153
484888.150,4369470.652,-165.668
484888.150,4369420.652,-194.388
484938.150,4371620.652,-208.600
484938.150,4371570.652,-194.280
484938.150,4371520.652,-172.868
484938.150,4371470.652,-151.142
484938.150,4371420.652,-133.640
484938.150,4371370.652,-124.560
484938.150,4371320.652,-118.925
484938.150,4371270.652,-113.515
484938.150,4371220.652,-108.302
484938.150,4371170.652,-104.513
484938.150,4371120.652,-102.701
484938.150,4371070.652,-100.373
484938.150,4371020.652,-98.472
484938.150,4370970.652,-97.647
484938.150,4370920.652,-96.926
484938.150,4370870.652,-96.259
484938.150,4370820.652,-96.337
484938.150,4370770.652,-97.044
484938.150,4370720.652,-97.395
484938.150,4370670.652,-97.186
484938.150,4370620.652,-96.806
484938.150,4370570.652,-96.175
484938.150,4370520.652,-94.981
484938.150,4370470.652,-93.142
484938.150,4370420.652,-91.918
484938.150,4370370.652,-91.760
484938.150,4370320.652,-91.239
484938.150,4370270.652,-90.018
484938.150,4370220.652,-88.245
484938.150,4370170.652,-86.694
484938.150,4370120.652,-86.478
484938.150,4370070.652,-87.203
484938.150,4370020.652,-88.087
484938.150,4369970.652,-89.330
484938.150,4369920.652,-90.998
484938.150,4369870.652,-93.188
484938.150,4369820.652,-95.866
484938.150,4369770.652,-99.754
484938.150,4369720.652,-106.256
484938.150,4369670.652,-114.630
484938.150,4369620.652,-123.085
484938.150,4369570.652,-132.249
484938.150,4369520.652,-144.636
484938.150,4369470.652,-163.332
484938.150,4369420.652,-191.425
484988.150,4371570.652,-196.722
484988.150,4371520.652,-179.003
484988.150,4371470.652,-154.674
484988.150,4371420.652,-135.500
484988.150,4371370.652,-125.714
484988.150,4371320.652,-120.005
484988.150,4371270.652,-115.201
484988.150,4371220.652,-110.704
484988.150,4371170.652,-106.020
484988.150,4371120.652,-102.769
484988.150,4371070.652,-100.933
484988.150,4371020.652,-99.407
484988.150,4370970.652,-97.346
484988.150,4370920.652,-94.920
484988.150,4370870.652,-93.208
484988.150,4370820.652,-93.108
484988.150,4370770.652,-94.553
484988.150,4370720.652,-96.188
484988.150,4370670.652,-96.628
484988.150,4370620.652,-96.391
484988.150,4370570.652,-96.028
484988.150,4370520.652,-95.366
484988.150,4370470.652,-93.938
484988.150,4370420.652,-92.179
484988.150,4370370.652,-90.980
484988.150,4370320.652,-89.804
484988.150,4370270.652,-88.531
484988.150,4370220.652,-87.101
484988.150,4370170.652,-86.074
484988.150,4370120.652,-86.318
484988.150,4370070.652,-87.202
484988.150,4370020.652,-88.461
484988.150,4369970.652,-90.103
484988.150,4369920.652,-91.829
484988.150,4369870.652,-93.964
484988.150,4369820.652,-96.713
484988.150,4369770.652,-101.386
484988.150,4369720.652,-109.437
484988.150,4369670.652,-119.257
484988.150,4369620.652,-129.797
484988.150,4369570.652,-141.692
484988.150,4369520.652,-153.882
484988.150,4369470.652,-168.584
484988.150,4369420.652,-192.467
485038.150,4371570.652,-207.603
485038.150,4371520.652,-187.832
485038.150,4371470.652,-168.193
485038.150,4371420.652,-148.519
485038.150,4371370.652,-131.568
485038.150,4371320.652,-121.307
485038.150,4371270.652,-115.928
485038.150,4371220.652,-112.220
485038.150,4371170.652,-108.520
485038.150,4371120.652,-105.035
485038.150,4371070.652,-102.354
485038.150,4371020.652,-100.333
485038.150,4370970.652,-98.061
485038.150,4370920.652,-95.203
485038.150,4370870.652,-93.069
485038.150,4370820.652,-92.813
485038.150,4370770.652,-93.764
485038.150,4370720.652,-94.594
485038.150,4370670.652,-94.704
485038.150,4370620.652,-94.384
485038.150,4370570.652,-94.143
485038.150,4370520.652,-93.577
485038.150,4370470.652,-91.938
485038.150,4370420.652,-89.259
485038.150,4370370.652,-87.084
485038.150,4370320.652,-86.056
485038.150,4370270.652,-85.763
485038.150,4370220.652,-85.667
485038.150,4370170.652,-85.776
485038.150,4370120.652,-86.199
485038.150,4370070.652,-86.751
485038.150,4370020.652,-87.999
485038.150,4369970.652,-89.988
485038.150,4369920.652,-91.905
485038.150,4369870.652,-93.829
485038.150,4369820.652,-96.314
485038.150,4369770.652,-101.542
485038.150,4369720.652,-112.562
485038.150,4369670.652,-126.962
485038.150,4369620.652,-141.576
485038.150,4369570.652,-157.222
485038.150,4369520.652,-171.809
485038.150,4369470.652,-185.005
485038.150,4369420.652,-200.040
485088.150,4371570.652,-219.800
485088.150,4371520.652,-205.548
485088.150,4371470.652,-183.792
485088.150,4371420.652,-160.565
485088.150,4371370.652,-138.569
485088.150,4371320.652,-123.653
485088.150,4371270.652,-115.913
485088.150,4371220.652,-112.004
485088.150,4371170.652,-108.915
485088.150,4371120.652,-105.528
485088.150,4371070.652,-102.888
485088.150,4371020.652,-100.632
485088.150,4370970.652,-98.360
485088.150,4370920.652,-95.857
485088.150,4370870.652,-93.399
485088.150,4370820.652,-92.082
485088.150,4370770.652,-92.535
485088.150,4370720.652,-93.004
485088.150,4370670.652,-92.094
485088.150,4370620.652,-91.324
485088.150,4370570.652,-91.807
485088.150,4370520.652,-91.821
485088.150,4370470.652,-90.447
485088.150,4370420.652,-88.482
485088.150,4370370.652,-86.778
485088.150,4370320.652,-85.564
485088.150,4370270.652,-85.091
485088.150,4370220.652,-85.076
485088.150,4370170.652,-85.332
485088.150,4370120.652,-85.986
485088.150,4370070.652,-87.000
485088.150,4370020.652,-88.423
485088.150,4369970.652,-90.313
485088.150,4369920.652,-92.072
485088.150,4369870.652,-94.010
485088.150,4369820.652,-97.678
