349893.052,4238422.198,-650.339 
349893.052,4238322.198,-637.305 
349893.052,4238222.198,-624.507 
349893.052,4238122.198,-612.524 
349893.052,4238022.198,-598.103 
349893.052,4237922.198,-578.558 
349893.052,4237822.198,-564.384 
349893.052,4237722.198,-548.098 
349893.052,4237622.198,-533.968 
349893.052,4237522.198,-523.6 
349893.052,4237422.198,-513.808 
349893.052,4237322.198,-504.547 
349893.052,4237222.198,-493.451 
349893.052,4237122.198,-486.006 
349893.052,4237022.198,-473.986 
349893.052,4236922.198,-460.112 
349893.052,4236822.198,-449.415 
349893.052,4236722.198,-438.782 
349893.052,4236622.198,-427.512 
349893.052,4236522.198,-417.248 
349893.052,4236422.198,-400.132 
349893.052,4236322.198,-381.647 
349893.052,4236222.198,-366.536 
349893.052,4236122.198,-352.361 
349893.052,4236022.198,-349.527 
349893.052,4235922.198,-337.033 
349893.052,4235822.198,-323.051 
349893.052,4235722.198,-303.746 
349893.052,4235622.198,-278.597 
349893.052,4235522.198,-248.762 
349893.052,4235422.198,-205.316 
349893.052,4235322.198,-159.322 
349893.052,4235222.198,-150.338 
349893.052,4235122.198,-147.982 
349893.052,4235022.198,-146.7 
349893.052,4234922.198,-145.638 
349893.052,4234822.198,-145.039 
349893.052,4234722.198,-144.625 
349893.052,4234622.198,-144.853 
349893.052,4234522.198,-144.451 
349893.052,4234422.198,-144.11 
349893.052,4234322.198,-143.843 
349893.052,4234222.198,-143.141 
349893.052,4234122.198,-142.652 
349893.052,4234022.198,-142.301 
349893.052,4233922.198,-142.276 
349893.052,4233822.198,-141.444 
349893.052,4233722.198,-137.848 
349993.052,4238922.198,-677.878 
349993.052,4238822.198,-670.874 
349993.052,4238722.198,-666.995 
349993.052,4238622.198,-660.763 
349993.052,4238522.198,-657.733 
349993.052,4238422.198,-652.256 
349993.052,4238322.198,-643.537 
349993.052,4238222.198,-632.545 
349993.052,4238122.198,-620.904 
349993.052,4238022.198,-605.656 
349993.052,4237922.198,-583.547 
349993.052,4237822.198,-561.345 
349993.052,4237722.198,-545.851 
349993.052,4237622.198,-530.975 
349993.052,4237522.198,-518.566 
349993.052,4237422.198,-507.044 
349993.052,4237322.198,-496.187 
349993.052,4237222.198,-484.895 
349993.052,4237122.198,-478.708 
349993.052,4237022.198,-469.889 
349993.052,4236922.198,-456.251 
349993.052,4236822.198,-442.119 
349993.052,4236722.198,-429.229 
349993.052,4236622.198,-417.817 
349993.052,4236522.198,-408.495 
349993.052,4236422.198,-393.056 
349993.052,4236322.198,-374.391 
349993.052,4236222.198,-355.633 
349993.052,4236122.198,-340.025 
349993.052,4236022.198,-325.616 
349993.052,4235922.198,-315.042 
349993.052,4235822.198,-301.687 
349993.052,4235722.198,-284.267 
349993.052,4235622.198,-264.138 
349993.052,4235522.198,-232.009 
349993.052,4235422.198,-188.794 
349993.052,4235322.198,-154.531 
349993.052,4235222.198,-149.293 
349993.052,4235122.198,-147.08 
349993.052,4235022.198,-146.068 
349993.052,4234922.198,-145.141 
349993.052,4234822.198,-144.603 
349993.052,4234722.198,-144.234 
349993.052,4234622.198,-144.349 
349993.052,4234522.198,-143.965 
349993.052,4234422.198,-143.286 
349993.052,4234322.198,-142.806 
349993.052,4234222.198,-141.38 
349993.052,4234122.198,-139.494 
349993.052,4234022.198,-139.15 
349993.052,4233922.198,-139.279 
349993.052,4233822.198,-138.245 
349993.052,4233722.198,-129.377 
350093.052,4238922.198,-677.583 
350093.052,4238822.198,-670.435 
350093.052,4238722.198,-665.38 
350093.052,4238622.198,-659.821 
350093.052,4238522.198,-656.401 
350093.052,4238422.198,-650.435 
350093.052,4238322.198,-641.536 
350093.052,4238222.198,-632.55 
350093.052,4238122.198,-625.327 
350093.052,4238022.198,-611.184 
350093.052,4237922.198,-587.118 
350093.052,4237822.198,-559.87 
350093.052,4237722.198,-542.081 
350093.052,4237622.198,-527.235 
350093.052,4237522.198,-513.823 
350093.052,4237422.198,-501.653 
350093.052,4237322.198,-491.539 
350093.052,4237222.198,-475.984 
350093.052,4237122.198,-467.619 
350093.052,4237022.198,-460.358 
350093.052,4236922.198,-449.422 
350093.052,4236822.198,-434.986 
350093.052,4236722.198,-421.481 
350093.052,4236622.198,-407.181 
350093.052,4236522.198,-396.417 
350093.052,4236422.198,-380.908 
350093.052,4236322.198,-363.394 
350093.052,4236222.198,-346.722 
350093.052,4236122.198,-328.432 
350093.052,4236022.198,-315.003 
350093.052,4235922.198,-299.826 
350093.052,4235822.198,-283.435 
350093.052,4235722.198,-265.896 
350093.052,4235622.198,-246.974 
350093.052,4235522.198,-214.925 
350093.052,4235422.198,-166.986 
350093.052,4235322.198,-152.06 
350093.052,4235222.198,-148.258 
350093.052,4235122.198,-146.282 
350093.052,4235022.198,-145.423 
350093.052,4234922.198,-144.575 
350093.052,4234822.198,-144.069 
350093.052,4234722.198,-143.629 
350093.052,4234622.198,-143.85 
350093.052,4234522.198,-143.784 
350093.052,4234422.198,-141.959 
350093.052,4234322.198,-140.162 
350093.052,4234222.198,-139.728 
350093.052,4234122.198,-135.885 
350093.052,4234022.198,-133.824 
350093.052,4233922.198,-133.631 
350093.052,4233822.198,-130.906 
350193.052,4238922.198,-676.723 
350193.052,4238822.198,-671.702 
350193.052,4238722.198,-662.572 
350193.052,4238622.198,-655.25 
350193.052,4238522.198,-648.938 
350193.052,4238422.198,-645.249 
350193.052,4238322.198,-639.95 
350193.052,4238222.198,-631.404 
350193.052,4238122.198,-621.109 
350193.052,4238022.198,-606.869 
350193.052,4237922.198,-587.567 
350193.052,4237822.198,-563.31 
350193.052,4237722.198,-541.266 
350193.052,4237622.198,-524.681 
350193.052,4237522.198,-509.688 
350193.052,4237422.198,-496.795 
350193.052,4237322.198,-484.269 
350193.052,4237222.198,-469.932 
350193.052,4237122.198,-457.408 
350193.052,4237022.198,-448.906 
350193.052,4236922.198,-439.318 
350193.052,4236822.198,-427.078 
350193.052,4236722.198,-411.848 
350193.052,4236622.198,-395.707 
350193.052,4236522.198,-383.922 
350193.052,4236422.198,-370.503 
350193.052,4236322.198,-354.222 
350193.052,4236222.198,-337.184 
350193.052,4236122.198,-319.01 
350193.052,4236022.198,-304.354 
350193.052,4235922.198,-285.501 
350193.052,4235822.198,-266.657 
350193.052,4235722.198,-248.46 
350193.052,4235622.198,-228.002 
350193.052,4235522.198,-188.692 
350193.052,4235422.198,-156.517 
350193.052,4235322.198,-150.271 
350193.052,4235222.198,-147.286 
350193.052,4235122.198,-145.383 
350193.052,4235022.198,-144.809 
350193.052,4234922.198,-144.039 
350193.052,4234822.198,-143.596 
350193.052,4234722.198,-143.019 
350193.052,4234622.198,-143.156 
350193.052,4234522.198,-142.443 
350193.052,4234422.198,-140.445 
350193.052,4234322.198,-137.575 
350193.052,4234222.198,-139.235 
350193.052,4234122.198,-135.611 
350193.052,4234022.198,-128.932 
350193.052,4233922.198,-125.836 
350193.052,4233822.198,-122.325 
350293.052,4239022.198,-676.273 
350293.052,4238922.198,-672.615 
350293.052,4238822.198,-667.276 
350293.052,4238722.198,-659.194 
350293.052,4238622.198,-651.116 
350293.052,4238522.198,-645.779 
350293.052,4238422.198,-642.655 
350293.052,4238322.198,-638.811 
350293.052,4238222.198,-632.08 
350293.052,4238122.198,-620.149 
350293.052,4238022.198,-604.757 
350293.052,4237922.198,-588.268 
350293.052,4237822.198,-567.773 
350293.052,4237722.198,-544.369 
350293.052,4237622.198,-525.46 
350293.052,4237522.198,-508.316 
350293.052,4237422.198,-493.621 
350293.052,4237322.198,-479.747 
350293.052,4237222.198,-465.358 
350293.052,4237122.198,-450.69 
350293.052,4237022.198,-440.417 
350293.052,4236922.198,-429.548 
350293.052,4236822.198,-416.255 
350293.052,4236722.198,-402.511 
350293.052,4236622.198,-387.114 
350293.052,4236522.198,-370.978 
350293.052,4236422.198,-359.51 
350293.052,4236322.198,-345.261 
350293.052,4236222.198,-328.174 
350293.052,4236122.198,-309.77 
350293.052,4236022.198,-290.92 
350293.052,4235922.198,-270.048 
350293.052,4235822.198,-249.207 
350293.052,4235722.198,-231.266 
350293.052,4235622.198,-204.779 
350293.052,4235522.198,-164.854 
350293.052,4235422.198,-153.098 
350293.052,4235322.198,-148.835 
350293.052,4235222.198,-146.287 
350293.052,4235122.198,-144.838 
350293.052,4235022.198,-144.311 
350293.052,4234922.198,-143.646 
350293.052,4234822.198,-142.924 
350293.052,4234722.198,-142.6 
350293.052,4234622.198,-142.443 
350293.052,4234522.198,-140.888 
350293.052,4234422.198,-136.663 
350293.052,4234322.198,-135.581 
350293.052,4234222.198,-138.531 
350293.052,4234122.198,-135.286 
350393.052,4239122.198,-679.664 
350393.052,4239022.198,-673.056 
350393.052,4238922.198,-667.41 
350393.052,4238822.198,-660.887 
350393.052,4238722.198,-654.389 
350393.052,4238622.198,-645.265 
350393.052,4238522.198,-636.529 
350393.052,4238422.198,-630.888 
350393.052,4238322.198,-623.495 
350393.052,4238222.198,-620.506 
350393.052,4238122.198,-616.104 
350393.052,4238022.198,-605.238 
350393.052,4237922.198,-588.303 
350393.052,4237822.198,-567.835 
350393.052,4237722.198,-545.264 
350393.052,4237622.198,-526.255 
350393.052,4237522.198,-511.002 
350393.052,4237422.198,-494.082 
350393.052,4237322.198,-477.959 
350393.052,4237222.198,-463.304 
350393.052,4237122.198,-447.634 
350393.052,4237022.198,-433.728 
350393.052,4236922.198,-421.904 
350393.052,4236822.198,-406.747 
350393.052,4236722.198,-392.439 
350393.052,4236622.198,-378.172 
350393.052,4236522.198,-362.417 
350393.052,4236422.198,-350.177 
350393.052,4236322.198,-335.059 
350393.052,4236222.198,-317.695 
350393.052,4236122.198,-295.763 
350393.052,4236022.198,-277.02 
350393.052,4235922.198,-252.958 
350393.052,4235822.198,-231.964 
350393.052,4235722.198,-212.697 
350393.052,4235622.198,-177.662 
350393.052,4235522.198,-155.544 
350393.052,4235422.198,-151.057 
350393.052,4235322.198,-147.696 
350393.052,4235222.198,-145.58 
350393.052,4235122.198,-144.402 
350393.052,4235022.198,-143.917 
350393.052,4234922.198,-143.212 
350393.052,4234822.198,-142.541 
350393.052,4234722.198,-142.758 
350393.052,4234622.198,-142.569 
350393.052,4234522.198,-139.904 
350393.052,4234422.198,-135.056 
350393.052,4234322.198,-140.258 
350393.052,4234222.198,-138.629 
350393.052,4234122.198,-129.375 
350493.052,4239222.198,-679.179 
350493.052,4239122.198,-675.72 
350493.052,4239022.198,-669.851 
350493.052,4238922.198,-662.745 
350493.052,4238822.198,-655.667 
350493.052,4238722.198,-648.399 
350493.052,4238622.198,-639.781 
350493.052,4238522.198,-628.629 
350493.052,4238422.198,-617.132 
350493.052,4238322.198,-610.8 
350493.052,4238222.198,-604.887 
350493.052,4238122.198,-601.904 
350493.052,4238022.198,-600.719 
350493.052,4237922.198,-589.841 
350493.052,4237822.198,-571.699 
350493.052,4237722.198,-547.539 
350493.052,4237622.198,-526.011 
350493.052,4237522.198,-510.466 
350493.052,4237422.198,-494.241 
350493.052,4237322.198,-477.95 
350493.052,4237222.198,-462.552 
350493.052,4237122.198,-444.712 
350493.052,4237022.198,-427.746 
350493.052,4236922.198,-415.486 
350493.052,4236822.198,-399.742 
350493.052,4236722.198,-383.989 
350493.052,4236622.198,-369.889 
350493.052,4236522.198,-354.805 
350493.052,4236422.198,-343.208 
350493.052,4236322.198,-324.857 
350493.052,4236222.198,-305.127 
350493.052,4236122.198,-282.108 
350493.052,4236022.198,-259.326 
350493.052,4235922.198,-236.513 
350493.052,4235822.198,-217.12 
350493.052,4235722.198,-190.15 
350493.052,4235622.198,-159.404 
350493.052,4235522.198,-152.862 
350493.052,4235422.198,-149.523 
350493.052,4235322.198,-146.493 
350493.052,4235222.198,-144.951 
350493.052,4235122.198,-144.11 
350493.052,4235022.198,-143.646 
350493.052,4234922.198,-143.009 
350493.052,4234822.198,-142.382 
350493.052,4234722.198,-143.018 
350493.052,4234622.198,-143.953 
350493.052,4234522.198,-143.696 
350493.052,4234422.198,-141.908 
350493.052,4234322.198,-142.274 
350493.052,4234222.198,-139.634 
350593.052,4239322.198,-678.64 
350593.052,4239222.198,-668.987 
350593.052,4239122.198,-666.738 
350593.052,4239022.198,-664.157 
350593.052,4238922.198,-656.962 
350593.052,4238822.198,-650.435 
350593.052,4238722.198,-643.03 
350593.052,4238622.198,-635.321 
350593.052,4238522.198,-627.368 
350593.052,4238422.198,-614.328 
350593.052,4238322.198,-599.131 
350593.052,4238222.198,-590.466 
350593.052,4238122.198,-584.194 
350593.052,4238022.198,-583.403 
350593.052,4237922.198,-586.224 
350593.052,4237822.198,-569.962 
350593.052,4237722.198,-548.573 
350593.052,4237622.198,-525.716 
350593.052,4237522.198,-511.215 
350593.052,4237422.198,-495.727 
350593.052,4237322.198,-477.158 
350593.052,4237222.198,-460.78 
350593.052,4237122.198,-442.71 
350593.052,4237022.198,-423.476 
350593.052,4236922.198,-409.489 
350593.052,4236822.198,-393.111 
350593.052,4236722.198,-377.915 
350593.052,4236622.198,-363.528 
350593.052,4236522.198,-347.31 
350593.052,4236422.198,-334.906 
350593.052,4236322.198,-314.852 
350593.052,4236222.198,-290.471 
350593.052,4236122.198,-265.976 
350593.052,4236022.198,-242.356 
350593.052,4235922.198,-221.937 
350593.052,4235822.198,-202.274 
350593.052,4235722.198,-166.378 
350593.052,4235622.198,-154.556 
350593.052,4235522.198,-151.217 
350593.052,4235422.198,-148.322 
350593.052,4235322.198,-145.949 
350593.052,4235222.198,-144.615 
350593.052,4235122.198,-144.002 
350593.052,4235022.198,-143.417 
350593.052,4234922.198,-142.909 
350593.052,4234822.198,-142.51 
350593.052,4234722.198,-143.438 
350593.052,4234622.198,-144.823 
350593.052,4234522.198,-145.364 
350593.052,4234422.198,-144.61 
350593.052,4234322.198,-143.861 
350593.052,4234222.198,-140.108 
350693.052,4239322.198,-672.737 
350693.052,4239222.198,-665.163 
350693.052,4239122.198,-657.01 
350693.052,4239022.198,-655.684 
350693.052,4238922.198,-648.823 
350693.052,4238822.198,-641.937 
350693.052,4238722.198,-635.654 
350693.052,4238622.198,-630.125 
350693.052,4238522.198,-624.694 
350693.052,4238422.198,-613.992 
350693.052,4238322.198,-600.307 
350693.052,4238222.198,-585.137 
350693.052,4238122.198,-573.427 
350693.052,4238022.198,-564.484 
350693.052,4237922.198,-562.349 
350693.052,4237822.198,-563.524 
350693.052,4237722.198,-547.226 
350693.052,4237622.198,-523.877 
350693.052,4237522.198,-503.76 
350693.052,4237422.198,-489.036 
350693.052,4237322.198,-473.203 
350693.052,4237222.198,-455.774 
350693.052,4237122.198,-437.987 
350693.052,4237022.198,-419.477 
350693.052,4236922.198,-402.599 
350693.052,4236822.198,-387.652 
350693.052,4236722.198,-372.673 
350693.052,4236622.198,-358.003 
350693.052,4236522.198,-339.88 
350693.052,4236422.198,-325.567 
350693.052,4236322.198,-302.44 
350693.052,4236222.198,-274.733 
350693.052,4236122.198,-249.991 
350693.052,4236022.198,-228.084 
350693.052,4235922.198,-210.822 
350693.052,4235822.198,-181.85 
350693.052,4235722.198,-156.661 
350693.052,4235622.198,-152.548 
350693.052,4235522.198,-149.817 
350693.052,4235422.198,-147.289 
350693.052,4235322.198,-145.35 
350693.052,4235222.198,-144.309 
350693.052,4235122.198,-143.992 
350693.052,4235022.198,-143.4 
350693.052,4234922.198,-143.003 
350693.052,4234822.198,-142.86 
350693.052,4234722.198,-143.993 
350693.052,4234622.198,-144.92 
350693.052,4234522.198,-145.137 
350693.052,4234422.198,-145.02 
350693.052,4234322.198,-144.682 
350693.052,4234222.198,-141.168 
350793.052,4239422.198,-675.082 
350793.052,4239322.198,-667.467 
350793.052,4239222.198,-657.901 
350793.052,4239122.198,-647.757 
350793.052,4239022.198,-644.194 
350793.052,4238922.198,-643.399 
350793.052,4238822.198,-633 
350793.052,4238722.198,-624.28 
350793.052,4238622.198,-619.092 
350793.052,4238522.198,-614.716 
350793.052,4238422.198,-609.015 
350793.052,4238322.198,-596.883 
350793.052,4238222.198,-587.077 
350793.052,4238122.198,-575.15 
350793.052,4238022.198,-562.797 
350793.052,4237922.198,-548.586 
350793.052,4237822.198,-538.456 
350793.052,4237722.198,-532.674 
350793.052,4237622.198,-522.921 
350793.052,4237522.198,-501.512 
350793.052,4237422.198,-482.793 
350793.052,4237322.198,-466.191 
350793.052,4237222.198,-449.01 
350793.052,4237122.198,-433.087 
350793.052,4237022.198,-416.63 
350793.052,4236922.198,-399.428 
350793.052,4236822.198,-381.999 
350793.052,4236722.198,-367.234 
350793.052,4236622.198,-351.568 
350793.052,4236522.198,-331.921 
350793.052,4236422.198,-312.357 
350793.052,4236322.198,-284.554 
350793.052,4236222.198,-257.721 
350793.052,4236122.198,-235.356 
350793.052,4236022.198,-217.369 
350793.052,4235922.198,-199.931 
350793.052,4235822.198,-164.024 
350793.052,4235722.198,-153.681 
350793.052,4235622.198,-151.048 
350793.052,4235522.198,-148.619 
350793.052,4235422.198,-146.29 
350793.052,4235322.198,-144.911 
350793.052,4235222.198,-143.977 
350793.052,4235122.198,-143.892 
350793.052,4235022.198,-143.166 
350793.052,4234922.198,-143.091 
350793.052,4234822.198,-143.286 
350793.052,4234722.198,-144.54 
350793.052,4234622.198,-144.7 
350793.052,4234522.198,-144.202 
350793.052,4234422.198,-144.166 
350793.052,4234322.198,-144.23 
350793.052,4234222.198,-140.63 
350793.052,4234122.198,-122.849 
350893.052,4239522.198,-676.229 
350893.052,4239422.198,-669.479 
350893.052,4239322.198,-662.053 
350893.052,4239222.198,-652.666 
350893.052,4239122.198,-640.396 
350893.052,4239022.198,-628.826 
350893.052,4238922.198,-628.784 
350893.052,4238822.198,-624.942 
350893.052,4238722.198,-612.181 
350893.052,4238622.198,-602.975 
350893.052,4238522.198,-598.288 
350893.052,4238422.198,-596.407 
350893.052,4238322.198,-588.959 
350893.052,4238222.198,-578.826 
350893.052,4238122.198,-571.295 
350893.052,4238022.198,-568.307 
350893.052,4237922.198,-556.04 
350893.052,4237822.198,-536.837 
350893.052,4237722.198,-519.17 
350893.052,4237622.198,-507.722 
350893.052,4237522.198,-496.788 
350893.052,4237422.198,-480.751 
350893.052,4237322.198,-465.349 
350893.052,4237222.198,-447.795 
350893.052,4237122.198,-429.417 
350893.052,4237022.198,-409.992 
350893.052,4236922.198,-392.033 
350893.052,4236822.198,-376.093 
350893.052,4236722.198,-359.425 
350893.052,4236622.198,-342.691 
350893.052,4236522.198,-321.113 
350893.052,4236422.198,-297.964 
350893.052,4236322.198,-268.346 
350893.052,4236222.198,-242.66 
350893.052,4236122.198,-223.615 
350893.052,4236022.198,-208.981 
350893.052,4235922.198,-183.351 
350893.052,4235822.198,-156.092 
350893.052,4235722.198,-151.913 
350893.052,4235622.198,-149.574 
350893.052,4235522.198,-147.586 
350893.052,4235422.198,-145.45 
350893.052,4235322.198,-144.445 
350893.052,4235222.198,-143.709 
350893.052,4235122.198,-143.615 
350893.052,4235022.198,-142.651 
350893.052,4234922.198,-142.527 
350893.052,4234822.198,-143.369 
350893.052,4234722.198,-144.719 
350893.052,4234622.198,-144.596 
350893.052,4234522.198,-143.869 
350893.052,4234422.198,-143.182 
350893.052,4234322.198,-141.678 
350893.052,4234222.198,-137.594 
350893.052,4234122.198,-124.035 
350993.052,4239622.198,-676.16 
350993.052,4239522.198,-669.674 
350993.052,4239422.198,-664.264 
350993.052,4239322.198,-657.989 
350993.052,4239222.198,-648.687 
350993.052,4239122.198,-637.954 
350993.052,4239022.198,-623.937 
350993.052,4238922.198,-608.778 
350993.052,4238822.198,-614.622 
350993.052,4238722.198,-602.613 
350993.052,4238622.198,-589.392 
350993.052,4238522.198,-582.212 
350993.052,4238422.198,-581.212 
350993.052,4238322.198,-580.631 
350993.052,4238222.198,-570.359 
350993.052,4238122.198,-561.686 
350993.052,4238022.198,-556.35 
350993.052,4237922.198,-556.052 
350993.052,4237822.198,-548.682 
350993.052,4237722.198,-524.053 
350993.052,4237622.198,-499.925 
350993.052,4237522.198,-481.902 
350993.052,4237422.198,-471.137 
350993.052,4237322.198,-461.724 
350993.052,4237222.198,-445.195 
350993.052,4237122.198,-424.726 
350993.052,4237022.198,-403.171 
350993.052,4236922.198,-384.076 
350993.052,4236822.198,-365.708 
350993.052,4236722.198,-351.193 
350993.052,4236622.198,-333.369 
350993.052,4236522.198,-308.639 
350993.052,4236422.198,-282.809 
350993.052,4236322.198,-254.662 
350993.052,4236222.198,-231.752 
350993.052,4236122.198,-215.295 
350993.052,4236022.198,-201.54 
350993.052,4235922.198,-167.228 
350993.052,4235822.198,-153.346 
350993.052,4235722.198,-150.675 
350993.052,4235622.198,-148.413 
350993.052,4235522.198,-146.584 
350993.052,4235422.198,-144.975 
350993.052,4235322.198,-144.046 
350993.052,4235222.198,-143.447 
350993.052,4235122.198,-143.349 
350993.052,4235022.198,-142.417 
350993.052,4234922.198,-141.519 
350993.052,4234822.198,-143.241 
350993.052,4234722.198,-144.823 
350993.052,4234622.198,-144.412 
350993.052,4234522.198,-143.331 
350993.052,4234422.198,-142.514 
350993.052,4234322.198,-139.227 
350993.052,4234222.198,-134.855 
350993.052,4234122.198,-127.408 
351093.052,4239722.198,-678.269 
351093.052,4239622.198,-669.567 
351093.052,4239522.198,-661.979 
351093.052,4239422.198,-657.105 
351093.052,4239322.198,-653.978 
351093.052,4239222.198,-647.095 
351093.052,4239122.198,-634.629 
351093.052,4239022.198,-621.288 
351093.052,4238922.198,-600.599 
351093.052,4238822.198,-590.886 
351093.052,4238722.198,-594.915 
351093.052,4238622.198,-578.731 
351093.052,4238522.198,-566.994 
351093.052,4238422.198,-563.905 
351093.052,4238322.198,-572.412 
351093.052,4238222.198,-563.843 
351093.052,4238122.198,-547.792 
351093.052,4238022.198,-538.797 
351093.052,4237922.198,-535.703 
351093.052,4237822.198,-538.08 
351093.052,4237722.198,-537.806 
351093.052,4237622.198,-506.952 
351093.052,4237522.198,-478.453 
351093.052,4237422.198,-458.02 
351093.052,4237322.198,-448.712 
351093.052,4237222.198,-434.852 
351093.052,4237122.198,-415.563 
351093.052,4237022.198,-396.231 
351093.052,4236922.198,-375.755 
351093.052,4236822.198,-356.144 
351093.052,4236722.198,-339.193 
351093.052,4236622.198,-319.731 
351093.052,4236522.198,-292.682 
351093.052,4236422.198,-266.799 
351093.052,4236322.198,-241.759 
351093.052,4236222.198,-222.303 
351093.052,4236122.198,-209.01 
351093.052,4236022.198,-190.539 
351093.052,4235922.198,-157.654 
351093.052,4235822.198,-151.71 
351093.052,4235722.198,-149.541 
351093.052,4235622.198,-147.582 
351093.052,4235522.198,-145.75 
351093.052,4235422.198,-144.446 
351093.052,4235322.198,-143.902 
351093.052,4235222.198,-143.472 
351093.052,4235122.198,-143.315 
351093.052,4235022.198,-142.714 
351093.052,4234922.198,-141.471 
351093.052,4234822.198,-143.148 
351093.052,4234722.198,-144.573 
351093.052,4234622.198,-144.408 
351093.052,4234522.198,-143.305 
351093.052,4234422.198,-143.035 
351093.052,4234322.198,-137.475 
351093.052,4234222.198,-132.173 
351093.052,4234122.198,-125.602 
351193.052,4239722.198,-675.783 
351193.052,4239622.198,-664.291 
351193.052,4239522.198,-654.077 
351193.052,4239422.198,-645.247 
351193.052,4239322.198,-643.557 
351193.052,4239222.198,-641.039 
351193.052,4239122.198,-635.187 
351193.052,4239022.198,-616.922 
351193.052,4238922.198,-596.432 
351193.052,4238822.198,-572.81 
351193.052,4238722.198,-572.778 
351193.052,4238622.198,-569.495 
351193.052,4238522.198,-552.506 
351193.052,4238422.198,-545.138 
351193.052,4238322.198,-556.588 
351193.052,4238222.198,-556.662 
351193.052,4238122.198,-535.228 
351193.052,4238022.198,-520.755 
351193.052,4237922.198,-512.033 
351193.052,4237822.198,-510.679 
351193.052,4237722.198,-510.552 
351193.052,4237622.198,-512.86 
351193.052,4237522.198,-485.78 
351193.052,4237422.198,-453.918 
351193.052,4237322.198,-432.333 
351193.052,4237222.198,-419.077 
351193.052,4237122.198,-403.148 
351193.052,4237022.198,-385.855 
351193.052,4236922.198,-366.367 
351193.052,4236822.198,-345.322 
351193.052,4236722.198,-325.29 
351193.052,4236622.198,-304.124 
351193.052,4236522.198,-276.92 
351193.052,4236422.198,-252.212 
351193.052,4236322.198,-230.002 
351193.052,4236222.198,-214.755 
351193.052,4236122.198,-203.205 
351193.052,4236022.198,-175.264 
351193.052,4235922.198,-153.977 
351193.052,4235822.198,-150.475 
351193.052,4235722.198,-148.678 
351193.052,4235622.198,-146.879 
351193.052,4235522.198,-145.082 
351193.052,4235422.198,-144.143 
351193.052,4235322.198,-143.639 
351193.052,4235222.198,-143.679 
351193.052,4235122.198,-143.375 
351193.052,4235022.198,-142.693 
351193.052,4234922.198,-141.862 
351193.052,4234822.198,-143.29 
351193.052,4234722.198,-144.481 
351193.052,4234622.198,-144.481 
351193.052,4234522.198,-143.778 
351193.052,4234422.198,-144.185 
351193.052,4234322.198,-133.371 
351193.052,4234222.198,-129.206 
351293.052,4239922.198,-678.525 
351293.052,4239822.198,-672.885 
351293.052,4239722.198,-667.449 
351293.052,4239622.198,-659.89 
351293.052,4239522.198,-651.468 
351293.052,4239422.198,-637.958 
351293.052,4239322.198,-627.116 
351293.052,4239222.198,-622.505 
351293.052,4239122.198,-625.128 
351293.052,4239022.198,-615.66 
351293.052,4238922.198,-592.114 
351293.052,4238822.198,-565.971 
351293.052,4238722.198,-546.916 
351293.052,4238622.198,-552.436 
351293.052,4238522.198,-542.39 
351293.052,4238422.198,-527.952 
351293.052,4238322.198,-533.205 
351293.052,4238222.198,-542.038 
351293.052,4238122.198,-527.62 
351293.052,4238022.198,-503.805 
351293.052,4237922.198,-492.055 
351293.052,4237822.198,-487.79 
351293.052,4237722.198,-482.429 
351293.052,4237622.198,-485.434 
351293.052,4237522.198,-486.856 
351293.052,4237422.198,-459.194 
351293.052,4237322.198,-429.176 
351293.052,4237222.198,-405.979 
351293.052,4237122.198,-390.34 
351293.052,4237022.198,-373.579 
351293.052,4236922.198,-354.621 
351293.052,4236822.198,-334.919 
351293.052,4236722.198,-312.787 
351293.052,4236622.198,-288.407 
351293.052,4236522.198,-261.223 
351293.052,4236422.198,-239.003 
351293.052,4236322.198,-219.424 
351293.052,4236222.198,-209.362 
351293.052,4236122.198,-197.243 
351293.052,4236022.198,-162.544 
351293.052,4235922.198,-151.744 
351293.052,4235822.198,-149.112 
351293.052,4235722.198,-147.317 
351293.052,4235622.198,-146.045 
351293.052,4235522.198,-144.509 
351293.052,4235422.198,-143.806 
351293.052,4235322.198,-143.506 
351293.052,4235222.198,-143.884 
351293.052,4235122.198,-143.4 
351293.052,4235022.198,-142.561 
351293.052,4234922.198,-142.155 
351293.052,4234822.198,-143.469 
351293.052,4234722.198,-144.336 
351293.052,4234622.198,-144.769 
351293.052,4234522.198,-144.624 
351293.052,4234422.198,-145.445 
351293.052,4234322.198,-142.606 
351293.052,4234222.198,-126.309 
351393.052,4239922.198,-671.314 
351393.052,4239822.198,-664.667 
351393.052,4239722.198,-659.29 
351393.052,4239622.198,-654.199 
351393.052,4239522.198,-647.467 
351393.052,4239422.198,-636.854 
351393.052,4239322.198,-620.088 
351393.052,4239222.198,-602.785 
351393.052,4239122.198,-602.898 
351393.052,4239022.198,-604.387 
351393.052,4238922.198,-586.17 
351393.052,4238822.198,-560.722 
351393.052,4238722.198,-531.068 
351393.052,4238622.198,-525.037 
351393.052,4238522.198,-526.251 
351393.052,4238422.198,-513.664 
351393.052,4238322.198,-508.367 
351393.052,4238222.198,-516.814 
351393.052,4238122.198,-517.692 
351393.052,4238022.198,-493.896 
351393.052,4237922.198,-472.224 
351393.052,4237822.198,-464.453 
351393.052,4237722.198,-459.181 
351393.052,4237622.198,-452.417 
351393.052,4237522.198,-453.838 
351393.052,4237422.198,-451.968 
351393.052,4237322.198,-434.394 
351393.052,4237222.198,-407.017 
351393.052,4237122.198,-381.603 
351393.052,4237022.198,-361.5 
351393.052,4236922.198,-341.539 
351393.052,4236822.198,-319.948 
351393.052,4236722.198,-297.128 
351393.052,4236622.198,-272.982 
351393.052,4236522.198,-247.794 
351393.052,4236422.198,-229.103 
351393.052,4236322.198,-214.248 
351393.052,4236222.198,-204.667 
351393.052,4236122.198,-187.631 
351393.052,4236022.198,-156.075 
351393.052,4235922.198,-150.273 
351393.052,4235822.198,-148.14 
351393.052,4235722.198,-146.659 
351393.052,4235622.198,-145.283 
351393.052,4235522.198,-144.04 
351393.052,4235422.198,-143.505 
351393.052,4235322.198,-143.302 
351393.052,4235222.198,-143.832 
351393.052,4235122.198,-143.434 
351393.052,4235022.198,-142.622 
351393.052,4234922.198,-142.258 
351393.052,4234822.198,-143.312 
351393.052,4234722.198,-144.111 
351393.052,4234622.198,-144.536 
351393.052,4234522.198,-145.105 
351393.052,4234422.198,-144.782 
351393.052,4234322.198,-142.195 
351493.052,4240022.198,-674.491 
351493.052,4239922.198,-661.558 
351493.052,4239822.198,-655.274 
351493.052,4239722.198,-651.997 
351493.052,4239622.198,-647.388 
351493.052,4239522.198,-642.631 
351493.052,4239422.198,-631.095 
351493.052,4239322.198,-615.097 
351493.052,4239222.198,-589.924 
351493.052,4239122.198,-579.136 
351493.052,4239022.198,-579.76 
351493.052,4238922.198,-571.073 
351493.052,4238822.198,-554.404 
351493.052,4238722.198,-524.976 
351493.052,4238622.198,-504.503 
351493.052,4238522.198,-502.598 
351493.052,4238422.198,-502.258 
351493.052,4238322.198,-489.239 
351493.052,4238222.198,-484.565 
351493.052,4238122.198,-491.026 
351493.052,4238022.198,-481.721 
351493.052,4237922.198,-457.587 
351493.052,4237822.198,-443.62 
351493.052,4237722.198,-437.69 
351493.052,4237622.198,-428.573 
351493.052,4237522.198,-422.968 
351493.052,4237422.198,-422.744 
351493.052,4237322.198,-418.28 
351493.052,4237222.198,-397.606 
351493.052,4237122.198,-371.652 
351493.052,4237022.198,-348.637 
351493.052,4236922.198,-328.166 
351493.052,4236822.198,-305.771 
351493.052,4236722.198,-282.372 
351493.052,4236622.198,-257.36 
351493.052,4236522.198,-235.672 
351493.052,4236422.198,-220.65 
351493.052,4236322.198,-210.169 
351493.052,4236222.198,-201.496 
351493.052,4236122.198,-175.203 
351493.052,4236022.198,-153.175 
351493.052,4235922.198,-149.074 
351493.052,4235822.198,-147.439 
351493.052,4235722.198,-146.24 
351493.052,4235622.198,-144.647 
351493.052,4235522.198,-143.639 
351493.052,4235422.198,-143.237 
351493.052,4235322.198,-143.062 
351493.052,4235222.198,-143.391 
351493.052,4235122.198,-143.195 
351493.052,4235022.198,-142.559 
351493.052,4234922.198,-142.327 
351493.052,4234822.198,-143.079 
351493.052,4234722.198,-144.366 
351493.052,4234622.198,-143.819 
351493.052,4234522.198,-144.524 
351493.052,4234422.198,-143.725 
351493.052,4234322.198,-137.986 
351593.052,4240022.198,-662.443 
351593.052,4239922.198,-649.237 
351593.052,4239822.198,-638.687 
351593.052,4239722.198,-634.675 
351593.052,4239622.198,-636.541 
351593.052,4239522.198,-634.998 
351593.052,4239422.198,-629.099 
351593.052,4239322.198,-608.537 
351593.052,4239222.198,-581.665 
351593.052,4239122.198,-558.252 
351593.052,4239022.198,-551.537 
351593.052,4238922.198,-547.96 
351593.052,4238822.198,-535.298 
351593.052,4238722.198,-513.748 
351593.052,4238622.198,-494.868 
351593.052,4238522.198,-481.686 
351593.052,4238422.198,-483.625 
351593.052,4238322.198,-478.876 
351593.052,4238222.198,-462.551 
351593.052,4238122.198,-460.306 
351593.052,4238022.198,-458.105 
351593.052,4237922.198,-447.147 
351593.052,4237822.198,-427.92 
351593.052,4237722.198,-414.622 
351593.052,4237622.198,-407.535 
351593.052,4237522.198,-400.519 
351593.052,4237422.198,-396.34 
351593.052,4237322.198,-393.111 
351593.052,4237222.198,-380.423 
351593.052,4237122.198,-358.918 
351593.052,4237022.198,-334.261 
351593.052,4236922.198,-312.469 
351593.052,4236822.198,-291.5 
351593.052,4236722.198,-268.441 
351593.052,4236622.198,-244.383 
351593.052,4236522.198,-226.345 
351593.052,4236422.198,-213.877 
351593.052,4236322.198,-205.113 
351593.052,4236222.198,-196.908 
351593.052,4236122.198,-164.21 
351593.052,4236022.198,-151.466 
351593.052,4235922.198,-148.075 
351593.052,4235822.198,-146.54 
351593.052,4235722.198,-145.379 
351593.052,4235622.198,-144.048 
351593.052,4235522.198,-143.301 
351593.052,4235422.198,-143 
351593.052,4235322.198,-142.878 
351593.052,4235222.198,-142.951 
351593.052,4235122.198,-142.9 
351593.052,4235022.198,-142.517 
351593.052,4234922.198,-141.971 
351593.052,4234822.198,-142.874 
351593.052,4234722.198,-144.266 
351593.052,4234622.198,-143.487 
351593.052,4234522.198,-143.9 
351593.052,4234422.198,-143.017 
351593.052,4234322.198,-127.244 
351693.052,4240022.198,-658.037 
351693.052,4239922.198,-633.148 
351693.052,4239822.198,-618.823 
351693.052,4239722.198,-609.507 
351693.052,4239622.198,-612.194 
351693.052,4239522.198,-623.464 
351693.052,4239422.198,-623.561 
351693.052,4239322.198,-605.864 
351693.052,4239222.198,-574.622 
351693.052,4239122.198,-545.762 
351693.052,4239022.198,-529.51 
351693.052,4238922.198,-526.531 
351693.052,4238822.198,-522.256 
351693.052,4238722.198,-509.658 
351693.052,4238622.198,-489.219 
351693.052,4238522.198,-471.462 
351693.052,4238422.198,-460.596 
351693.052,4238322.198,-462.073 
351693.052,4238222.198,-452.749 
351693.052,4238122.198,-440.066 
351693.052,4238022.198,-433.422 
351693.052,4237922.198,-431.457 
351693.052,4237822.198,-418.2 
351693.052,4237722.198,-400.923 
351693.052,4237622.198,-389.83 
351693.052,4237522.198,-381.469 
351693.052,4237422.198,-374.012 
351693.052,4237322.198,-367.696 
351693.052,4237222.198,-357.332 
351693.052,4237122.198,-340.211 
351693.052,4237022.198,-318.062 
351693.052,4236922.198,-298.737 
351693.052,4236822.198,-277.498 
351693.052,4236722.198,-254.985 
351693.052,4236622.198,-234.649 
351693.052,4236522.198,-219.466 
351693.052,4236422.198,-209.168 
351693.052,4236322.198,-201.878 
351693.052,4236222.198,-190.27 
351693.052,4236122.198,-157.169 
351693.052,4236022.198,-149.945 
351693.052,4235922.198,-147.176 
351693.052,4235822.198,-145.879 
351693.052,4235722.198,-144.844 
351693.052,4235622.198,-143.447 
351693.052,4235522.198,-142.977 
351693.052,4235422.198,-142.643 
351693.052,4235322.198,-143.015 
351693.052,4235222.198,-142.709 
351693.052,4235122.198,-142.638 
351693.052,4235022.198,-142.674 
351693.052,4234922.198,-142.328 
351693.052,4234822.198,-142.759 
351693.052,4234722.198,-144.373 
351693.052,4234622.198,-143.52 
351693.052,4234522.198,-143.687 
351693.052,4234422.198,-142.317 
351693.052,4234322.198,-130.499 
351793.052,4240022.198,-661.8 
351793.052,4239922.198,-623.222 
351793.052,4239822.198,-600.674 
351793.052,4239722.198,-589.254 
351793.052,4239622.198,-584.638 
351793.052,4239522.198,-596.988 
351793.052,4239422.198,-605 
351793.052,4239322.198,-598.292 
351793.052,4239222.198,-567.884 
351793.052,4239122.198,-539.23 
351793.052,4239022.198,-515.057 
351793.052,4238922.198,-504.463 
351793.052,4238822.198,-501.919 
351793.052,4238722.198,-498.054 
351793.052,4238622.198,-483.433 
351793.052,4238522.198,-463.656 
351793.052,4238422.198,-449.588 
351793.052,4238322.198,-439.991 
351793.052,4238222.198,-440.201 
351793.052,4238122.198,-429.301 
351793.052,4238022.198,-418.125 
351793.052,4237922.198,-412.139 
351793.052,4237822.198,-403.997 
351793.052,4237722.198,-389.605 
351793.052,4237622.198,-376.483 
351793.052,4237522.198,-365.63 
351793.052,4237422.198,-356.428 
351793.052,4237322.198,-346.859 
351793.052,4237222.198,-336.212 
351793.052,4237122.198,-320.663 
351793.052,4237022.198,-302.999 
351793.052,4236922.198,-284.048 
351793.052,4236822.198,-263.525 
351793.052,4236722.198,-243.274 
351793.052,4236622.198,-226.853 
351793.052,4236522.198,-214.302 
351793.052,4236422.198,-205.672 
351793.052,4236322.198,-199.207 
351793.052,4236222.198,-180.83 
351793.052,4236122.198,-153.566 
351793.052,4236022.198,-148.732 
351793.052,4235922.198,-146.439 
351793.052,4235822.198,-145.541 
351793.052,4235722.198,-144.343 
351793.052,4235622.198,-142.946 
351793.052,4235522.198,-142.642 
351793.052,4235422.198,-142.6 
351793.052,4235322.198,-142.989 
351793.052,4235222.198,-142.643 
351793.052,4235122.198,-142.595 
351793.052,4235022.198,-142.639 
351793.052,4234922.198,-142.961 
351793.052,4234822.198,-143.92 
351793.052,4234722.198,-144.561 
351793.052,4234622.198,-143.625 
351793.052,4234522.198,-143.592 
351793.052,4234422.198,-141.818 
351793.052,4234322.198,-123.168 
351893.052,4240122.198,-668.209 
351893.052,4240022.198,-647.064 
351893.052,4239922.198,-618.108 
351893.052,4239822.198,-584.514 
351893.052,4239722.198,-565.062 
351893.052,4239622.198,-559.229 
351893.052,4239522.198,-562.781 
351893.052,4239422.198,-573.626 
351893.052,4239322.198,-577.399 
351893.052,4239222.198,-560.58 
351893.052,4239122.198,-533.775 
351893.052,4239022.198,-508.202 
351893.052,4238922.198,-488.332 
351893.052,4238822.198,-481.823 
351893.052,4238722.198,-478.229 
351893.052,4238622.198,-469.666 
351893.052,4238522.198,-456.062 
351893.052,4238422.198,-440.121 
351893.052,4238322.198,-427.247 
351893.052,4238222.198,-419.614 
351893.052,4238122.198,-418.784 
351893.052,4238022.198,-407.163 
351893.052,4237922.198,-395.557 
351893.052,4237822.198,-387.437 
351893.052,4237722.198,-376.217 
351893.052,4237622.198,-362.918 
351893.052,4237522.198,-350.839 
351893.052,4237422.198,-341.443 
351893.052,4237322.198,-330.82 
351893.052,4237222.198,-318.032 
351893.052,4237122.198,-303.143 
351893.052,4237022.198,-286.057 
351893.052,4236922.198,-267.339 
351893.052,4236822.198,-250.538 
351893.052,4236722.198,-233.933 
351893.052,4236622.198,-220.355 
351893.052,4236522.198,-210.412 
351893.052,4236422.198,-202.774 
351893.052,4236322.198,-196.926 
351893.052,4236222.198,-170.543 
351893.052,4236122.198,-151.56 
351893.052,4236022.198,-147.673 
351893.052,4235922.198,-145.739 
351893.052,4235822.198,-144.703 
351893.052,4235722.198,-143.844 
351893.052,4235622.198,-142.644 
351893.052,4235522.198,-142.404 
351893.052,4235422.198,-142.402 
351893.052,4235322.198,-142.928 
351893.052,4235222.198,-142.503 
351893.052,4235122.198,-142.592 
351893.052,4235022.198,-142.253 
351893.052,4234922.198,-142.569 
351893.052,4234822.198,-144.605 
351893.052,4234722.198,-144.765 
351893.052,4234622.198,-144.266 
351893.052,4234522.198,-143.83 
351893.052,4234422.198,-141.474 
351893.052,4234322.198,-122.329 
351993.052,4240222.198,-659.852 
351993.052,4240122.198,-639.954 
351993.052,4240022.198,-621.22 
351993.052,4239922.198,-597.43 
351993.052,4239822.198,-572.91 
351993.052,4239722.198,-549.721 
351993.052,4239622.198,-533.028 
351993.052,4239522.198,-529.97 
351993.052,4239422.198,-538.017 
351993.052,4239322.198,-546.543 
351993.052,4239222.198,-544.121 
351993.052,4239122.198,-522.987 
351993.052,4239022.198,-499.304 
351993.052,4238922.198,-477.851 
351993.052,4238822.198,-465.586 
351993.052,4238722.198,-458.488 
351993.052,4238622.198,-451.143 
351993.052,4238522.198,-443.196 
351993.052,4238422.198,-431.45 
351993.052,4238322.198,-417.48 
351993.052,4238222.198,-405.834 
351993.052,4238122.198,-399.679 
351993.052,4238022.198,-395.83 
351993.052,4237922.198,-384.351 
351993.052,4237822.198,-372.882 
351993.052,4237722.198,-361.406 
351993.052,4237622.198,-350.823 
351993.052,4237522.198,-338.337 
351993.052,4237422.198,-326.159 
351993.052,4237322.198,-315.28 
351993.052,4237222.198,-301.321 
351993.052,4237122.198,-285.221 
351993.052,4237022.198,-268.187 
351993.052,4236922.198,-251.849 
351993.052,4236822.198,-237.074 
351993.052,4236722.198,-225.174 
351993.052,4236622.198,-214.976 
351993.052,4236522.198,-206.995 
351993.052,4236422.198,-200.359 
351993.052,4236322.198,-194.103 
351993.052,4236222.198,-162.059 
351993.052,4236122.198,-150.102 
351993.052,4236022.198,-146.775 
351993.052,4235922.198,-145.1 
351993.052,4235822.198,-144.56 
351993.052,4235722.198,-143.444 
351993.052,4235622.198,-142.342 
351993.052,4235522.198,-142.202 
351993.052,4235422.198,-142.358 
351993.052,4235322.198,-142.954 
351993.052,4235222.198,-142.656 
351993.052,4235122.198,-142.953 
351993.052,4235022.198,-142.688 
351993.052,4234922.198,-142.251 
351993.052,4234822.198,-144.519 
351993.052,4234722.198,-145.289 
351993.052,4234622.198,-145.513 
351993.052,4234522.198,-144.132 
351993.052,4234422.198,-141.132 
352093.052,4240222.198,-647.456 
352093.052,4240122.198,-623.272 
352093.052,4240022.198,-602.769 
352093.052,4239922.198,-580.135 
352093.052,4239822.198,-554.779 
352093.052,4239722.198,-536.886 
352093.052,4239622.198,-521.086 
352093.052,4239522.198,-511.817 
352093.052,4239422.198,-508.308 
352093.052,4239322.198,-511.898 
352093.052,4239222.198,-514.172 
352093.052,4239122.198,-506.653 
352093.052,4239022.198,-487.33 
352093.052,4238922.198,-468.893 
352093.052,4238822.198,-453.58 
352093.052,4238722.198,-443.524 
352093.052,4238622.198,-435.395 
352093.052,4238522.198,-428.515 
352093.052,4238422.198,-417.12 
352093.052,4238322.198,-407.199 
352093.052,4238222.198,-395.09 
352093.052,4238122.198,-384.853 
352093.052,4238022.198,-379.367 
352093.052,4237922.198,-373.627 
352093.052,4237822.198,-361.365 
352093.052,4237722.198,-349.293 
352093.052,4237622.198,-337.628 
352093.052,4237522.198,-325.519 
352093.052,4237422.198,-312.757 
352093.052,4237322.198,-297.684 
352093.052,4237222.198,-285.054 
352093.052,4237122.198,-267.837 
352093.052,4237022.198,-251.342 
352093.052,4236922.198,-237.576 
352093.052,4236822.198,-225.848 
352093.052,4236722.198,-217.187 
352093.052,4236622.198,-209.821 
352093.052,4236522.198,-203.82 
352093.052,4236422.198,-198.054 
352093.052,4236322.198,-189.321 
352093.052,4236222.198,-156.779 
352093.052,4236122.198,-148.87 
352093.052,4236022.198,-145.936 
352093.052,4235922.198,-144.64 
352093.052,4235822.198,-143.581 
352093.052,4235722.198,-143.105 
352093.052,4235622.198,-142.142 
352093.052,4235522.198,-142.158 
352093.052,4235422.198,-142.395 
352093.052,4235322.198,-142.903 
352093.052,4235222.198,-142.856 
352093.052,4235122.198,-143.3 
352093.052,4235022.198,-144.02 
352093.052,4234922.198,-143.674 
352093.052,4234822.198,-144.216 
352093.052,4234722.198,-144.924 
352093.052,4234622.198,-144.84 
352093.052,4234522.198,-142.461 
352093.052,4234422.198,-139.191 
352093.052,4234322.198,-124.116 
352193.052,4240322.198,-675.294 
352193.052,4240222.198,-646.479 
352193.052,4240122.198,-611.183 
352193.052,4240022.198,-582.116 
352193.052,4239922.198,-559.315 
352193.052,4239822.198,-537.48 
352193.052,4239722.198,-520.755 
352193.052,4239622.198,-506.057 
352193.052,4239522.198,-495.992 
352193.052,4239422.198,-488.992 
352193.052,4239322.198,-485.514 
352193.052,4239222.198,-490.093 
352193.052,4239122.198,-488.339 
352193.052,4239022.198,-479.844 
352193.052,4238922.198,-460.718 
352193.052,4238822.198,-442.886 
352193.052,4238722.198,-431.161 
352193.052,4238622.198,-422.268 
352193.052,4238522.198,-412.968 
352193.052,4238422.198,-405.173 
352193.052,4238322.198,-395.215 
352193.052,4238222.198,-383.939 
352193.052,4238122.198,-372.13 
352193.052,4238022.198,-363.508 
352193.052,4237922.198,-356.705 
352193.052,4237822.198,-350.475 
352193.052,4237722.198,-338.409 
352193.052,4237622.198,-325.379 
352193.052,4237522.198,-313.102 
352193.052,4237422.198,-299.537 
352193.052,4237322.198,-284.182 
352193.052,4237222.198,-268.659 
352193.052,4237122.198,-252.583 
352193.052,4237022.198,-238.226 
352193.052,4236922.198,-226.788 
352193.052,4236822.198,-218.455 
352193.052,4236722.198,-211.874 
352193.052,4236622.198,-205.81 
352193.052,4236522.198,-200.453 
352193.052,4236422.198,-196.058 
352193.052,4236322.198,-182.25 
352193.052,4236222.198,-153.455 
352193.052,4236122.198,-147.872 
352193.052,4236022.198,-145.137 
352193.052,4235922.198,-144.141 
352193.052,4235822.198,-143.641 
352193.052,4235722.198,-142.746 
352193.052,4235622.198,-141.942 
352193.052,4235522.198,-142.002 
352193.052,4235422.198,-142.492 
352193.052,4235322.198,-143.006 
352193.052,4235222.198,-143 
352193.052,4235122.198,-143.4 
352193.052,4235022.198,-144.283 
352193.052,4234922.198,-144.659 
352193.052,4234822.198,-144.968 
352193.052,4234722.198,-144.447 
352193.052,4234622.198,-143.252 
352193.052,4234522.198,-140.104 
352193.052,4234422.198,-136.656 
352193.052,4234322.198,-130.932 
352193.052,4234222.198,-121.479 
352293.052,4240322.198,-661.185 
352293.052,4240222.198,-630.153 
352293.052,4240122.198,-597.032 
352293.052,4240022.198,-564.423 
352293.052,4239922.198,-541.762 
352293.052,4239822.198,-521.11 
352293.052,4239722.198,-506.587 
352293.052,4239622.198,-493.472 
352293.052,4239522.198,-482.746 
352293.052,4239422.198,-473.207 
352293.052,4239322.198,-468.09 
352293.052,4239222.198,-468.128 
352293.052,4239122.198,-467.441 
352293.052,4239022.198,-463.483 
352293.052,4238922.198,-451.374 
352293.052,4238822.198,-431.501 
352293.052,4238722.198,-419.247 
352293.052,4238622.198,-409.77 
352293.052,4238522.198,-401.1 
352293.052,4238422.198,-392.601 
352293.052,4238322.198,-383.298 
352293.052,4238222.198,-372.498 
352293.052,4238122.198,-360.683 
352293.052,4238022.198,-350.793 
352293.052,4237922.198,-341.286 
352293.052,4237822.198,-334.363 
352293.052,4237722.198,-326.613 
352293.052,4237622.198,-314.196 
352293.052,4237522.198,-301.28 
352293.052,4237422.198,-287.71 
352293.052,4237322.198,-271.497 
352293.052,4237222.198,-254.901 
352293.052,4237122.198,-240.627 
352293.052,4237022.198,-228.455 
352293.052,4236922.198,-219.605 
352293.052,4236822.198,-213.28 
352293.052,4236722.198,-207.455 
352293.052,4236622.198,-202.527 
352293.052,4236522.198,-197.797 
352293.052,4236422.198,-193.518 
352293.052,4236322.198,-173.539 
352293.052,4236222.198,-151.428 
352293.052,4236122.198,-146.818 
352293.052,4236022.198,-144.538 
352293.052,4235922.198,-143.741 
352293.052,4235822.198,-143.383 
352293.052,4235722.198,-142.445 
352293.052,4235622.198,-141.898 
352293.052,4235522.198,-142.057 
352293.052,4235422.198,-142.395 
352293.052,4235322.198,-143.059 
352293.052,4235222.198,-143.093 
352293.052,4235122.198,-143.488 
352293.052,4235022.198,-144.383 
352293.052,4234922.198,-145.316 
352293.052,4234822.198,-145.477 
352293.052,4234722.198,-144.182 
352293.052,4234622.198,-142.163 
352293.052,4234522.198,-137.374 
352293.052,4234422.198,-134.45 
352293.052,4234322.198,-129.129 
352293.052,4234222.198,-122.987 
352293.052,4234122.198,-120.102 
352393.052,4240422.198,-675.666 
352393.052,4240322.198,-643.234 
352393.052,4240222.198,-609.57 
352393.052,4240122.198,-573.687 
352393.052,4240022.198,-544.667 
352393.052,4239922.198,-524.331 
352393.052,4239822.198,-506.999 
352393.052,4239722.198,-493.934 
352393.052,4239622.198,-483.436 
352393.052,4239522.198,-473.258 
352393.052,4239422.198,-463.199 
352393.052,4239322.198,-454.637 
352393.052,4239222.198,-449.82 
352393.052,4239122.198,-446.239 
352393.052,4239022.198,-440.098 
352393.052,4238922.198,-430.399 
352393.052,4238822.198,-418.422 
352393.052,4238722.198,-406.342 
352393.052,4238622.198,-397.514 
352393.052,4238522.198,-388.823 
352393.052,4238422.198,-380.148 
352393.052,4238322.198,-371.137 
352393.052,4238222.198,-358.839 
352393.052,4238122.198,-347.185 
352393.052,4238022.198,-335.612 
352393.052,4237922.198,-326.444 
352393.052,4237822.198,-313.878 
352393.052,4237722.198,-311.861 
