314284.722,4244572.174,-766.184 
314284.722,4244372.174,-775.526 
314284.722,4244172.174,-778.584 
314284.722,4243972.174,-770.447 
314284.722,4243772.174,-770.069 
314284.722,4243572.174,-776.852 
314284.722,4243372.174,-788.42 
314284.722,4243172.174,-832.87 
314284.722,4242972.174,-851.683 
314284.722,4242772.174,-864.685 
314284.722,4242572.174,-880.148 
314284.722,4242372.174,-870.669 
314284.722,4242172.174,-842.569 
314284.722,4241972.174,-856.275 
314284.722,4241772.174,-866.59 
314284.722,4241572.174,-874.616 
314284.722,4241372.174,-867.197 
314284.722,4241172.174,-918.86 
314284.722,4240972.174,-970.96 
314284.722,4240772.174,-989.226 
314284.722,4240572.174,-1006.722 
314284.722,4240372.174,-1038.262 
314284.722,4240172.174,-1058.602 
314284.722,4239972.174,-1097.483 
314284.722,4239772.174,-1124.538 
314284.722,4239572.174,-1126.468 
314284.722,4239372.174,-1124.625 
314284.722,4239172.174,-1122.035 
314284.722,4238972.174,-1119.531 
314284.722,4238772.174,-1112.277 
314284.722,4238572.174,-1109.667 
314284.722,4238372.174,-1110.358 
314284.722,4238172.174,-1108.855 
314284.722,4237972.174,-1121.857 
314284.722,4237772.174,-1126.03 
314284.722,4237572.174,-1103.745 
314284.722,4237372.174,-1089.754 
314284.722,4237172.174,-1087.122 
314284.722,4236972.174,-1083.822 
314284.722,4236772.174,-1081.035 
314284.722,4236572.174,-1079.16 
314284.722,4236372.174,-1069.581 
314284.722,4236172.174,-1063.498 
314284.722,4235972.174,-1057.67 
314284.722,4235772.174,-1052.875 
314284.722,4235572.174,-1047.594 
314284.722,4235372.174,-1042.501 
314284.722,4235172.174,-1044.784 
314284.722,4234972.174,-1062.929 
314284.722,4234772.174,-1058.202 
314284.722,4234572.174,-1053.76 
314284.722,4234372.174,-1039.134 
314284.722,4234172.174,-1049.931 
314284.722,4233972.174,-1042.813 
314284.722,4233772.174,-1029.79 
314284.722,4233572.174,-1022.224 
314284.722,4233372.174,-1026.325 
314284.722,4233172.174,-1024.16 
314284.722,4232972.174,-1024.787 
314284.722,4232772.174,-1020.291 
314284.722,4232572.174,-1001.762 
314284.722,4232372.174,-990.255 
314284.722,4232172.174,-986.9 
314284.722,4231972.174,-981.427 
314284.722,4231772.174,-975.298 
314284.722,4231572.174,-971.432 
314284.722,4231372.174,-965.733 
314284.722,4231172.174,-963.386 
314284.722,4230972.174,-960.299 
314284.722,4230772.174,-960.496 
314284.722,4230572.174,-954.721 
314284.722,4230372.174,-948.597 
314284.722,4230172.174,-944.388 
314284.722,4229972.174,-936.906 
314284.722,4229772.174,-929.896 
314284.722,4229572.174,-923.473 
314284.722,4229372.174,-917.03 
314284.722,4229172.174,-906.556 
314284.722,4228972.174,-905.145 
314284.722,4228772.174,-900.955 
314284.722,4228572.174,-895.951 
314284.722,4228372.174,-891.674 
314284.722,4228172.174,-887.633 
314284.722,4227972.174,-880.755 
314284.722,4227772.174,-875.487 
314284.722,4227572.174,-869.285 
314284.722,4227372.174,-861.286 
314284.722,4227172.174,-850.641 
314284.722,4226972.174,-835.849 
314284.722,4226772.174,-826.386 
314284.722,4226572.174,-811.896 
314284.722,4226372.174,-799.35 
314284.722,4226172.174,-786.88 
314284.722,4225972.174,-777.525 
314284.722,4225772.174,-765.544 
314284.722,4225572.174,-750.458 
314284.722,4225372.174,-736.175 
314284.722,4225172.174,-719.909 
314284.722,4224972.174,-705.39 
314284.722,4224772.174,-688.954 
314284.722,4224572.174,-682.042 
314284.722,4224372.174,-672.421 
314284.722,4224172.174,-661.475 
314284.722,4223972.174,-649.395 
314284.722,4223772.174,-640.396 
314284.722,4223572.174,-629.199 
314284.722,4223372.174,-619.239 
314284.722,4223172.174,-608.344 
314284.722,4222972.174,-597.585 
314284.722,4222772.174,-590.54 
314284.722,4222572.174,-584.456 
314284.722,4222372.174,-576.242 
314284.722,4222172.174,-567.869 
314284.722,4221972.174,-551.242 
314284.722,4221772.174,-529.542 
314484.722,4245372.174,-712.206 
314484.722,4245172.174,-727.774 
314484.722,4244972.174,-752.939 
314484.722,4244772.174,-781.596 
314484.722,4244572.174,-796.58 
314484.722,4244372.174,-814.911 
314484.722,4244172.174,-819.546 
314484.722,4243972.174,-803.859 
314484.722,4243772.174,-805.01 
314484.722,4243572.174,-819.337 
314484.722,4243372.174,-856.456 
314484.722,4243172.174,-906.942 
314484.722,4242972.174,-939.245 
314484.722,4242772.174,-944.825 
314484.722,4242572.174,-971.178 
314484.722,4242372.174,-949.438 
314484.722,4242172.174,-894.576 
314484.722,4241972.174,-860.289 
314484.722,4241772.174,-872.343 
314484.722,4241572.174,-876.137 
314484.722,4241372.174,-916.205 
314484.722,4241172.174,-966.642 
314484.722,4240972.174,-1052.642 
314484.722,4240772.174,-1058.05 
314484.722,4240572.174,-1077.846 
314484.722,4240372.174,-1098.855 
314484.722,4240172.174,-1123.13 
314484.722,4239972.174,-1133.051 
314484.722,4239772.174,-1132.165 
314484.722,4239572.174,-1129.401 
314484.722,4239372.174,-1123.335 
314484.722,4239172.174,-1121.241 
314484.722,4238972.174,-1118.495 
314484.722,4238772.174,-1116.152 
314484.722,4238572.174,-1111.329 
314484.722,4238372.174,-1108.503 
314484.722,4238172.174,-1105.901 
314484.722,4237972.174,-1115.612 
314484.722,4237772.174,-1129.924 
314484.722,4237572.174,-1120.861 
314484.722,4237372.174,-1090.744 
314484.722,4237172.174,-1088.328 
314484.722,4236972.174,-1084.688 
314484.722,4236772.174,-1082.1 
314484.722,4236572.174,-1080.693 
314484.722,4236372.174,-1073.383 
314484.722,4236172.174,-1061.319 
314484.722,4235972.174,-1061.456 
314484.722,4235772.174,-1055.139 
314484.722,4235572.174,-1047.675 
314484.722,4235372.174,-1040.507 
314484.722,4235172.174,-1035.023 
314484.722,4234972.174,-1031.827 
314484.722,4234772.174,-1042.191 
314484.722,4234572.174,-1038.013 
314484.722,4234372.174,-1053.513 
314484.722,4234172.174,-1049.146 
314484.722,4233972.174,-1026.106 
314484.722,4233772.174,-1031.011 
314484.722,4233572.174,-1018.722 
314484.722,4233372.174,-1013.568 
314484.722,4233172.174,-1010.658 
314484.722,4232972.174,-1024.286 
314484.722,4232772.174,-1018.496 
314484.722,4232572.174,-1014.231 
314484.722,4232372.174,-1008.549 
314484.722,4232172.174,-990.15 
314484.722,4231972.174,-982.165 
314484.722,4231772.174,-976.165 
314484.722,4231572.174,-971.324 
314484.722,4231372.174,-964.974 
314484.722,4231172.174,-958.159 
314484.722,4230972.174,-953.405 
314484.722,4230772.174,-954.218 
314484.722,4230572.174,-952.184 
314484.722,4230372.174,-945.793 
314484.722,4230172.174,-939.553 
314484.722,4229972.174,-933.799 
314484.722,4229772.174,-926.398 
314484.722,4229572.174,-921.673 
314484.722,4229372.174,-911.797 
314484.722,4229172.174,-907.483 
314484.722,4228972.174,-902.341 
314484.722,4228772.174,-900.083 
314484.722,4228572.174,-895.594 
314484.722,4228372.174,-889.793 
314484.722,4228172.174,-883.091 
314484.722,4227972.174,-876.076 
314484.722,4227772.174,-870.162 
314484.722,4227572.174,-865.297 
314484.722,4227372.174,-858.958 
314484.722,4227172.174,-850.924 
314484.722,4226972.174,-835.053 
314484.722,4226772.174,-821.119 
314484.722,4226572.174,-810.323 
314484.722,4226372.174,-801.018 
314484.722,4226172.174,-792.693 
314484.722,4225972.174,-781.254 
314484.722,4225772.174,-767.131 
314484.722,4225572.174,-751.961 
314484.722,4225372.174,-737.449 
314484.722,4225172.174,-718.313 
314484.722,4224972.174,-704.142 
314484.722,4224772.174,-694.83 
314484.722,4224572.174,-681.815 
314484.722,4224372.174,-670.623 
314484.722,4224172.174,-660.335 
314484.722,4223972.174,-649.933 
314484.722,4223772.174,-639.932 
314484.722,4223572.174,-628.112 
314484.722,4223372.174,-616.738 
314484.722,4223172.174,-605.522 
314484.722,4222972.174,-596.566 
314484.722,4222772.174,-588.847 
314484.722,4222572.174,-581.738 
314484.722,4222372.174,-574.203 
314484.722,4222172.174,-564.231 
314484.722,4221972.174,-551.556 
314484.722,4221772.174,-538.728 
314484.722,4221572.174,-524.56 
314684.722,4245372.174,-734.025 
314684.722,4245172.174,-765.098 
314684.722,4244972.174,-802.79 
314684.722,4244772.174,-825.465 
314684.722,4244572.174,-838.29 
314684.722,4244372.174,-851.025 
314684.722,4244172.174,-851.032 
314684.722,4243972.174,-849.042 
314684.722,4243772.174,-867.349 
314684.722,4243572.174,-883.983 
314684.722,4243372.174,-925.065 
314684.722,4243172.174,-983.675 
314684.722,4242972.174,-994.436 
314684.722,4242772.174,-1012.783 
314684.722,4242572.174,-1039.829 
314684.722,4242372.174,-1017.941 
314684.722,4242172.174,-980.003 
314684.722,4241972.174,-875.492 
314684.722,4241772.174,-877.64 
314684.722,4241572.174,-910.468 
314684.722,4241372.174,-982.038 
314684.722,4241172.174,-1045.761 
314684.722,4240972.174,-1106.461 
314684.722,4240772.174,-1129.452 
314684.722,4240572.174,-1137.883 
314684.722,4240372.174,-1140.07 
314684.722,4240172.174,-1137.933 
314684.722,4239972.174,-1134.908 
314684.722,4239772.174,-1133.856 
314684.722,4239572.174,-1129.432 
314684.722,4239372.174,-1126.313 
314684.722,4239172.174,-1120.335 
314684.722,4238972.174,-1119.442 
314684.722,4238772.174,-1130.054 
314684.722,4238572.174,-1129.536 
314684.722,4238372.174,-1135.034 
314684.722,4238172.174,-1131.701 
314684.722,4237972.174,-1129.132 
314684.722,4237772.174,-1128.858 
314684.722,4237572.174,-1095.625 
314684.722,4237372.174,-1092.663 
314684.722,4237172.174,-1087.942 
314684.722,4236972.174,-1085.816 
314684.722,4236772.174,-1082.464 
314684.722,4236572.174,-1084.401 
314684.722,4236372.174,-1070.122 
314684.722,4236172.174,-1059.989 
314684.722,4235972.174,-1060.132 
314684.722,4235772.174,-1051.624 
314684.722,4235572.174,-1039.507 
314684.722,4235372.174,-1029.595 
314684.722,4235172.174,-1029.41 
314684.722,4234972.174,-1027.098 
314684.722,4234772.174,-1036.651 
314684.722,4234572.174,-1032.789 
314684.722,4234372.174,-1021.018 
314684.722,4234172.174,-1022.062 
314684.722,4233972.174,-1027.512 
314684.722,4233772.174,-1018.382 
314684.722,4233572.174,-1007.407 
314684.722,4233372.174,-1003.949 
314684.722,4233172.174,-999.466 
314684.722,4232972.174,-1005.904 
314684.722,4232772.174,-1017.098 
314684.722,4232572.174,-1014.541 
314684.722,4232372.174,-987.444 
314684.722,4232172.174,-984.014 
314684.722,4231972.174,-977.916 
314684.722,4231772.174,-971.11 
314684.722,4231572.174,-967.856 
314684.722,4231372.174,-964.341 
314684.722,4231172.174,-958.611 
314684.722,4230972.174,-954.06 
314684.722,4230772.174,-949.928 
314684.722,4230572.174,-944.927 
314684.722,4230372.174,-937.627 
314684.722,4230172.174,-934.552 
314684.722,4229972.174,-929.588 
314684.722,4229772.174,-924.991 
314684.722,4229572.174,-920.13 
314684.722,4229372.174,-910.069 
314684.722,4229172.174,-907.09 
314684.722,4228972.174,-900.97 
314684.722,4228772.174,-897.157 
314684.722,4228572.174,-892.616 
314684.722,4228372.174,-888.288 
314684.722,4228172.174,-881.415 
314684.722,4227972.174,-873.413 
314684.722,4227772.174,-862.399 
314684.722,4227572.174,-860.419 
314684.722,4227372.174,-854.684 
314684.722,4227172.174,-849.086 
314684.722,4226972.174,-831.287 
314684.722,4226772.174,-813.96 
314684.722,4226572.174,-801.73 
314684.722,4226372.174,-791.545 
314684.722,4226172.174,-782.755 
314684.722,4225972.174,-770.715 
314684.722,4225772.174,-757.556 
314684.722,4225572.174,-745.007 
314684.722,4225372.174,-730.806 
314684.722,4225172.174,-716.778 
314684.722,4224972.174,-697.225 
314684.722,4224772.174,-685.974 
314684.722,4224572.174,-676.784 
314684.722,4224372.174,-670.356 
314684.722,4224172.174,-660.592 
314684.722,4223972.174,-649.275 
314684.722,4223772.174,-639.422 
314684.722,4223572.174,-628.066 
314684.722,4223372.174,-614.54 
314684.722,4223172.174,-600.95 
314684.722,4222972.174,-594.084 
314684.722,4222772.174,-587.373 
314684.722,4222572.174,-577.494 
314684.722,4222372.174,-572.021 
314684.722,4222172.174,-563.617 
314684.722,4221972.174,-552.536 
314684.722,4221772.174,-541.733 
314684.722,4221572.174,-529.091 
314884.722,4245372.174,-772.283 
314884.722,4245172.174,-797.668 
314884.722,4244972.174,-850.262 
314884.722,4244772.174,-867.253 
314884.722,4244572.174,-869.366 
314884.722,4244372.174,-873.098 
314884.722,4244172.174,-871.127 
314884.722,4243972.174,-884.027 
314884.722,4243772.174,-927.31 
314884.722,4243572.174,-952.685 
314884.722,4243372.174,-984.308 
314884.722,4243172.174,-1017.915 
314884.722,4242972.174,-1067.656 
314884.722,4242772.174,-1071.707 
314884.722,4242572.174,-1060.518 
314884.722,4242372.174,-1053.75 
314884.722,4242172.174,-1024.936 
314884.722,4241972.174,-901.704 
314884.722,4241772.174,-940.606 
314884.722,4241572.174,-998.808 
314884.722,4241372.174,-1060.592 
314884.722,4241172.174,-1117.817 
314884.722,4240972.174,-1147.73 
314884.722,4240772.174,-1142.918 
314884.722,4240572.174,-1141.002 
314884.722,4240372.174,-1138.486 
314884.722,4240172.174,-1136.717 
314884.722,4239972.174,-1137.396 
314884.722,4239772.174,-1135.596 
314884.722,4239572.174,-1131.875 
314884.722,4239372.174,-1132.464 
314884.722,4239172.174,-1149.2 
314884.722,4238972.174,-1146.153 
314884.722,4238772.174,-1143.752 
314884.722,4238572.174,-1137.791 
314884.722,4238372.174,-1135.213 
314884.722,4238172.174,-1133.163 
314884.722,4237972.174,-1131.759 
314884.722,4237772.174,-1100.361 
314884.722,4237572.174,-1098.19 
314884.722,4237372.174,-1098.446 
314884.722,4237172.174,-1092.811 
314884.722,4236972.174,-1085.291 
314884.722,4236772.174,-1085.279 
314884.722,4236572.174,-1078.067 
314884.722,4236372.174,-1068.693 
314884.722,4236172.174,-1061.451 
314884.722,4235972.174,-1056.132 
314884.722,4235772.174,-1040.838 
314884.722,4235572.174,-1040.665 
314884.722,4235372.174,-1027.264 
314884.722,4235172.174,-1027.4 
314884.722,4234972.174,-1017.792 
314884.722,4234772.174,-1020.853 
314884.722,4234572.174,-1023.025 
314884.722,4234372.174,-1019.365 
314884.722,4234172.174,-1016.429 
314884.722,4233972.174,-1013.138 
314884.722,4233772.174,-1009.918 
314884.722,4233572.174,-1005.485 
314884.722,4233372.174,-1002.335 
314884.722,4233172.174,-999.701 
314884.722,4232972.174,-997.215 
314884.722,4232772.174,-993.244 
314884.722,4232572.174,-1015.546 
314884.722,4232372.174,-1011.872 
314884.722,4232172.174,-985.766 
314884.722,4231972.174,-979.83 
314884.722,4231772.174,-973.862 
314884.722,4231572.174,-972.127 
314884.722,4231372.174,-961.721 
314884.722,4231172.174,-954.86 
314884.722,4230972.174,-948.615 
314884.722,4230772.174,-945.913 
314884.722,4230572.174,-945.513 
314884.722,4230372.174,-941.423 
314884.722,4230172.174,-934.841 
314884.722,4229972.174,-930.569 
314884.722,4229772.174,-922.81 
314884.722,4229572.174,-916.401 
314884.722,4229372.174,-912.304 
314884.722,4229172.174,-907.153 
314884.722,4228972.174,-900.492 
314884.722,4228772.174,-894.609 
314884.722,4228572.174,-889.911 
314884.722,4228372.174,-886.073 
314884.722,4228172.174,-879.565 
314884.722,4227972.174,-873.119 
314884.722,4227772.174,-865.33 
314884.722,4227572.174,-856.535 
314884.722,4227372.174,-852.021 
314884.722,4227172.174,-843.568 
314884.722,4226972.174,-831.264 
314884.722,4226772.174,-816.719 
314884.722,4226572.174,-802.046 
314884.722,4226372.174,-789.615 
314884.722,4226172.174,-777.191 
314884.722,4225972.174,-763.066 
314884.722,4225772.174,-749.886 
314884.722,4225572.174,-736.925 
314884.722,4225372.174,-720.184 
314884.722,4225172.174,-703.293 
314884.722,4224972.174,-688.545 
314884.722,4224772.174,-679.387 
314884.722,4224572.174,-672.094 
314884.722,4224372.174,-664.613 
314884.722,4224172.174,-653.742 
314884.722,4223972.174,-644.581 
314884.722,4223772.174,-634.716 
314884.722,4223572.174,-623.092 
314884.722,4223372.174,-606.046 
314884.722,4223172.174,-598.36 
314884.722,4222972.174,-592.683 
314884.722,4222772.174,-585.78 
314884.722,4222572.174,-578.61 
314884.722,4222372.174,-570.475 
314884.722,4222172.174,-563.56 
314884.722,4221972.174,-553.706 
314884.722,4221772.174,-540.893 
314884.722,4221572.174,-531.309 
315084.722,4245372.174,-818.488 
315084.722,4245172.174,-869.855 
315084.722,4244972.174,-908.889 
315084.722,4244772.174,-927.37 
315084.722,4244572.174,-925.161 
315084.722,4244372.174,-919.582 
315084.722,4244172.174,-912.447 
315084.722,4243972.174,-920.769 
315084.722,4243772.174,-959.615 
315084.722,4243572.174,-996.471 
315084.722,4243372.174,-1028.002 
315084.722,4243172.174,-1058.706 
315084.722,4242972.174,-1099.257 
315084.722,4242772.174,-1117.465 
315084.722,4242572.174,-1118.06 
315084.722,4242372.174,-1106.24 
315084.722,4242172.174,-1052.819 
315084.722,4241972.174,-985.05 
315084.722,4241772.174,-1031.424 
315084.722,4241572.174,-1125.541 
315084.722,4241372.174,-1154.108 
315084.722,4241172.174,-1150.784 
315084.722,4240972.174,-1147.899 
315084.722,4240772.174,-1146.178 
315084.722,4240572.174,-1148.605 
315084.722,4240372.174,-1143.717 
315084.722,4240172.174,-1145.541 
315084.722,4239972.174,-1143.973 
315084.722,4239772.174,-1134.312 
315084.722,4239572.174,-1135.608 
315084.722,4239372.174,-1152.724 
315084.722,4239172.174,-1142.914 
315084.722,4238972.174,-1128.727 
315084.722,4238772.174,-1118.77 
315084.722,4238572.174,-1118.266 
315084.722,4238372.174,-1123.508 
315084.722,4238172.174,-1109.833 
315084.722,4237972.174,-1103.961 
315084.722,4237772.174,-1102.878 
315084.722,4237572.174,-1099.824 
315084.722,4237372.174,-1090.404 
315084.722,4237172.174,-1079.219 
315084.722,4236972.174,-1075.433 
315084.722,4236772.174,-1071.799 
315084.722,4236572.174,-1069.347 
315084.722,4236372.174,-1065.143 
315084.722,4236172.174,-1059.065 
315084.722,4235972.174,-1050.564 
315084.722,4235772.174,-1042.189 
315084.722,4235572.174,-1037.253 
315084.722,4235372.174,-1029.824 
315084.722,4235172.174,-1025.298 
315084.722,4234972.174,-1016.721 
315084.722,4234772.174,-1020.867 
315084.722,4234572.174,-1021.487 
315084.722,4234372.174,-1020.616 
315084.722,4234172.174,-1017.172 
315084.722,4233972.174,-1011.873 
315084.722,4233772.174,-1009.131 
315084.722,4233572.174,-1002.424 
315084.722,4233372.174,-997.808 
315084.722,4233172.174,-999.115 
315084.722,4232972.174,-997.223 
315084.722,4232772.174,-991.191 
315084.722,4232572.174,-981.311 
315084.722,4232372.174,-1008.988 
315084.722,4232172.174,-1001.638 
315084.722,4231972.174,-986.21 
315084.722,4231772.174,-995.737 
315084.722,4231572.174,-987.688 
315084.722,4231372.174,-956.428 
315084.722,4231172.174,-950.751 
315084.722,4230972.174,-946.808 
315084.722,4230772.174,-941.394 
315084.722,4230572.174,-937.219 
315084.722,4230372.174,-936.582 
315084.722,4230172.174,-936.989 
315084.722,4229972.174,-933.295 
315084.722,4229772.174,-926.021 
315084.722,4229572.174,-910.335 
315084.722,4229372.174,-909.281 
315084.722,4229172.174,-904.898 
315084.722,4228972.174,-899.371 
315084.722,4228772.174,-895.097 
315084.722,4228572.174,-888.024 
315084.722,4228372.174,-882.802 
315084.722,4228172.174,-878.049 
315084.722,4227972.174,-871.65 
315084.722,4227772.174,-863.669 
315084.722,4227572.174,-854.607 
315084.722,4227372.174,-850.844 
315084.722,4227172.174,-838.769 
315084.722,4226972.174,-829.681 
315084.722,4226772.174,-824.208 
315084.722,4226572.174,-810.002 
315084.722,4226372.174,-795.031 
315084.722,4226172.174,-779.903 
315084.722,4225972.174,-764.992 
315084.722,4225772.174,-748.581 
315084.722,4225572.174,-731.928 
315084.722,4225372.174,-714.181 
315084.722,4225172.174,-694.641 
315084.722,4224972.174,-684.415 
315084.722,4224772.174,-673.226 
315084.722,4224572.174,-663.603 
315084.722,4224372.174,-655.302 
315084.722,4224172.174,-646.786 
315084.722,4223972.174,-637.384 
315084.722,4223772.174,-628.445 
315084.722,4223572.174,-617.03 
315084.722,4223372.174,-602.408 
315084.722,4223172.174,-600.101 
315084.722,4222972.174,-594.153 
315084.722,4222772.174,-589.459 
315084.722,4222572.174,-580.687 
315084.722,4222372.174,-575.315 
315084.722,4222172.174,-567.323 
315084.722,4221972.174,-555.72 
315084.722,4221772.174,-543.609 
315084.722,4221572.174,-532.666 
315084.722,4221372.174,-521.714 
315284.722,4245372.174,-923.42 
315284.722,4245172.174,-965.04 
315284.722,4244972.174,-989.289 
315284.722,4244772.174,-989.685 
315284.722,4244572.174,-983.684 
315284.722,4244372.174,-995.217 
315284.722,4244172.174,-996.273 
315284.722,4243972.174,-1000.329 
315284.722,4243772.174,-1015.354 
315284.722,4243572.174,-1046.967 
315284.722,4243372.174,-1087.654 
315284.722,4243172.174,-1092.184 
315284.722,4242972.174,-1115.961 
315284.722,4242772.174,-1147.225 
315284.722,4242572.174,-1147.935 
315284.722,4242372.174,-1147.323 
315284.722,4242172.174,-1150.311 
315284.722,4241972.174,-1131.398 
315284.722,4241772.174,-1138.288 
315284.722,4241572.174,-1162.045 
315284.722,4241372.174,-1159.325 
315284.722,4241172.174,-1154.283 
315284.722,4240972.174,-1163.224 
315284.722,4240772.174,-1168.164 
315284.722,4240572.174,-1165.364 
315284.722,4240372.174,-1164.099 
315284.722,4240172.174,-1162.68 
315284.722,4239972.174,-1163.489 
315284.722,4239772.174,-1155.78 
315284.722,4239572.174,-1155.284 
315284.722,4239372.174,-1149.045 
315284.722,4239172.174,-1125.669 
315284.722,4238972.174,-1121.753 
315284.722,4238772.174,-1114.984 
315284.722,4238572.174,-1112.91 
315284.722,4238372.174,-1109.673 
315284.722,4238172.174,-1106.966 
315284.722,4237972.174,-1105.243 
315284.722,4237772.174,-1094.916 
315284.722,4237572.174,-1088.066 
315284.722,4237372.174,-1083.315 
315284.722,4237172.174,-1074.07 
315284.722,4236972.174,-1068.845 
315284.722,4236772.174,-1061.186 
315284.722,4236572.174,-1056.089 
315284.722,4236372.174,-1051.438 
315284.722,4236172.174,-1047.035 
315284.722,4235972.174,-1043.197 
315284.722,4235772.174,-1038.172 
315284.722,4235572.174,-1031.927 
315284.722,4235372.174,-1027.404 
315284.722,4235172.174,-1022.058 
315284.722,4234972.174,-1015.355 
315284.722,4234772.174,-1014.915 
315284.722,4234572.174,-1013.808 
315284.722,4234372.174,-1012.371 
315284.722,4234172.174,-1010.295 
315284.722,4233972.174,-1007.849 
315284.722,4233772.174,-1004.214 
315284.722,4233572.174,-999.074 
315284.722,4233372.174,-994.565 
315284.722,4233172.174,-998.869 
315284.722,4232972.174,-998.953 
315284.722,4232772.174,-991.232 
315284.722,4232572.174,-984.388 
315284.722,4232372.174,-979.393 
315284.722,4232172.174,-995.758 
315284.722,4231972.174,-981.203 
315284.722,4231772.174,-988.406 
315284.722,4231572.174,-981.263 
315284.722,4231372.174,-979.657 
315284.722,4231172.174,-947.903 
315284.722,4230972.174,-946.821 
315284.722,4230772.174,-939.461 
315284.722,4230572.174,-936.739 
315284.722,4230372.174,-931.49 
315284.722,4230172.174,-926.52 
315284.722,4229972.174,-921.448 
315284.722,4229772.174,-926.878 
315284.722,4229572.174,-924.314 
315284.722,4229372.174,-908.847 
315284.722,4229172.174,-902.582 
315284.722,4228972.174,-897.199 
315284.722,4228772.174,-891.29 
315284.722,4228572.174,-885.158 
315284.722,4228372.174,-880.287 
315284.722,4228172.174,-874.524 
315284.722,4227972.174,-868.316 
315284.722,4227772.174,-861.419 
315284.722,4227572.174,-852.987 
315284.722,4227372.174,-843.313 
315284.722,4227172.174,-835.004 
315284.722,4226972.174,-828.437 
315284.722,4226772.174,-825.567 
315284.722,4226572.174,-817.133 
315284.722,4226372.174,-804.717 
315284.722,4226172.174,-788.577 
315284.722,4225972.174,-771.388 
315284.722,4225772.174,-755.284 
315284.722,4225572.174,-735.413 
315284.722,4225372.174,-715.934 
315284.722,4225172.174,-694.05 
315284.722,4224972.174,-684.112 
315284.722,4224772.174,-671.505 
315284.722,4224572.174,-659.869 
315284.722,4224372.174,-650.699 
315284.722,4224172.174,-642.79 
315284.722,4223972.174,-632.302 
315284.722,4223772.174,-624.08 
315284.722,4223572.174,-613.01 
315284.722,4223372.174,-609.07 
315284.722,4223172.174,-607.974 
315284.722,4222972.174,-601.689 
315284.722,4222772.174,-596.814 
315284.722,4222572.174,-587.833 
315284.722,4222372.174,-577.822 
315284.722,4222172.174,-567.773 
315284.722,4221972.174,-557.671 
315284.722,4221772.174,-546.471 
315284.722,4221572.174,-535.118 
315284.722,4221372.174,-522.709 
315484.722,4245372.174,-981.208 
315484.722,4245172.174,-1008.383 
315484.722,4244972.174,-1022.075 
315484.722,4244772.174,-1036.105 
315484.722,4244572.174,-1034.603 
315484.722,4244372.174,-1040.826 
315484.722,4244172.174,-1053.479 
315484.722,4243972.174,-1068.694 
315484.722,4243772.174,-1087.143 
315484.722,4243572.174,-1103.98 
315484.722,4243372.174,-1131.222 
315484.722,4243172.174,-1151.365 
315484.722,4242972.174,-1158.083 
315484.722,4242772.174,-1160.694 
315484.722,4242572.174,-1153.427 
315484.722,4242372.174,-1155.542 
315484.722,4242172.174,-1161.317 
315484.722,4241972.174,-1164.309 
315484.722,4241772.174,-1166.586 
315484.722,4241572.174,-1164.834 
315484.722,4241372.174,-1158.526 
315484.722,4241172.174,-1155.987 
315484.722,4240972.174,-1175.595 
315484.722,4240772.174,-1171.355 
315484.722,4240572.174,-1168.88 
315484.722,4240372.174,-1157.141 
315484.722,4240172.174,-1144.345 
315484.722,4239972.174,-1141.259 
315484.722,4239772.174,-1141.238 
315484.722,4239572.174,-1135.391 
315484.722,4239372.174,-1127.563 
315484.722,4239172.174,-1122.678 
315484.722,4238972.174,-1122.036 
315484.722,4238772.174,-1116.442 
315484.722,4238572.174,-1112.704 
315484.722,4238372.174,-1108.726 
315484.722,4238172.174,-1098.669 
315484.722,4237972.174,-1093.673 
315484.722,4237772.174,-1085.515 
315484.722,4237572.174,-1078.68 
315484.722,4237372.174,-1071.916 
315484.722,4237172.174,-1065.354 
315484.722,4236972.174,-1055.474 
315484.722,4236772.174,-1051.091 
315484.722,4236572.174,-1049.1 
315484.722,4236372.174,-1044.423 
315484.722,4236172.174,-1040.045 
315484.722,4235972.174,-1033.567 
315484.722,4235772.174,-1027.774 
315484.722,4235572.174,-1028.574 
315484.722,4235372.174,-1021.737 
315484.722,4235172.174,-1018.54 
315484.722,4234972.174,-1014.11 
315484.722,4234772.174,-1012.882 
315484.722,4234572.174,-1014.134 
315484.722,4234372.174,-1010.191 
315484.722,4234172.174,-1006.95 
315484.722,4233972.174,-1003.658 
315484.722,4233772.174,-1001.979 
315484.722,4233572.174,-997.135 
315484.722,4233372.174,-998.21 
315484.722,4233172.174,-1003.957 
315484.722,4232972.174,-994.664 
315484.722,4232772.174,-989.22 
315484.722,4232572.174,-983.995 
315484.722,4232372.174,-978.33 
315484.722,4232172.174,-971.127 
315484.722,4231972.174,-976.026 
315484.722,4231772.174,-964.999 
315484.722,4231572.174,-972.621 
315484.722,4231372.174,-969.833 
315484.722,4231172.174,-946.154 
315484.722,4230972.174,-940.352 
315484.722,4230772.174,-936.416 
315484.722,4230572.174,-934.757 
315484.722,4230372.174,-928.794 
315484.722,4230172.174,-924.108 
315484.722,4229972.174,-918.946 
315484.722,4229772.174,-916.405 
315484.722,4229572.174,-922.498 
315484.722,4229372.174,-905.405 
315484.722,4229172.174,-903.171 
315484.722,4228972.174,-898.49 
315484.722,4228772.174,-893.439 
315484.722,4228572.174,-887.315 
315484.722,4228372.174,-878.817 
315484.722,4228172.174,-872.033 
315484.722,4227972.174,-863.172 
315484.722,4227772.174,-856.336 
315484.722,4227572.174,-849.213 
315484.722,4227372.174,-841.003 
315484.722,4227172.174,-833.941 
315484.722,4226972.174,-827.597 
315484.722,4226772.174,-823.267 
315484.722,4226572.174,-817.034 
315484.722,4226372.174,-810.242 
315484.722,4226172.174,-799.846 
315484.722,4225972.174,-784.342 
315484.722,4225772.174,-765.05 
315484.722,4225572.174,-744.467 
315484.722,4225372.174,-723.233 
315484.722,4225172.174,-704.335 
315484.722,4224972.174,-686.837 
315484.722,4224772.174,-669.942 
315484.722,4224572.174,-659.643 
315484.722,4224372.174,-644.73 
315484.722,4224172.174,-639.416 
315484.722,4223972.174,-632.348 
315484.722,4223772.174,-625.186 
315484.722,4223572.174,-620.272 
315484.722,4223372.174,-619.343 
315484.722,4223172.174,-617.324 
315484.722,4222972.174,-609.986 
315484.722,4222772.174,-597.039 
315484.722,4222572.174,-592.017 
315484.722,4222372.174,-581.828 
315484.722,4222172.174,-569.158 
315484.722,4221972.174,-561.006 
315484.722,4221772.174,-547.616 
315484.722,4221572.174,-533.683 
315484.722,4221372.174,-521 
315684.722,4245372.174,-999.046 
315684.722,4245172.174,-1019.474 
315684.722,4244972.174,-1064.847 
315684.722,4244772.174,-1098.529 
315684.722,4244572.174,-1104.325 
315684.722,4244372.174,-1105.767 
315684.722,4244172.174,-1113.479 
315684.722,4243972.174,-1128.313 
315684.722,4243772.174,-1148.054 
315684.722,4243572.174,-1158.262 
315684.722,4243372.174,-1173.439 
315684.722,4243172.174,-1175.253 
315684.722,4242972.174,-1170.171 
315684.722,4242772.174,-1165.182 
315684.722,4242572.174,-1159.959 
315684.722,4242372.174,-1163.905 
315684.722,4242172.174,-1164.123 
315684.722,4241972.174,-1165.177 
315684.722,4241772.174,-1166.578 
315684.722,4241572.174,-1163.034 
315684.722,4241372.174,-1161.229 
315684.722,4241172.174,-1159.442 
315684.722,4240972.174,-1178.274 
315684.722,4240772.174,-1177.287 
315684.722,4240572.174,-1172.099 
315684.722,4240372.174,-1150.478 
315684.722,4240172.174,-1149.671 
315684.722,4239972.174,-1146.362 
315684.722,4239772.174,-1140.214 
315684.722,4239572.174,-1135.785 
315684.722,4239372.174,-1134.429 
315684.722,4239172.174,-1127.522 
315684.722,4238972.174,-1122.771 
315684.722,4238772.174,-1115.385 
315684.722,4238572.174,-1108.548 
315684.722,4238372.174,-1098.709 
315684.722,4238172.174,-1091.009 
315684.722,4237972.174,-1085.163 
315684.722,4237772.174,-1078.535 
315684.722,4237572.174,-1072.122 
315684.722,4237372.174,-1061.793 
315684.722,4237172.174,-1049.737 
315684.722,4236972.174,-1048.422 
315684.722,4236772.174,-1044.379 
315684.722,4236572.174,-1039.499 
315684.722,4236372.174,-1036.538 
315684.722,4236172.174,-1033.609 
315684.722,4235972.174,-1027.901 
315684.722,4235772.174,-1022.617 
315684.722,4235572.174,-1020.818 
315684.722,4235372.174,-1016.404 
315684.722,4235172.174,-1012.685 
315684.722,4234972.174,-1010.994 
315684.722,4234772.174,-1012.5 
315684.722,4234572.174,-1013.879 
315684.722,4234372.174,-1008.656 
315684.722,4234172.174,-1005.324 
315684.722,4233972.174,-1004.695 
315684.722,4233772.174,-1002.472 
315684.722,4233572.174,-1003.754 
315684.722,4233372.174,-1003.407 
315684.722,4233172.174,-1001.496 
315684.722,4232972.174,-990.207 
315684.722,4232772.174,-984.055 
315684.722,4232572.174,-980.184 
315684.722,4232372.174,-976.732 
315684.722,4232172.174,-970.982 
315684.722,4231972.174,-963.643 
315684.722,4231772.174,-961.332 
315684.722,4231572.174,-965.412 
315684.722,4231372.174,-945.833 
315684.722,4231172.174,-970.745 
315684.722,4230972.174,-938.138 
315684.722,4230772.174,-934.803 
315684.722,4230572.174,-929.321 
315684.722,4230372.174,-925.294 
315684.722,4230172.174,-922.053 
315684.722,4229972.174,-915.982 
315684.722,4229772.174,-905.754 
315684.722,4229572.174,-915.604 
315684.722,4229372.174,-909.204 
315684.722,4229172.174,-899.924 
315684.722,4228972.174,-898.338 
315684.722,4228772.174,-892.151 
315684.722,4228572.174,-887.579 
315684.722,4228372.174,-880.139 
315684.722,4228172.174,-871.347 
315684.722,4227972.174,-864.087 
315684.722,4227772.174,-855.31 
315684.722,4227572.174,-847.655 
315684.722,4227372.174,-838.002 
315684.722,4227172.174,-831.213 
315684.722,4226972.174,-827.451 
315684.722,4226772.174,-822.392 
315684.722,4226572.174,-814.762 
315684.722,4226372.174,-807.45 
315684.722,4226172.174,-799.261 
315684.722,4225972.174,-789.552 
315684.722,4225772.174,-761.5 
315684.722,4225572.174,-750.562 
315684.722,4225372.174,-735.728 
315684.722,4225172.174,-717.956 
315684.722,4224972.174,-701.715 
315684.722,4224772.174,-685.079 
315684.722,4224572.174,-668.122 
315684.722,4224372.174,-654.449 
315684.722,4224172.174,-646.397 
315684.722,4223972.174,-638.879 
315684.722,4223772.174,-632.888 
315684.722,4223572.174,-632.734 
315684.722,4223372.174,-629.813 
315684.722,4223172.174,-622.051 
315684.722,4222972.174,-615.11 
315684.722,4222772.174,-605.846 
315684.722,4222572.174,-595.958 
315684.722,4222372.174,-584.541 
315684.722,4222172.174,-571.752 
315684.722,4221972.174,-560.489 
315684.722,4221772.174,-547.085 
315684.722,4221572.174,-534.308 
315684.722,4221372.174,-520.38 
315884.722,4245372.174,-1043.083 
315884.722,4245172.174,-1053.793 
315884.722,4244972.174,-1097.335 
315884.722,4244772.174,-1140.284 
315884.722,4244572.174,-1151.761 
315884.722,4244372.174,-1168.446 
315884.722,4244172.174,-1172.155 
315884.722,4243972.174,-1189.162 
315884.722,4243772.174,-1187.604 
315884.722,4243572.174,-1180.851 
315884.722,4243372.174,-1177.836 
315884.722,4243172.174,-1177.038 
315884.722,4242972.174,-1173.174 
315884.722,4242772.174,-1169.455 
315884.722,4242572.174,-1168.736 
315884.722,4242372.174,-1168.626 
315884.722,4242172.174,-1165.062 
315884.722,4241972.174,-1165.049 
315884.722,4241772.174,-1167.072 
315884.722,4241572.174,-1166.87 
315884.722,4241372.174,-1163.553 
315884.722,4241172.174,-1180.607 
315884.722,4240972.174,-1184.496 
315884.722,4240772.174,-1180.456 
315884.722,4240572.174,-1176.178 
315884.722,4240372.174,-1150.49 
315884.722,4240172.174,-1145.922 
315884.722,4239972.174,-1144.258 
315884.722,4239772.174,-1141.281 
315884.722,4239572.174,-1137.626 
315884.722,4239372.174,-1137.042 
315884.722,4239172.174,-1130.106 
315884.722,4238972.174,-1118.971 
315884.722,4238772.174,-1109.332 
315884.722,4238572.174,-1101.209 
315884.722,4238372.174,-1091.529 
315884.722,4238172.174,-1083.426 
315884.722,4237972.174,-1077.849 
315884.722,4237772.174,-1070.565 
315884.722,4237572.174,-1064.082 
315884.722,4237372.174,-1050.781 
315884.722,4237172.174,-1049.393 
315884.722,4236972.174,-1043.246 
315884.722,4236772.174,-1036.006 
315884.722,4236572.174,-1032.148 
315884.722,4236372.174,-1028.86 
315884.722,4236172.174,-1025.544 
315884.722,4235972.174,-1020.795 
315884.722,4235772.174,-1016.716 
315884.722,4235572.174,-1013.136 
315884.722,4235372.174,-1011.102 
315884.722,4235172.174,-1008.874 
315884.722,4234972.174,-1006.221 
315884.722,4234772.174,-1004.711 
315884.722,4234572.174,-1006.952 
315884.722,4234372.174,-1003.748 
315884.722,4234172.174,-1002.474 
315884.722,4233972.174,-1005.271 
315884.722,4233772.174,-1004.447 
315884.722,4233572.174,-1004.051 
315884.722,4233372.174,-1001.056 
315884.722,4233172.174,-990.329 
315884.722,4232972.174,-983.813 
315884.722,4232772.174,-972.94 
315884.722,4232572.174,-971.278 
315884.722,4232372.174,-968.017 
315884.722,4232172.174,-967.929 
315884.722,4231972.174,-963.827 
315884.722,4231772.174,-951.022 
315884.722,4231572.174,-965.72 
315884.722,4231372.174,-936.032 
315884.722,4231172.174,-959.69 
315884.722,4230972.174,-953.631 
315884.722,4230772.174,-932.21 
315884.722,4230572.174,-924.994 
315884.722,4230372.174,-919.741 
315884.722,4230172.174,-916.76 
315884.722,4229972.174,-911.638 
315884.722,4229772.174,-903.603 
315884.722,4229572.174,-910.1 
315884.722,4229372.174,-912.818 
315884.722,4229172.174,-900.072 
315884.722,4228972.174,-896.885 
315884.722,4228772.174,-890.813 
315884.722,4228572.174,-883.324 
315884.722,4228372.174,-877.379 
315884.722,4228172.174,-869.463 
315884.722,4227972.174,-861.817 
315884.722,4227772.174,-852.473 
315884.722,4227572.174,-846.65 
315884.722,4227372.174,-836.375 
315884.722,4227172.174,-831.82 
315884.722,4226972.174,-825.125 
315884.722,4226772.174,-819.732 
315884.722,4226572.174,-813.294 
315884.722,4226372.174,-805.939 
315884.722,4226172.174,-795.339 
315884.722,4225972.174,-785.728 
315884.722,4225772.174,-768.215 
315884.722,4225572.174,-760.858 
315884.722,4225372.174,-744.646 
315884.722,4225172.174,-728.19 
315884.722,4224972.174,-712.902 
315884.722,4224772.174,-694.015 
315884.722,4224572.174,-679.714 
315884.722,4224372.174,-667.544 
315884.722,4224172.174,-654.044 
315884.722,4223972.174,-643.928 
315884.722,4223772.174,-644.003 
315884.722,4223572.174,-642.559 
315884.722,4223372.174,-637.896 
315884.722,4223172.174,-632.356 
315884.722,4222972.174,-621.978 
315884.722,4222772.174,-616.206 
315884.722,4222572.174,-608.385 
315884.722,4222372.174,-596.63 
315884.722,4222172.174,-583.507 
315884.722,4221972.174,-571.359 
315884.722,4221772.174,-555.928 
315884.722,4221572.174,-541.167 
315884.722,4221372.174,-530.339 
316084.722,4245372.174,-1093.86 
316084.722,4245172.174,-1089.393 
316084.722,4244972.174,-1101.942 
316084.722,4244772.174,-1159.025 
316084.722,4244572.174,-1191.24 
316084.722,4244372.174,-1195.479 
316084.722,4244172.174,-1191.073 
316084.722,4243972.174,-1186.624 
316084.722,4243772.174,-1186.893 
316084.722,4243572.174,-1183.755 
316084.722,4243372.174,-1180.022 
316084.722,4243172.174,-1179.861 
316084.722,4242972.174,-1178.878 
316084.722,4242772.174,-1172.81 
316084.722,4242572.174,-1169.912 
316084.722,4242372.174,-1169.455 
316084.722,4242172.174,-1167.994 
316084.722,4241972.174,-1165.484 
316084.722,4241772.174,-1183.56 
316084.722,4241572.174,-1193.723 
316084.722,4241372.174,-1181.455 
316084.722,4241172.174,-1189.396 
316084.722,4240972.174,-1181.525 
316084.722,4240772.174,-1171.797 
316084.722,4240572.174,-1158.952 
316084.722,4240372.174,-1151.39 
316084.722,4240172.174,-1146.997 
316084.722,4239972.174,-1145.119 
316084.722,4239772.174,-1140.903 
316084.722,4239572.174,-1139.141 
316084.722,4239372.174,-1139.649 
316084.722,4239172.174,-1128.301 
316084.722,4238972.174,-1111.957 
316084.722,4238772.174,-1099.617 
316084.722,4238572.174,-1086.384 
316084.722,4238372.174,-1075.936 
316084.722,4238172.174,-1069.314 
316084.722,4237972.174,-1066.906 
316084.722,4237772.174,-1059.767 
316084.722,4237572.174,-1056.428 
316084.722,4237372.174,-1050.199 
316084.722,4237172.174,-1042.975 
316084.722,4236972.174,-1037.107 
316084.722,4236772.174,-1030.359 
316084.722,4236572.174,-1025.609 
316084.722,4236372.174,-1021.257 
316084.722,4236172.174,-1017.403 
316084.722,4235972.174,-1013.036 
316084.722,4235772.174,-1010.488 
316084.722,4235572.174,-1010.007 
316084.722,4235372.174,-1007.016 
316084.722,4235172.174,-1004.422 
316084.722,4234972.174,-1001.969 
316084.722,4234772.174,-999.472 
316084.722,4234572.174,-995.275 
316084.722,4234372.174,-991.992 
316084.722,4234172.174,-994.987 
316084.722,4233972.174,-1000.903 
316084.722,4233772.174,-993.744 
316084.722,4233572.174,-989.452 
316084.722,4233372.174,-980.579 
316084.722,4233172.174,-977.355 
316084.722,4232972.174,-972.786 
316084.722,4232772.174,-967.438 
316084.722,4232572.174,-966.228 
316084.722,4232372.174,-964.99 
316084.722,4232172.174,-963.007 
316084.722,4231972.174,-955.356 
316084.722,4231772.174,-941.956 
316084.722,4231572.174,-952.123 
316084.722,4231372.174,-935.19 
316084.722,4231172.174,-963.172 
316084.722,4230972.174,-947.974 
316084.722,4230772.174,-938.287 
316084.722,4230572.174,-922.5 
316084.722,4230372.174,-915.736 
316084.722,4230172.174,-912.23 
316084.722,4229972.174,-905.908 
316084.722,4229772.174,-901.755 
316084.722,4229572.174,-897.563 
316084.722,4229372.174,-909.398 
316084.722,4229172.174,-900.282 
316084.722,4228972.174,-894.479 
316084.722,4228772.174,-890.244 
316084.722,4228572.174,-883.644 
316084.722,4228372.174,-877.426 
316084.722,4228172.174,-868.355 
316084.722,4227972.174,-858.832 
316084.722,4227772.174,-853.308 
316084.722,4227572.174,-840.087 
316084.722,4227372.174,-831.285 
316084.722,4227172.174,-828.793 
316084.722,4226972.174,-823.8 
316084.722,4226772.174,-817.072 
316084.722,4226572.174,-811.363 
316084.722,4226372.174,-804.046 
316084.722,4226172.174,-793.969 
316084.722,4225972.174,-773.986 
316084.722,4225772.174,-767.499 
316084.722,4225572.174,-760 
316084.722,4225372.174,-753.374 
316084.722,4225172.174,-734.943 
316084.722,4224972.174,-718.421 
316084.722,4224772.174,-704.86 
316084.722,4224572.174,-686.23 
316084.722,4224372.174,-671.443 
316084.722,4224172.174,-656.594 
316084.722,4223972.174,-653.963 
316084.722,4223772.174,-661.801 
316084.722,4223572.174,-649.617 
316084.722,4223372.174,-649.221 
316084.722,4223172.174,-644.372 
316084.722,4222972.174,-630.85 
316084.722,4222772.174,-626.454 
316084.722,4222572.174,-618.316 
316084.722,4222372.174,-607.547 
316084.722,4222172.174,-590.826 
316084.722,4221972.174,-577.911 
316084.722,4221772.174,-565.722 
316084.722,4221572.174,-549.791 
316084.722,4221372.174,-539.671 
316084.722,4221172.174,-523.317 
316284.722,4245372.174,-1137.582 
316284.722,4245172.174,-1158.417 
316284.722,4244972.174,-1164.412 
316284.722,4244772.174,-1192.408 
316284.722,4244572.174,-1196.216 
316284.722,4244372.174,-1193.616 
316284.722,4244172.174,-1190.15 
316284.722,4243972.174,-1190.203 
316284.722,4243772.174,-1187.38 
316284.722,4243572.174,-1188.965 
316284.722,4243372.174,-1184.282 
316284.722,4243172.174,-1185.982 
316284.722,4242972.174,-1181.864 
316284.722,4242772.174,-1177.79 
316284.722,4242572.174,-1172.384 
316284.722,4242372.174,-1174.379 
316284.722,4242172.174,-1177.596 
316284.722,4241972.174,-1172.693 
316284.722,4241772.174,-1185.498 
316284.722,4241572.174,-1196.864 
316284.722,4241372.174,-1183.246 
316284.722,4241172.174,-1175.957 
316284.722,4240972.174,-1160.242 
316284.722,4240772.174,-1160.182 
316284.722,4240572.174,-1157.65 
316284.722,4240372.174,-1153.833 
316284.722,4240172.174,-1149.3 
316284.722,4239972.174,-1146.28 
316284.722,4239772.174,-1140.734 
316284.722,4239572.174,-1136.886 
316284.722,4239372.174,-1139.736 
316284.722,4239172.174,-1131.221 
316284.722,4238972.174,-1108.972 
316284.722,4238772.174,-1093.599 
316284.722,4238572.174,-1081.093 
316284.722,4238372.174,-1070.84 
316284.722,4238172.174,-1063.281 
316284.722,4237972.174,-1058.243 
316284.722,4237772.174,-1052.515 
316284.722,4237572.174,-1047.615 
316284.722,4237372.174,-1044.717 
316284.722,4237172.174,-1037.746 
316284.722,4236972.174,-1033.716 
316284.722,4236772.174,-1025.086 
316284.722,4236572.174,-1019.474 
316284.722,4236372.174,-1014.449 
316284.722,4236172.174,-1011.24 
316284.722,4235972.174,-1006.388 
316284.722,4235772.174,-1004.694 
316284.722,4235572.174,-1001.4 
316284.722,4235372.174,-1001.967 
316284.722,4235172.174,-1000.447 
316284.722,4234972.174,-995.205 
316284.722,4234772.174,-992.405 
316284.722,4234572.174,-989.019 
316284.722,4234372.174,-984.755 
316284.722,4234172.174,-980.815 
316284.722,4233972.174,-978.513 
316284.722,4233772.174,-973.306 
316284.722,4233572.174,-972.28 
316284.722,4233372.174,-969.673 
316284.722,4233172.174,-967.004 
316284.722,4232972.174,-965.813 
316284.722,4232772.174,-964.148 
316284.722,4232572.174,-962.088 
316284.722,4232372.174,-958.939 
316284.722,4232172.174,-953.386 
316284.722,4231972.174,-946.161 
316284.722,4231772.174,-936.007 
316284.722,4231572.174,-936.146 
316284.722,4231372.174,-932.364 
316284.722,4231172.174,-930.2 
316284.722,4230972.174,-959.309 
316284.722,4230772.174,-942.648 
316284.722,4230572.174,-935.499 
316284.722,4230372.174,-923.539 
316284.722,4230172.174,-907.727 
316284.722,4229972.174,-894.698 
316284.722,4229772.174,-896.506 
316284.722,4229572.174,-893.792 
316284.722,4229372.174,-894.771 
316284.722,4229172.174,-905.184 
316284.722,4228972.174,-890.624 
316284.722,4228772.174,-886.437 
316284.722,4228572.174,-881.788 
316284.722,4228372.174,-873.229 
316284.722,4228172.174,-865.901 
316284.722,4227972.174,-856.297 
316284.722,4227772.174,-849.416 
316284.722,4227572.174,-837.996 
316284.722,4227372.174,-831.987 
316284.722,4227172.174,-826.124 
316284.722,4226972.174,-820.447 
316284.722,4226772.174,-814.185 
316284.722,4226572.174,-805.915 
316284.722,4226372.174,-797.014 
316284.722,4226172.174,-788.507 
316284.722,4225972.174,-776.298 
316284.722,4225772.174,-766.201 
316284.722,4225572.174,-757.521 
316284.722,4225372.174,-749.531 
316284.722,4225172.174,-747.804 
316284.722,4224972.174,-734.753 
316284.722,4224772.174,-712.692 
316284.722,4224572.174,-692.231 
316284.722,4224372.174,-676.078 
316284.722,4224172.174,-669.615 
316284.722,4223972.174,-674.59 
316284.722,4223772.174,-673.927 
316284.722,4223572.174,-667.544 
316284.722,4223372.174,-656.276 
316284.722,4223172.174,-650.581 
316284.722,4222972.174,-641.779 
316284.722,4222772.174,-634.125 
316284.722,4222572.174,-625.883 
316284.722,4222372.174,-606.908 
316284.722,4222172.174,-590.275 
316284.722,4221972.174,-577.535 
316284.722,4221772.174,-566.428 
316284.722,4221572.174,-557.667 
316284.722,4221372.174,-549.911 
316284.722,4221172.174,-532.903 
316484.722,4245372.174,-1168.066 
316484.722,4245172.174,-1193.093 
316484.722,4244972.174,-1198.42 
316484.722,4244772.174,-1201.43 
316484.722,4244572.174,-1198.552 
316484.722,4244372.174,-1194.723 
316484.722,4244172.174,-1194.416 
316484.722,4243972.174,-1191.569 
316484.722,4243772.174,-1192.33 
316484.722,4243572.174,-1193.902 
316484.722,4243372.174,-1190.777 
316484.722,4243172.174,-1188.654 
316484.722,4242972.174,-1184.624 
316484.722,4242772.174,-1179.499 
316484.722,4242572.174,-1171.252 
316484.722,4242372.174,-1199.228 
316484.722,4242172.174,-1206.346 
316484.722,4241972.174,-1203.704 
316484.722,4241772.174,-1199.037 
316484.722,4241572.174,-1185.557 
316484.722,4241372.174,-1163.489 
316484.722,4241172.174,-1158.862 
316484.722,4240972.174,-1159.597 
316484.722,4240772.174,-1159.828 
316484.722,4240572.174,-1159.456 
316484.722,4240372.174,-1154.416 
316484.722,4240172.174,-1150.582 
316484.722,4239972.174,-1148.052 
316484.722,4239772.174,-1141.899 
316484.722,4239572.174,-1138.137 
316484.722,4239372.174,-1137.344 
316484.722,4239172.174,-1127.43 
316484.722,4238972.174,-1106.155 
316484.722,4238772.174,-1085.84 
316484.722,4238572.174,-1073.473 
316484.722,4238372.174,-1064.458 
316484.722,4238172.174,-1058.196 
316484.722,4237972.174,-1052.63 
316484.722,4237772.174,-1045.038 
316484.722,4237572.174,-1041.431 
316484.722,4237372.174,-1034.501 
316484.722,4237172.174,-1030.34 
316484.722,4236972.174,-1026.035 
316484.722,4236772.174,-1020.747 
316484.722,4236572.174,-1014.182 
316484.722,4236372.174,-1008.914 
316484.722,4236172.174,-1006.298 
316484.722,4235972.174,-1002.422 
316484.722,4235772.174,-998.923 
316484.722,4235572.174,-993.938 
316484.722,4235372.174,-994.963 
316484.722,4235172.174,-994.84 
316484.722,4234972.174,-990.058 
316484.722,4234772.174,-987.527 
316484.722,4234572.174,-984.303 
316484.722,4234372.174,-978.476 
316484.722,4234172.174,-973.692 
316484.722,4233972.174,-967.968 
316484.722,4233772.174,-962.298 
316484.722,4233572.174,-960.184 
316484.722,4233372.174,-962.234 
316484.722,4233172.174,-963.216 
316484.722,4232972.174,-962.36 
316484.722,4232772.174,-960.337 
316484.722,4232572.174,-957.74 
316484.722,4232372.174,-952.536 
316484.722,4232172.174,-949.237 
316484.722,4231972.174,-940.004 
316484.722,4231772.174,-933.843 
316484.722,4231572.174,-930.365 
316484.722,4231372.174,-948.453 
316484.722,4231172.174,-923.563 
316484.722,4230972.174,-920.282 
316484.722,4230772.174,-919.458 
