358579.638,4222284.931,-76.474 
358579.638,4222234.931,-75.882 
358579.638,4222184.931,-75.5 
358579.638,4222134.931,-75.025 
358579.638,4222084.931,-74.619 
358579.638,4222034.931,-74.02 
358579.638,4221984.931,-73.421 
358579.638,4221934.931,-72.877 
358579.638,4221884.931,-72.227 
358579.638,4221834.931,-71.462 
358579.638,4221784.931,-70.771 
358579.638,4221734.931,-70.024 
358579.638,4221684.931,-69.264 
358579.638,4221634.931,-68.426 
358579.638,4221584.931,-67.525 
358579.638,4221534.931,-66.627 
358579.638,4221484.931,-65.558 
358579.638,4221434.931,-64.431 
358579.638,4221384.931,-63.449 
358579.638,4221334.931,-62.451 
358579.638,4221284.931,-61.495 
358579.638,4221234.931,-60.298 
358579.638,4221184.931,-59.15 
358579.638,4221134.931,-57.961 
358579.638,4221084.931,-56.713 
358579.638,4221034.931,-55.506 
358579.638,4220984.931,-54.233 
358579.638,4220934.931,-52.899 
358579.638,4220884.931,-51.694 
358579.638,4220834.931,-50.461 
358579.638,4220784.931,-49.072 
358579.638,4220734.931,-47.654 
358579.638,4220684.931,-46.2 
358579.638,4220634.931,-45.13 
358629.638,4239684.931,-174.681 
358629.638,4239634.931,-155.586 
358629.638,4239584.931,-140.747 
358629.638,4239534.931,-127.964 
358629.638,4239484.931,-118.187 
358629.638,4239434.931,-108.763 
358629.638,4239384.931,-101.851 
358629.638,4239334.931,-97.278 
358629.638,4239284.931,-93.501 
358629.638,4239234.931,-89.661 
358629.638,4239184.931,-87.558 
358629.638,4239134.931,-84.098 
358629.638,4239084.931,-81.022 
358629.638,4239034.931,-81.05 
358629.638,4238984.931,-80.268 
358629.638,4238934.931,-79.544 
358629.638,4238884.931,-79.2 
358629.638,4238834.931,-79.322 
358629.638,4238784.931,-79.826 
358629.638,4238734.931,-80.17 
358629.638,4238684.931,-80.233 
358629.638,4238634.931,-79.473 
358629.638,4238584.931,-81.574 
358629.638,4238534.931,-84.612 
358629.638,4238484.931,-87.568 
358629.638,4238434.931,-89.926 
358629.638,4238384.931,-92.523 
358629.638,4238334.931,-96.576 
358629.638,4238284.931,-98.01 
358629.638,4238234.931,-102.036 
358629.638,4238184.931,-109.57 
358629.638,4238134.931,-125.378 
358629.638,4238084.931,-146.774 
358629.638,4232284.931,-172.906 
358629.638,4232234.931,-175.404 
358629.638,4231184.931,-174.21 
358629.638,4231134.931,-156.537 
358629.638,4231084.931,-138.65 
358629.638,4231034.931,-120.41 
358629.638,4230984.931,-116.299 
358629.638,4230934.931,-114.247 
358629.638,4230884.931,-110.271 
358629.638,4230834.931,-108.451 
358629.638,4230784.931,-108.997 
358629.638,4230734.931,-107.278 
358629.638,4230684.931,-107.146 
358629.638,4230634.931,-106.295 
358629.638,4230584.931,-105.81 
358629.638,4230534.931,-105.282 
358629.638,4230484.931,-104.698 
358629.638,4230434.931,-104.155 
358629.638,4230384.931,-103.689 
358629.638,4230334.931,-103.071 
358629.638,4230284.931,-102.531 
358629.638,4230234.931,-102.156 
358629.638,4230184.931,-101.902 
358629.638,4230134.931,-101.342 
358629.638,4230084.931,-101.698 
358629.638,4230034.931,-102.562 
358629.638,4229984.931,-102.662 
358629.638,4229934.931,-102.655 
358629.638,4229884.931,-102.349 
358629.638,4229834.931,-102.029 
358629.638,4229784.931,-101.771 
358629.638,4229734.931,-101.528 
358629.638,4229684.931,-101.169 
358629.638,4229634.931,-101.279 
358629.638,4229584.931,-100.981 
358629.638,4229534.931,-100.972 
358629.638,4229484.931,-100.848 
358629.638,4229434.931,-101.197 
358629.638,4229384.931,-101.1 
358629.638,4229334.931,-100.925 
358629.638,4229284.931,-100.699 
358629.638,4229234.931,-100.284 
358629.638,4229184.931,-99.764 
358629.638,4229134.931,-100.158 
358629.638,4229084.931,-100.128 
358629.638,4229034.931,-99.989 
358629.638,4228984.931,-100.033 
358629.638,4228934.931,-100.46 
358629.638,4228884.931,-100.817 
358629.638,4228834.931,-100.888 
358629.638,4228784.931,-101.196 
358629.638,4228734.931,-101.018 
358629.638,4228684.931,-100.931 
358629.638,4228634.931,-100.701 
358629.638,4228584.931,-100.187 
358629.638,4228534.931,-99.597 
358629.638,4228484.931,-98.797 
358629.638,4228434.931,-97.952 
358629.638,4228384.931,-96.968 
358629.638,4228334.931,-97.057 
358629.638,4228284.931,-96.685 
358629.638,4228234.931,-97.087 
358629.638,4228184.931,-97.067 
358629.638,4228134.931,-96.908 
358629.638,4228084.931,-96.783 
358629.638,4228034.931,-96.458 
358629.638,4227984.931,-96.1 
358629.638,4227934.931,-95.613 
358629.638,4227884.931,-95.319 
358629.638,4227834.931,-94.898 
358629.638,4227784.931,-94.303 
358629.638,4227734.931,-93.634 
358629.638,4227684.931,-90.791 
358629.638,4227634.931,-85.838 
358629.638,4227584.931,-83.293 
358629.638,4227534.931,-83.038 
358629.638,4227484.931,-83.774 
358629.638,4227434.931,-84.27 
358629.638,4227384.931,-85.245 
358629.638,4227334.931,-86.686 
358629.638,4227284.931,-88.998 
358629.638,4227234.931,-90.446 
358629.638,4227184.931,-90.711 
358629.638,4227134.931,-90.454 
358629.638,4227084.931,-90.201 
358629.638,4227034.931,-89.638 
358629.638,4226984.931,-89.507 
358629.638,4226934.931,-90.379 
358629.638,4226884.931,-90.82 
358629.638,4226834.931,-91.159 
358629.638,4226784.931,-91.107 
358629.638,4226734.931,-91.15 
358629.638,4226684.931,-91.308 
358629.638,4226634.931,-91.308 
358629.638,4226584.931,-91.308 
358629.638,4226534.931,-91.412 
358629.638,4226484.931,-91.128 
358629.638,4226434.931,-90.582 
358629.638,4226384.931,-89.621 
358629.638,4226334.931,-88.165 
358629.638,4226284.931,-88.095 
358629.638,4226234.931,-88.262 
358629.638,4226184.931,-87.826 
358629.638,4226134.931,-87.286 
358629.638,4226084.931,-86.269 
358629.638,4226034.931,-83.842 
358629.638,4225984.931,-80.068 
358629.638,4225934.931,-78.301 
358629.638,4225884.931,-78.928 
358629.638,4225834.931,-80.325 
358629.638,4225784.931,-80.396 
358629.638,4225734.931,-79.192 
358629.638,4225684.931,-79.02 
358629.638,4225634.931,-80.483 
358629.638,4225584.931,-81.962 
358629.638,4225534.931,-82.465 
358629.638,4225484.931,-82.345 
358629.638,4225434.931,-79.643 
358629.638,4225384.931,-80.98 
358629.638,4225334.931,-81.437 
358629.638,4225284.931,-81.101 
358629.638,4225234.931,-80.415 
358629.638,4225184.931,-79.568 
358629.638,4225134.931,-78.548 
358629.638,4225084.931,-77.393 
358629.638,4225034.931,-76.253 
358629.638,4224984.931,-75.242 
358629.638,4224934.931,-74.38 
358629.638,4224884.931,-73.819 
358629.638,4224834.931,-73.352 
358629.638,4224784.931,-73.252 
358629.638,4224734.931,-73.287 
358629.638,4224684.931,-73.225 
358629.638,4224634.931,-72.825 
358629.638,4224584.931,-72.25 
358629.638,4224534.931,-71.71 
358629.638,4224484.931,-70.962 
358629.638,4224434.931,-69.96 
358629.638,4224384.931,-68.752 
358629.638,4224334.931,-67.786 
358629.638,4224284.931,-66.601 
358629.638,4224234.931,-65.248 
358629.638,4224184.931,-63.667 
358629.638,4224134.931,-61.545 
358629.638,4224084.931,-58.044 
358629.638,4224034.931,-55.196 
358629.638,4223984.931,-55.344 
358629.638,4223934.931,-55.676 
358629.638,4223884.931,-55.683 
358629.638,4223834.931,-55.534 
358629.638,4223784.931,-55.071 
358629.638,4223734.931,-54.412 
358629.638,4223684.931,-53.501 
358629.638,4223634.931,-52.401 
358629.638,4223584.931,-51.408 
358629.638,4223534.931,-50.874 
358629.638,4223484.931,-50.983 
358629.638,4223434.931,-51.577 
358629.638,4223384.931,-51.963 
358629.638,4223334.931,-53.032 
358629.638,4223284.931,-55.763 
358629.638,4223234.931,-57.431 
358629.638,4223184.931,-58.839 
358629.638,4223134.931,-60.477 
358629.638,4223084.931,-63.764 
358629.638,4223034.931,-68.757 
358629.638,4222984.931,-72.442 
358629.638,4222934.931,-75.284 
358629.638,4222884.931,-77.481 
358629.638,4222834.931,-78.538 
358629.638,4222784.931,-79.002 
358629.638,4222734.931,-79.228 
358629.638,4222684.931,-79.42 
358629.638,4222634.931,-79.442 
358629.638,4222584.931,-79.362 
358629.638,4222534.931,-79.223 
358629.638,4222484.931,-79.071 
358629.638,4222434.931,-78.821 
358629.638,4222384.931,-78.467 
358629.638,4222334.931,-78.214 
358629.638,4222284.931,-77.827 
358629.638,4222234.931,-77.231 
358629.638,4222184.931,-76.829 
358629.638,4222134.931,-76.319 
358629.638,4222084.931,-75.734 
358629.638,4222034.931,-75.327 
358629.638,4221984.931,-74.58 
358629.638,4221934.931,-74.021 
358629.638,4221884.931,-73.375 
358629.638,4221834.931,-72.527 
358629.638,4221784.931,-71.878 
358629.638,4221734.931,-71.026 
358629.638,4221684.931,-70.028 
358629.638,4221634.931,-69.225 
358629.638,4221584.931,-68.42 
358629.638,4221534.931,-67.426 
358629.638,4221484.931,-66.373 
358629.638,4221434.931,-65.43 
358629.638,4221384.931,-64.574 
358629.638,4221334.931,-63.527 
358629.638,4221284.931,-62.528 
358629.638,4221234.931,-61.331 
358629.638,4221184.931,-60.284 
358629.638,4221134.931,-59.233 
358629.638,4221084.931,-58 
358629.638,4221034.931,-56.756 
358629.638,4220984.931,-55.566 
358629.638,4220934.931,-54.073 
358629.638,4220884.931,-52.813 
358629.638,4220834.931,-51.466 
358629.638,4220784.931,-49.929 
358629.638,4220734.931,-48.283 
358629.638,4220684.931,-46.713 
358629.638,4220634.931,-45.059 
358629.638,4220584.931,-43.512 
358679.638,4239684.931,-175.657 
358679.638,4239634.931,-155.61 
358679.638,4239584.931,-141.187 
358679.638,4239534.931,-128.754 
358679.638,4239484.931,-119.223 
358679.638,4239434.931,-109.63 
358679.638,4239384.931,-101.915 
358679.638,4239334.931,-97.667 
358679.638,4239284.931,-93.416 
358679.638,4239234.931,-89.759 
358679.638,4239184.931,-87.782 
358679.638,4239134.931,-85.599 
358679.638,4239084.931,-81.694 
358679.638,4239034.931,-81.19 
358679.638,4238984.931,-80.385 
358679.638,4238934.931,-79.608 
358679.638,4238884.931,-79.343 
358679.638,4238834.931,-79.3 
358679.638,4238784.931,-79.826 
358679.638,4238734.931,-80.263 
358679.638,4238684.931,-80.652 
358679.638,4238634.931,-81.536 
358679.638,4238584.931,-82.363 
358679.638,4238534.931,-86.07 
358679.638,4238484.931,-89.091 
358679.638,4238434.931,-91.324 
358679.638,4238384.931,-93.948 
358679.638,4238334.931,-98.376 
358679.638,4238284.931,-101.404 
358679.638,4238234.931,-106.864 
358679.638,4238184.931,-119.615 
358679.638,4238134.931,-140.382 
358679.638,4238084.931,-170.863 
358679.638,4231134.931,-171.327 
358679.638,4231084.931,-150.849 
358679.638,4231034.931,-136.543 
358679.638,4230984.931,-131.517 
358679.638,4230934.931,-128.651 
358679.638,4230884.931,-119.18 
358679.638,4230834.931,-112.212 
358679.638,4230784.931,-110.609 
358679.638,4230734.931,-108.943 
358679.638,4230684.931,-109.059 
358679.638,4230634.931,-108.221 
358679.638,4230584.931,-107.588 
358679.638,4230534.931,-106.831 
358679.638,4230484.931,-106.034 
358679.638,4230434.931,-105.242 
358679.638,4230384.931,-104.604 
358679.638,4230334.931,-104.097 
358679.638,4230284.931,-103.74 
358679.638,4230234.931,-103.414 
358679.638,4230184.931,-103.61 
358679.638,4230134.931,-103.792 
358679.638,4230084.931,-103.99 
358679.638,4230034.931,-104.222 
358679.638,4229984.931,-104.057 
358679.638,4229934.931,-103.536 
358679.638,4229884.931,-102.999 
358679.638,4229834.931,-102.369 
358679.638,4229784.931,-101.97 
358679.638,4229734.931,-101.555 
358679.638,4229684.931,-101.228 
358679.638,4229634.931,-101.313 
358679.638,4229584.931,-101.131 
358679.638,4229534.931,-100.847 
358679.638,4229484.931,-100.422 
358679.638,4229434.931,-101.507 
358679.638,4229384.931,-101.582 
358679.638,4229334.931,-101.583 
358679.638,4229284.931,-101.562 
358679.638,4229234.931,-101.283 
358679.638,4229184.931,-101.13 
358679.638,4229134.931,-101.088 
358679.638,4229084.931,-100.941 
358679.638,4229034.931,-100.821 
358679.638,4228984.931,-100.176 
358679.638,4228934.931,-101.313 
358679.638,4228884.931,-101.472 
358679.638,4228834.931,-101.513 
358679.638,4228784.931,-101.815 
358679.638,4228734.931,-101.643 
358679.638,4228684.931,-101.744 
358679.638,4228634.931,-101.515 
358679.638,4228584.931,-101.238 
358679.638,4228534.931,-100.572 
358679.638,4228484.931,-99.768 
358679.638,4228434.931,-98.923 
358679.638,4228384.931,-97.425 
358679.638,4228334.931,-97.045 
358679.638,4228284.931,-97.145 
358679.638,4228234.931,-97.141 
358679.638,4228184.931,-96.906 
358679.638,4228134.931,-96.843 
358679.638,4228084.931,-96.893 
358679.638,4228034.931,-96.8 
358679.638,4227984.931,-96.646 
358679.638,4227934.931,-96.505 
358679.638,4227884.931,-96.319 
358679.638,4227834.931,-95.806 
358679.638,4227784.931,-95.278 
358679.638,4227734.931,-94.918 
358679.638,4227684.931,-93.161 
358679.638,4227634.931,-89.341 
358679.638,4227584.931,-87.027 
358679.638,4227534.931,-87.49 
358679.638,4227484.931,-87.951 
358679.638,4227434.931,-87.786 
358679.638,4227384.931,-88.511 
358679.638,4227334.931,-89.635 
358679.638,4227284.931,-90.917 
358679.638,4227234.931,-91.253 
358679.638,4227184.931,-91.151 
358679.638,4227134.931,-90.75 
358679.638,4227084.931,-90.09 
358679.638,4227034.931,-89.525 
358679.638,4226984.931,-89.727 
358679.638,4226934.931,-90.856 
358679.638,4226884.931,-91.3 
358679.638,4226834.931,-91.236 
358679.638,4226784.931,-91.3 
358679.638,4226734.931,-91.2 
358679.638,4226684.931,-91.085 
358679.638,4226634.931,-91.285 
358679.638,4226584.931,-91.44 
358679.638,4226534.931,-91.706 
358679.638,4226484.931,-91.716 
358679.638,4226434.931,-91.3 
358679.638,4226384.931,-90.244 
358679.638,4226334.931,-88.656 
358679.638,4226284.931,-88.976 
358679.638,4226234.931,-88.653 
358679.638,4226184.931,-88.068 
358679.638,4226134.931,-87.794 
358679.638,4226084.931,-87.385 
358679.638,4226034.931,-86.021 
358679.638,4225984.931,-83.595 
358679.638,4225934.931,-83.017 
358679.638,4225884.931,-84.433 
358679.638,4225834.931,-84.727 
358679.638,4225784.931,-84.244 
358679.638,4225734.931,-83.538 
358679.638,4225684.931,-82.942 
358679.638,4225634.931,-83.613 
358679.638,4225584.931,-84.125 
358679.638,4225534.931,-83.991 
358679.638,4225484.931,-83.616 
358679.638,4225434.931,-82.343 
358679.638,4225384.931,-82.497 
358679.638,4225334.931,-82.25 
358679.638,4225284.931,-81.302 
358679.638,4225234.931,-80.715 
358679.638,4225184.931,-80.393 
358679.638,4225134.931,-79.355 
358679.638,4225084.931,-77.832 
358679.638,4225034.931,-75.754 
358679.638,4224984.931,-73.652 
358679.638,4224934.931,-72.792 
358679.638,4224884.931,-72.465 
358679.638,4224834.931,-71.809 
358679.638,4224784.931,-71.209 
358679.638,4224734.931,-72.16 
358679.638,4224684.931,-73.093 
358679.638,4224634.931,-72.982 
358679.638,4224584.931,-72.369 
358679.638,4224534.931,-71.554 
358679.638,4224484.931,-70.806 
358679.638,4224434.931,-69.917 
358679.638,4224384.931,-68.931 
358679.638,4224334.931,-68.005 
358679.638,4224284.931,-66.757 
358679.638,4224234.931,-65.372 
358679.638,4224184.931,-63.667 
358679.638,4224134.931,-61.95 
358679.638,4224084.931,-60.415 
358679.638,4224034.931,-58.719 
358679.638,4223984.931,-58.001 
358679.638,4223934.931,-57.64 
358679.638,4223884.931,-57.141 
358679.638,4223834.931,-56.391 
358679.638,4223784.931,-55.468 
358679.638,4223734.931,-54.412 
358679.638,4223684.931,-53.341 
358679.638,4223634.931,-52.195 
358679.638,4223584.931,-51.474 
358679.638,4223534.931,-51.253 
358679.638,4223484.931,-52.001 
358679.638,4223434.931,-53.681 
358679.638,4223384.931,-54.199 
358679.638,4223334.931,-55.665 
358679.638,4223284.931,-58.001 
358679.638,4223234.931,-58.961 
358679.638,4223184.931,-59.944 
358679.638,4223134.931,-60.796 
358679.638,4223084.931,-61.748 
358679.638,4223034.931,-66.834 
358679.638,4222984.931,-73.4 
358679.638,4222934.931,-76.658 
358679.638,4222884.931,-78.65 
358679.638,4222834.931,-79.443 
358679.638,4222784.931,-79.635 
358679.638,4222734.931,-79.78 
358679.638,4222684.931,-79.961 
358679.638,4222634.931,-80.108 
358679.638,4222584.931,-80.015 
358679.638,4222534.931,-80.009 
358679.638,4222484.931,-79.855 
358679.638,4222434.931,-79.605 
358679.638,4222384.931,-79.288 
358679.638,4222334.931,-79.064 
358679.638,4222284.931,-78.839 
358679.638,4222234.931,-78.504 
358679.638,4222184.931,-78.04 
358679.638,4222134.931,-77.678 
358679.638,4222084.931,-77.232 
358679.638,4222034.931,-76.633 
358679.638,4221984.931,-76.11 
358679.638,4221934.931,-75.487 
358679.638,4221884.931,-74.705 
358679.638,4221834.931,-73.833 
358679.638,4221784.931,-73.207 
358679.638,4221734.931,-72.275 
358679.638,4221684.931,-71.307 
358679.638,4221634.931,-70.381 
358679.638,4221584.931,-69.481 
358679.638,4221534.931,-68.539 
358679.638,4221484.931,-67.384 
358679.638,4221434.931,-66.429 
358679.638,4221384.931,-65.409 
358679.638,4221334.931,-64.433 
358679.638,4221284.931,-63.255 
358679.638,4221234.931,-62.238 
358679.638,4221184.931,-61.09 
358679.638,4221134.931,-59.984 
358679.638,4221084.931,-58.884 
358679.638,4221034.931,-57.788 
358679.638,4220984.931,-56.642 
358679.638,4220934.931,-55.394 
358679.638,4220884.931,-54.078 
358679.638,4220834.931,-52.662 
358679.638,4220784.931,-51.122 
358679.638,4220734.931,-49.531 
358679.638,4220684.931,-47.541 
358679.638,4220634.931,-45.68 
358679.638,4220584.931,-43.852 
358679.638,4220534.931,-41.823 
358679.638,4220484.931,-40.052 
358679.638,4220434.931,-39.495 
358729.638,4239684.931,-175.792 
358729.638,4239634.931,-155.69 
358729.638,4239584.931,-141.38 
358729.638,4239534.931,-129.529 
358729.638,4239484.931,-120.709 
358729.638,4239434.931,-111.354 
358729.638,4239384.931,-102.188 
358729.638,4239334.931,-98.014 
358729.638,4239284.931,-93.712 
358729.638,4239234.931,-90.101 
358729.638,4239184.931,-87.888 
358729.638,4239134.931,-86.209 
358729.638,4239084.931,-83.501 
358729.638,4239034.931,-81.424 
358729.638,4238984.931,-80.875 
358729.638,4238934.931,-80.093 
358729.638,4238884.931,-79.599 
358729.638,4238834.931,-79.471 
358729.638,4238784.931,-79.834 
358729.638,4238734.931,-80.335 
358729.638,4238684.931,-81.403 
358729.638,4238634.931,-83.049 
358729.638,4238584.931,-84.489 
358729.638,4238534.931,-87.715 
358729.638,4238484.931,-90.555 
358729.638,4238434.931,-93.228 
358729.638,4238384.931,-96.32 
358729.638,4238334.931,-100.312 
358729.638,4238284.931,-106.258 
358729.638,4238234.931,-116.549 
358729.638,4238184.931,-132.865 
358729.638,4238134.931,-157.172 
358729.638,4231134.931,-178.4 
358729.638,4231084.931,-166.23 
358729.638,4231034.931,-158.66 
358729.638,4230984.931,-154.31 
358729.638,4230934.931,-148.771 
358729.638,4230884.931,-133.486 
358729.638,4230834.931,-117.306 
358729.638,4230784.931,-111.917 
358729.638,4230734.931,-110.955 
358729.638,4230684.931,-110.396 
358729.638,4230634.931,-109.889 
358729.638,4230584.931,-109.289 
358729.638,4230534.931,-108.708 
358729.638,4230484.931,-107.94 
358729.638,4230434.931,-107.003 
358729.638,4230384.931,-106.416 
358729.638,4230334.931,-105.879 
358729.638,4230284.931,-105.429 
358729.638,4230234.931,-105.222 
358729.638,4230184.931,-105.23 
358729.638,4230134.931,-105.361 
358729.638,4230084.931,-105.505 
358729.638,4230034.931,-105.149 
358729.638,4229984.931,-104.832 
358729.638,4229934.931,-104.363 
358729.638,4229884.931,-103.926 
358729.638,4229834.931,-103.177 
358729.638,4229784.931,-102.595 
358729.638,4229734.931,-101.858 
358729.638,4229684.931,-101.292 
358729.638,4229634.931,-101.203 
358729.638,4229584.931,-101.225 
358729.638,4229534.931,-101.127 
358729.638,4229484.931,-101.233 
358729.638,4229434.931,-101.553 
358729.638,4229384.931,-101.598 
358729.638,4229334.931,-101.58 
358729.638,4229284.931,-101.893 
358729.638,4229234.931,-101.807 
358729.638,4229184.931,-101.907 
358729.638,4229134.931,-101.858 
358729.638,4229084.931,-101.722 
358729.638,4229034.931,-101.476 
358729.638,4228984.931,-100.058 
358729.638,4228934.931,-102.065 
358729.638,4228884.931,-102.329 
358729.638,4228834.931,-102.422 
358729.638,4228784.931,-102.447 
358729.638,4228734.931,-102.593 
358729.638,4228684.931,-102.401 
358729.638,4228634.931,-102.175 
358729.638,4228584.931,-102 
358729.638,4228534.931,-101.359 
358729.638,4228484.931,-100.502 
358729.638,4228434.931,-99.758 
358729.638,4228384.931,-98.732 
358729.638,4228334.931,-98.131 
358729.638,4228284.931,-98.112 
358729.638,4228234.931,-97.658 
358729.638,4228184.931,-97.314 
358729.638,4228134.931,-97.058 
358729.638,4228084.931,-97.022 
358729.638,4228034.931,-96.917 
358729.638,4227984.931,-96.803 
358729.638,4227934.931,-96.71 
358729.638,4227884.931,-96.817 
358729.638,4227834.931,-96.795 
358729.638,4227784.931,-96.411 
358729.638,4227734.931,-96.033 
358729.638,4227684.931,-95.146 
358729.638,4227634.931,-93.199 
358729.638,4227584.931,-91.123 
358729.638,4227534.931,-91.065 
358729.638,4227484.931,-90.78 
358729.638,4227434.931,-90.784 
358729.638,4227384.931,-91.19 
358729.638,4227334.931,-91.861 
358729.638,4227284.931,-92.209 
358729.638,4227234.931,-92.01 
358729.638,4227184.931,-91.606 
358729.638,4227134.931,-91.107 
358729.638,4227084.931,-90.404 
358729.638,4227034.931,-89.898 
358729.638,4226984.931,-89.559 
358729.638,4226934.931,-89.921 
358729.638,4226884.931,-89.799 
358729.638,4226834.931,-89.008 
358729.638,4226784.931,-89.892 
358729.638,4226734.931,-90.152 
358729.638,4226684.931,-90.228 
358729.638,4226634.931,-90.151 
358729.638,4226584.931,-90.231 
358729.638,4226534.931,-91.707 
358729.638,4226484.931,-92.012 
358729.638,4226434.931,-91.974 
358729.638,4226384.931,-91.249 
358729.638,4226334.931,-90.554 
358729.638,4226284.931,-90.249 
358729.638,4226234.931,-89.14 
358729.638,4226184.931,-87.479 
358729.638,4226134.931,-87.266 
358729.638,4226084.931,-88.108 
358729.638,4226034.931,-87.989 
358729.638,4225984.931,-87.564 
358729.638,4225934.931,-87.098 
358729.638,4225884.931,-86.752 
358729.638,4225834.931,-86.349 
358729.638,4225784.931,-85.945 
358729.638,4225734.931,-85.655 
358729.638,4225684.931,-85.16 
358729.638,4225634.931,-85.24 
358729.638,4225584.931,-85.047 
358729.638,4225534.931,-84.787 
358729.638,4225484.931,-84.445 
358729.638,4225434.931,-84.046 
358729.638,4225384.931,-83.646 
358729.638,4225334.931,-83.278 
358729.638,4225284.931,-82.843 
358729.638,4225234.931,-82.195 
358729.638,4225184.931,-81.48 
358729.638,4225134.931,-80.564 
358729.638,4225084.931,-78.795 
358729.638,4225034.931,-75.883 
358729.638,4224984.931,-72.388 
358729.638,4224934.931,-71.539 
358729.638,4224884.931,-70.973 
358729.638,4224834.931,-68.355 
358729.638,4224784.931,-66.995 
358729.638,4224734.931,-69.438 
358729.638,4224684.931,-73.065 
358729.638,4224634.931,-73.194 
358729.638,4224584.931,-72.491 
358729.638,4224534.931,-71.431 
358729.638,4224484.931,-70.678 
358729.638,4224434.931,-69.941 
358729.638,4224384.931,-68.93 
358729.638,4224334.931,-67.568 
358729.638,4224284.931,-66.4 
358729.638,4224234.931,-64.926 
358729.638,4224184.931,-63.329 
358729.638,4224134.931,-62.097 
358729.638,4224084.931,-61.099 
358729.638,4224034.931,-60.023 
358729.638,4223984.931,-59.268 
358729.638,4223934.931,-58.674 
358729.638,4223884.931,-58.2 
358729.638,4223834.931,-57.231 
358729.638,4223784.931,-56.096 
358729.638,4223734.931,-54.782 
358729.638,4223684.931,-53.929 
358729.638,4223634.931,-52.933 
358729.638,4223584.931,-53.178 
358729.638,4223534.931,-54.383 
358729.638,4223484.931,-56.864 
358729.638,4223434.931,-59.015 
358729.638,4223384.931,-60.389 
358729.638,4223334.931,-61.559 
358729.638,4223284.931,-61.672 
358729.638,4223234.931,-61.283 
358729.638,4223184.931,-61.146 
358729.638,4223134.931,-60.795 
358729.638,4223084.931,-60.392 
358729.638,4223034.931,-66.198 
358729.638,4222984.931,-74.867 
358729.638,4222934.931,-78.137 
358729.638,4222884.931,-79.641 
358729.638,4222834.931,-80.242 
358729.638,4222784.931,-80.492 
358729.638,4222734.931,-80.548 
358729.638,4222684.931,-80.722 
358729.638,4222634.931,-80.722 
358729.638,4222584.931,-80.622 
358729.638,4222534.931,-80.511 
358729.638,4222484.931,-80.362 
358729.638,4222434.931,-80.112 
358729.638,4222384.931,-79.862 
358729.638,4222334.931,-79.52 
358729.638,4222284.931,-79.263 
358729.638,4222234.931,-79.007 
358729.638,4222184.931,-78.66 
358729.638,4222134.931,-78.214 
358729.638,4222084.931,-77.951 
358729.638,4222034.931,-77.503 
358729.638,4221984.931,-77.004 
358729.638,4221934.931,-76.593 
358729.638,4221884.931,-75.653 
358729.638,4221834.931,-75.033 
358729.638,4221784.931,-74.515 
358729.638,4221734.931,-72.819 
358729.638,4221684.931,-72.506 
358729.638,4221634.931,-71.825 
358729.638,4221584.931,-70.448 
358729.638,4221534.931,-69.398 
358729.638,4221484.931,-68.691 
358729.638,4221434.931,-67.75 
358729.638,4221384.931,-66.748 
358729.638,4221334.931,-65.547 
358729.638,4221284.931,-64.448 
358729.638,4221234.931,-63.251 
358729.638,4221184.931,-62.204 
358729.638,4221134.931,-60.956 
358729.638,4221084.931,-59.752 
358729.638,4221034.931,-58.743 
358729.638,4220984.931,-57.406 
358729.638,4220934.931,-56.151 
358729.638,4220884.931,-54.803 
358729.638,4220834.931,-53.461 
358729.638,4220784.931,-52.057 
358729.638,4220734.931,-50.559 
358729.638,4220684.931,-48.826 
358729.638,4220634.931,-46.893 
358729.638,4220584.931,-44.751 
358729.638,4220534.931,-42.51 
358729.638,4220484.931,-40.833 
358729.638,4220434.931,-39.666 
358729.638,4220384.931,-38.797 
358779.638,4239684.931,-175.907 
358779.638,4239634.931,-155.993 
358779.638,4239584.931,-141.759 
358779.638,4239534.931,-130.28 
358779.638,4239484.931,-121.209 
358779.638,4239434.931,-112.399 
358779.638,4239384.931,-104.462 
358779.638,4239334.931,-98.652 
358779.638,4239284.931,-94.164 
358779.638,4239234.931,-90.576 
358779.638,4239184.931,-88.131 
358779.638,4239134.931,-86.496 
358779.638,4239084.931,-85.175 
358779.638,4239034.931,-82.701 
358779.638,4238984.931,-81.968 
358779.638,4238934.931,-81.027 
358779.638,4238884.931,-80.349 
358779.638,4238834.931,-79.919 
358779.638,4238784.931,-80.467 
358779.638,4238734.931,-81.146 
358779.638,4238684.931,-82.546 
358779.638,4238634.931,-84.781 
358779.638,4238584.931,-87.46 
358779.638,4238534.931,-90.532 
358779.638,4238484.931,-92.651 
358779.638,4238434.931,-95.637 
358779.638,4238384.931,-99.15 
358779.638,4238334.931,-104.592 
358779.638,4238284.931,-113.227 
358779.638,4238234.931,-130.581 
358779.638,4238184.931,-155.922 
358779.638,4230934.931,-165.145 
358779.638,4230884.931,-142.519 
358779.638,4230834.931,-122.416 
358779.638,4230784.931,-113.562 
358779.638,4230734.931,-112.027 
358779.638,4230684.931,-111.489 
358779.638,4230634.931,-110.913 
358779.638,4230584.931,-110.331 
358779.638,4230534.931,-109.993 
358779.638,4230484.931,-109.314 
358779.638,4230434.931,-108.63 
358779.638,4230384.931,-108.036 
358779.638,4230334.931,-108.012 
358779.638,4230284.931,-107.694 
358779.638,4230234.931,-105.909 
358779.638,4230184.931,-104.164 
358779.638,4230134.931,-107.032 
358779.638,4230084.931,-106.975 
358779.638,4230034.931,-105.943 
358779.638,4229984.931,-105.963 
358779.638,4229934.931,-105.199 
358779.638,4229884.931,-104.669 
358779.638,4229834.931,-103.833 
358779.638,4229784.931,-103.069 
358779.638,4229734.931,-102.144 
358779.638,4229684.931,-101.688 
358779.638,4229634.931,-101.657 
358779.638,4229584.931,-101.502 
358779.638,4229534.931,-101.317 
358779.638,4229484.931,-101.468 
358779.638,4229434.931,-101.557 
358779.638,4229384.931,-101.511 
358779.638,4229334.931,-101.617 
358779.638,4229284.931,-101.71 
358779.638,4229234.931,-101.942 
358779.638,4229184.931,-102.113 
358779.638,4229134.931,-102.08 
358779.638,4229084.931,-102.279 
358779.638,4229034.931,-102.324 
358779.638,4228984.931,-102.31 
358779.638,4228934.931,-102.969 
358779.638,4228884.931,-103.248 
358779.638,4228834.931,-103.437 
358779.638,4228784.931,-103.493 
358779.638,4228734.931,-103.654 
358779.638,4228684.931,-103.763 
358779.638,4228634.931,-104.019 
358779.638,4228584.931,-103.81 
358779.638,4228534.931,-102.793 
358779.638,4228484.931,-101.85 
358779.638,4228434.931,-100.649 
358779.638,4228384.931,-99.579 
358779.638,4228334.931,-99.106 
358779.638,4228284.931,-98.685 
358779.638,4228234.931,-98.25 
358779.638,4228184.931,-98.1 
358779.638,4228134.931,-97.944 
358779.638,4228084.931,-97.941 
358779.638,4228034.931,-97.923 
358779.638,4227984.931,-97.516 
358779.638,4227934.931,-97.301 
358779.638,4227884.931,-97.271 
358779.638,4227834.931,-97.314 
358779.638,4227784.931,-96.888 
358779.638,4227734.931,-96.162 
358779.638,4227684.931,-94.908 
358779.638,4227634.931,-93.233 
358779.638,4227584.931,-91.732 
358779.638,4227534.931,-92.961 
358779.638,4227484.931,-93.11 
358779.638,4227434.931,-93.312 
358779.638,4227384.931,-93.242 
358779.638,4227334.931,-93.129 
358779.638,4227284.931,-92.82 
358779.638,4227234.931,-92.436 
358779.638,4227184.931,-91.951 
358779.638,4227134.931,-91.549 
358779.638,4227084.931,-90.728 
358779.638,4227034.931,-89.565 
358779.638,4226984.931,-87.908 
358779.638,4226934.931,-87.659 
358779.638,4226884.931,-87.854 
358779.638,4226834.931,-87.685 
358779.638,4226784.931,-87.771 
358779.638,4226734.931,-87.964 
358779.638,4226684.931,-88.143 
358779.638,4226634.931,-89.007 
358779.638,4226584.931,-88.897 
358779.638,4226534.931,-91.861 
358779.638,4226484.931,-92.624 
358779.638,4226434.931,-92.728 
358779.638,4226384.931,-92.488 
358779.638,4226334.931,-92.192 
358779.638,4226284.931,-91.5 
358779.638,4226234.931,-89.518 
358779.638,4226184.931,-85.774 
358779.638,4226134.931,-85.553 
358779.638,4226084.931,-88.838 
358779.638,4226034.931,-89.028 
358779.638,4225984.931,-88.778 
358779.638,4225934.931,-88.343 
358779.638,4225884.931,-87.94 
358779.638,4225834.931,-87.468 
358779.638,4225784.931,-87.097 
358779.638,4225734.931,-86.901 
358779.638,4225684.931,-86.69 
358779.638,4225634.931,-86.545 
358779.638,4225584.931,-86.296 
358779.638,4225534.931,-86.029 
358779.638,4225484.931,-85.47 
358779.638,4225434.931,-84.909 
358779.638,4225384.931,-84.448 
358779.638,4225334.931,-83.934 
358779.638,4225284.931,-83.498 
358779.638,4225234.931,-83.099 
358779.638,4225184.931,-82.585 
358779.638,4225134.931,-81.788 
358779.638,4225084.931,-80.583 
358779.638,4225034.931,-78.395 
358779.638,4224984.931,-75.587 
358779.638,4224934.931,-73.746 
358779.638,4224884.931,-72.165 
358779.638,4224834.931,-69.787 
358779.638,4224784.931,-69.727 
358779.638,4224734.931,-71.509 
358779.638,4224684.931,-74.305 
358779.638,4224634.931,-74.455 
358779.638,4224584.931,-73.916 
358779.638,4224534.931,-72.969 
358779.638,4224484.931,-72.135 
358779.638,4224434.931,-71.497 
358779.638,4224384.931,-70.178 
358779.638,4224334.931,-68.422 
358779.638,4224284.931,-66.354 
358779.638,4224234.931,-64.357 
358779.638,4224184.931,-62.762 
358779.638,4224134.931,-61.909 
358779.638,4224084.931,-61.085 
358779.638,4224034.931,-60.44 
358779.638,4223984.931,-59.791 
358779.638,4223934.931,-59.28 
358779.638,4223884.931,-58.898 
358779.638,4223834.931,-58.588 
358779.638,4223784.931,-58.419 
358779.638,4223734.931,-58.037 
358779.638,4223684.931,-57.735 
358779.638,4223634.931,-57.646 
358779.638,4223584.931,-60.054 
358779.638,4223534.931,-64.061 
358779.638,4223484.931,-66.352 
358779.638,4223434.931,-66.172 
358779.638,4223384.931,-67.799 
358779.638,4223334.931,-67.996 
358779.638,4223284.931,-66.732 
358779.638,4223234.931,-64.733 
358779.638,4223184.931,-63.326 
358779.638,4223134.931,-62.754 
358779.638,4223084.931,-63.489 
358779.638,4223034.931,-70.919 
358779.638,4222984.931,-77.367 
358779.638,4222934.931,-79.577 
358779.638,4222884.931,-80.677 
358779.638,4222834.931,-81.398 
358779.638,4222784.931,-81.612 
358779.638,4222734.931,-81.678 
358779.638,4222684.931,-81.593 
358779.638,4222634.931,-81.471 
358779.638,4222584.931,-81.393 
358779.638,4222534.931,-81.26 
358779.638,4222484.931,-81.111 
358779.638,4222434.931,-80.861 
358779.638,4222384.931,-80.612 
358779.638,4222334.931,-80.301 
358779.638,4222284.931,-79.931 
358779.638,4222234.931,-79.603 
358779.638,4222184.931,-79.232 
358779.638,4222134.931,-78.804 
358779.638,4222084.931,-78.401 
358779.638,4222034.931,-77.943 
358779.638,4221984.931,-77.403 
358779.638,4221934.931,-77.004 
358779.638,4221884.931,-76.505 
358779.638,4221834.931,-75.947 
358779.638,4221784.931,-75.3 
358779.638,4221734.931,-74.605 
358779.638,4221684.931,-73.856 
358779.638,4221634.931,-72.862 
358779.638,4221584.931,-71.834 
358779.638,4221534.931,-70.881 
358779.638,4221484.931,-70.161 
358779.638,4221434.931,-69.184 
358779.638,4221384.931,-68.329 
358779.638,4221334.931,-67.245 
358779.638,4221284.931,-66.054 
358779.638,4221234.931,-64.864 
358779.638,4221184.931,-63.759 
358779.638,4221134.931,-62.567 
358779.638,4221084.931,-61.324 
358779.638,4221034.931,-59.735 
358779.638,4220984.931,-58.514 
358779.638,4220934.931,-57.261 
358779.638,4220884.931,-55.916 
358779.638,4220834.931,-54.517 
358779.638,4220784.931,-52.963 
358779.638,4220734.931,-51.372 
358779.638,4220684.931,-49.687 
358779.638,4220634.931,-47.736 
358779.638,4220584.931,-45.814 
358779.638,4220534.931,-43.955 
358779.638,4220484.931,-42.352 
358779.638,4220434.931,-40.835 
358779.638,4220384.931,-39.526 
358779.638,4220334.931,-38.317 
358779.638,4220284.931,-37.586 
358829.638,4239684.931,-175.738 
358829.638,4239634.931,-156.388 
358829.638,4239584.931,-141.862 
358829.638,4239534.931,-131.553 
358829.638,4239484.931,-122.12 
358829.638,4239434.931,-112.084 
358829.638,4239384.931,-106.055 
358829.638,4239334.931,-100.982 
358829.638,4239284.931,-94.892 
358829.638,4239234.931,-91.166 
358829.638,4239184.931,-88.678 
358829.638,4239134.931,-86.981 
358829.638,4239084.931,-86.035 
358829.638,4239034.931,-84.255 
358829.638,4238984.931,-82.976 
358829.638,4238934.931,-82.133 
358829.638,4238884.931,-81.585 
358829.638,4238834.931,-80.87 
358829.638,4238784.931,-81.08 
358829.638,4238734.931,-82.594 
358829.638,4238684.931,-84.163 
358829.638,4238634.931,-86.804 
358829.638,4238584.931,-90.305 
358829.638,4238534.931,-93.022 
358829.638,4238484.931,-95.987 
358829.638,4238434.931,-98.155 
358829.638,4238384.931,-102.192 
358829.638,4238334.931,-110.477 
358829.638,4238284.931,-122.762 
358829.638,4238234.931,-146.997 
358829.638,4238184.931,-177 
358829.638,4230934.931,-171.037 
358829.638,4230884.931,-148.587 
358829.638,4230834.931,-130.498 
358829.638,4230784.931,-117.108 
358829.638,4230734.931,-113.313 
358829.638,4230684.931,-112.513 
358829.638,4230634.931,-111.878 
358829.638,4230584.931,-111.45 
358829.638,4230534.931,-111.155 
358829.638,4230484.931,-110.556 
358829.638,4230434.931,-109.964 
358829.638,4230384.931,-109.631 
358829.638,4230334.931,-109.382 
358829.638,4230284.931,-109.16 
358829.638,4230234.931,-109.068 
358829.638,4230184.931,-108.747 
358829.638,4230134.931,-108.817 
358829.638,4230084.931,-108.564 
358829.638,4230034.931,-106.066 
358829.638,4229984.931,-107.355 
358829.638,4229934.931,-104.098 
358829.638,4229884.931,-104.848 
358829.638,4229834.931,-104.877 
358829.638,4229784.931,-103.895 
358829.638,4229734.931,-102.35 
358829.638,4229684.931,-101.621 
358829.638,4229634.931,-101.891 
358829.638,4229584.931,-101.812 
358829.638,4229534.931,-101.985 
358829.638,4229484.931,-101.955 
358829.638,4229434.931,-101.63 
358829.638,4229384.931,-101.498 
358829.638,4229334.931,-101.637 
358829.638,4229284.931,-101.573 
358829.638,4229234.931,-101.695 
358829.638,4229184.931,-102.139 
358829.638,4229134.931,-102.207 
358829.638,4229084.931,-102.429 
358829.638,4229034.931,-102.607 
358829.638,4228984.931,-103.07 
358829.638,4228934.931,-103.648 
358829.638,4228884.931,-103.967 
358829.638,4228834.931,-104.46 
358829.638,4228784.931,-104.647 
358829.638,4228734.931,-105.156 
358829.638,4228684.931,-106.095 
358829.638,4228634.931,-107.659 
358829.638,4228584.931,-108.789 
358829.638,4228534.931,-106.439 
358829.638,4228484.931,-103.568 
358829.638,4228434.931,-101.955 
358829.638,4228384.931,-100.778 
358829.638,4228334.931,-100.071 
358829.638,4228284.931,-99.319 
358829.638,4228234.931,-99.069 
358829.638,4228184.931,-98.813 
358829.638,4228134.931,-98.557 
358829.638,4228084.931,-98.702 
358829.638,4228034.931,-98.627 
358829.638,4227984.931,-98.426 
358829.638,4227934.931,-98.359 
358829.638,4227884.931,-98.32 
358829.638,4227834.931,-98.166 
358829.638,4227784.931,-97.67 
358829.638,4227734.931,-96.183 
358829.638,4227684.931,-92.854 
358829.638,4227634.931,-91.241 
358829.638,4227584.931,-92.858 
358829.638,4227534.931,-93.626 
358829.638,4227484.931,-94.113 
358829.638,4227434.931,-94.327 
358829.638,4227384.931,-94.313 
358829.638,4227334.931,-94.265 
358829.638,4227284.931,-93.928 
358829.638,4227234.931,-93.573 
358829.638,4227184.931,-92.725 
358829.638,4227134.931,-91.947 
358829.638,4227084.931,-90.39 
358829.638,4227034.931,-89.082 
358829.638,4226984.931,-88.587 
358829.638,4226934.931,-88.846 
358829.638,4226884.931,-89.787 
358829.638,4226834.931,-90.467 
358829.638,4226784.931,-90.466 
358829.638,4226734.931,-90.407 
358829.638,4226684.931,-90.466 
358829.638,4226634.931,-90.796 
358829.638,4226584.931,-90.052 
358829.638,4226534.931,-91.902 
358829.638,4226484.931,-93.418 
358829.638,4226434.931,-93.73 
358829.638,4226384.931,-93.63 
358829.638,4226334.931,-93.384 
358829.638,4226284.931,-92.757 
358829.638,4226234.931,-90.712 
358829.638,4226184.931,-88.234 
358829.638,4226134.931,-88.257 
358829.638,4226084.931,-90.211 
358829.638,4226034.931,-90.36 
358829.638,4225984.931,-89.861 
358829.638,4225934.931,-89.455 
358829.638,4225884.931,-89.048 
358829.638,4225834.931,-88.74 
358829.638,4225784.931,-88.54 
358829.638,4225734.931,-88.399 
358829.638,4225684.931,-88.15 
358829.638,4225634.931,-87.861 
358829.638,4225584.931,-87.562 
358829.638,4225534.931,-87.192 
358829.638,4225484.931,-86.75 
358829.638,4225434.931,-86.216 
358829.638,4225384.931,-85.659 
358829.638,4225334.931,-85.16 
358829.638,4225284.931,-84.58 
358829.638,4225234.931,-84.026 
358829.638,4225184.931,-83.363 
358829.638,4225134.931,-82.67 
358829.638,4225084.931,-82.007 
358829.638,4225034.931,-80.781 
358829.638,4224984.931,-78.81 
358829.638,4224934.931,-77.144 
358829.638,4224884.931,-75.574 
358829.638,4224834.931,-74.675 
358829.638,4224784.931,-74.708 
358829.638,4224734.931,-75.828 
358829.638,4224684.931,-77.124 
358829.638,4224634.931,-76.92 
358829.638,4224584.931,-76.409 
358829.638,4224534.931,-76.031 
358829.638,4224484.931,-75.509 
358829.638,4224434.931,-74.394 
358829.638,4224384.931,-72.724 
358829.638,4224334.931,-70.442 
358829.638,4224284.931,-67.408 
358829.638,4224234.931,-64.326 
358829.638,4224184.931,-62.147 
358829.638,4224134.931,-61.235 
358829.638,4224084.931,-60.766 
358829.638,4224034.931,-60.364 
358829.638,4223984.931,-60.129 
358829.638,4223934.931,-60.032 
358829.638,4223884.931,-60.255 
358829.638,4223834.931,-61.377 
358829.638,4223784.931,-62.992 
358829.638,4223734.931,-64.798 
358829.638,4223684.931,-66.745 
358829.638,4223634.931,-68.009 
358829.638,4223584.931,-69.532 
358829.638,4223534.931,-72.619 
358829.638,4223484.931,-73.757 
358829.638,4223434.931,-73.617 
358829.638,4223384.931,-73.404 
358829.638,4223334.931,-72.141 
358829.638,4223284.931,-71.349 
358829.638,4223234.931,-69.554 
358829.638,4223184.931,-68.118 
358829.638,4223134.931,-69.396 
358829.638,4223084.931,-72.137 
358829.638,4223034.931,-76.631 
358829.638,4222984.931,-80.055 
358829.638,4222934.931,-81.376 
358829.638,4222884.931,-81.968 
358829.638,4222834.931,-82.547 
358829.638,4222784.931,-82.633 
358829.638,4222734.931,-82.726 
358829.638,4222684.931,-82.662 
358829.638,4222634.931,-82.533 
358829.638,4222584.931,-82.372 
358829.638,4222534.931,-82.123 
358829.638,4222484.931,-81.967 
358829.638,4222434.931,-81.716 
358829.638,4222384.931,-81.368 
358829.638,4222334.931,-81.109 
358829.638,4222284.931,-80.71 
358829.638,4222234.931,-80.405 
358829.638,4222184.931,-79.912 
358829.638,4222134.931,-79.513 
358829.638,4222084.931,-79.01 
358829.638,4222034.931,-78.515 
358829.638,4221984.931,-78.016 
358829.638,4221934.931,-77.521 
358829.638,4221884.931,-77.111 
358829.638,4221834.931,-76.508 
358829.638,4221784.931,-75.859 
358829.638,4221734.931,-75.201 
358829.638,4221684.931,-74.411 
358829.638,4221634.931,-73.611 
358829.638,4221584.931,-72.713 
358829.638,4221534.931,-71.815 
358829.638,4221484.931,-70.817 
358829.638,4221434.931,-69.919 
358829.638,4221384.931,-68.917 
358829.638,4221334.931,-68.016 
358829.638,4221284.931,-67.066 
358829.638,4221234.931,-66.013 
358829.638,4221184.931,-64.818 
358829.638,4221134.931,-63.723 
358829.638,4221084.931,-62.484 
358829.638,4221034.931,-60.771 
358829.638,4220984.931,-59.533 
358829.638,4220934.931,-58.737 
358829.638,4220884.931,-57.086 
358829.638,4220834.931,-56.136 
358829.638,4220784.931,-54.496 
358829.638,4220734.931,-52.691 
358829.638,4220684.931,-50.894 
358829.638,4220634.931,-48.792 
358829.638,4220584.931,-46.837 
358829.638,4220534.931,-45.176 
358829.638,4220484.931,-43.778 
358829.638,4220434.931,-42.287 
358829.638,4220384.931,-40.998 
358829.638,4220334.931,-39.59 
358829.638,4220284.931,-38.928 
358879.638,4239684.931,-175.146 
358879.638,4239634.931,-156.403 
358879.638,4239584.931,-141.798 
358879.638,4239534.931,-131.784 
358879.638,4239484.931,-123.566 
358879.638,4239434.931,-113.416 
358879.638,4239384.931,-106.967 
358879.638,4239334.931,-102.686 
358879.638,4239284.931,-96.367 
358879.638,4239234.931,-91.574 
358879.638,4239184.931,-89.031 
358879.638,4239134.931,-87.466 
358879.638,4239084.931,-86.565 
358879.638,4239034.931,-85.65 
358879.638,4238984.931,-83.555 
358879.638,4238934.931,-82.956 
358879.638,4238884.931,-82.171 
358879.638,4238834.931,-81.574 
358879.638,4238784.931,-81.305 
358879.638,4238734.931,-83.306 
358879.638,4238684.931,-85.68 
358879.638,4238634.931,-88.619 
358879.638,4238584.931,-92.445 
358879.638,4238534.931,-96.053 
358879.638,4238484.931,-99.278 
358879.638,4238434.931,-102.101 
358879.638,4238384.931,-107.376 
358879.638,4238334.931,-117.372 
358879.638,4238284.931,-137.611 
358879.638,4238234.931,-166.294 
358879.638,4230884.931,-165.771 
358879.638,4230834.931,-145.453 
358879.638,4230784.931,-126.441 
358879.638,4230734.931,-116.145 
358879.638,4230684.931,-113.69 
358879.638,4230634.931,-112.809 
358879.638,4230584.931,-112.362 
358879.638,4230534.931,-111.949 
358879.638,4230484.931,-111.399 
358879.638,4230434.931,-111.084 
358879.638,4230384.931,-110.757 
358879.638,4230334.931,-110.474 
358879.638,4230284.931,-110.192 
358879.638,4230234.931,-109.986 
358879.638,4230184.931,-109.937 
358879.638,4230134.931,-109.769 
358879.638,4230084.931,-109.506 
358879.638,4230034.931,-109.272 
358879.638,4229984.931,-108.89 
358879.638,4229934.931,-107.4 
358879.638,4229884.931,-103.301 
358879.638,4229834.931,-104.753 
358879.638,4229784.931,-104.941 
358879.638,4229734.931,-102.621 
358879.638,4229684.931,-102.046 
358879.638,4229634.931,-103.111 
358879.638,4229584.931,-102.836 
358879.638,4229534.931,-102.221 
358879.638,4229484.931,-101.792 
358879.638,4229434.931,-101.391 
358879.638,4229384.931,-101.288 
358879.638,4229334.931,-101.269 
358879.638,4229284.931,-101.155 
358879.638,4229234.931,-101.472 
358879.638,4229184.931,-102.082 
358879.638,4229134.931,-102.597 
358879.638,4229084.931,-102.791 
358879.638,4229034.931,-102.816 
358879.638,4228984.931,-103.275 
358879.638,4228934.931,-103.743 
358879.638,4228884.931,-104.172 
358879.638,4228834.931,-104.879 
358879.638,4228784.931,-105.592 
358879.638,4228734.931,-106.99 
358879.638,4228684.931,-109.938 
358879.638,4228634.931,-116.917 
358879.638,4228584.931,-122.221 
358879.638,4228534.931,-117.657 
358879.638,4228484.931,-108.358 
358879.638,4228434.931,-104.157 
358879.638,4228384.931,-102.333 
358879.638,4228334.931,-101.528 
358879.638,4228284.931,-100.624 
358879.638,4228234.931,-100.338 
358879.638,4228184.931,-99.955 
358879.638,4228134.931,-99.619 
358879.638,4228084.931,-99.526 
358879.638,4228034.931,-99.491 
358879.638,4227984.931,-99.169 
358879.638,4227934.931,-99.169 
358879.638,4227884.931,-99.069 
358879.638,4227834.931,-98.992 
358879.638,4227784.931,-98.406 
358879.638,4227734.931,-95.933 
358879.638,4227684.931,-94.487 
358879.638,4227634.931,-93.657 
358879.638,4227584.931,-93.765 
358879.638,4227534.931,-94.118 
358879.638,4227484.931,-94.846 
358879.638,4227434.931,-95.031 
358879.638,4227384.931,-94.929 
358879.638,4227334.931,-95.138 
358879.638,4227284.931,-95.18 
358879.638,4227234.931,-94.98 
358879.638,4227184.931,-94.078 
358879.638,4227134.931,-93.033 
358879.638,4227084.931,-91.76 
358879.638,4227034.931,-91.759 
358879.638,4226984.931,-92.687 
358879.638,4226934.931,-92.774 
358879.638,4226884.931,-92.79 
358879.638,4226834.931,-92.713 
358879.638,4226784.931,-92.565 
358879.638,4226734.931,-92.642 
358879.638,4226684.931,-92.82 
358879.638,4226634.931,-92.682 
358879.638,4226584.931,-91.81 
358879.638,4226534.931,-93.139 
358879.638,4226484.931,-94.572 
358879.638,4226434.931,-94.935 
358879.638,4226384.931,-94.685 
358879.638,4226334.931,-94.323 
358879.638,4226284.931,-93.934 
358879.638,4226234.931,-92.605 
358879.638,4226184.931,-90.915 
358879.638,4226134.931,-91.823 
358879.638,4226084.931,-92.412 
358879.638,4226034.931,-92.277 
358879.638,4225984.931,-91.669 
358879.638,4225934.931,-91.067 
358879.638,4225884.931,-90.606 
358879.638,4225834.931,-90.295 
358879.638,4225784.931,-90.095 
358879.638,4225734.931,-90.054 
358879.638,4225684.931,-89.754 
358879.638,4225634.931,-89.433 
358879.638,4225584.931,-88.965 
358879.638,4225534.931,-88.461 
358879.638,4225484.931,-87.905 
358879.638,4225434.931,-87.406 
358879.638,4225384.931,-86.907 
358879.638,4225334.931,-86.408 
358879.638,4225284.931,-85.853 
358879.638,4225234.931,-85.31 
358879.638,4225184.931,-84.774 
358879.638,4225134.931,-84.268 
358879.638,4225084.931,-83.726 
358879.638,4225034.931,-82.928 
358879.638,4224984.931,-81.766 
358879.638,4224934.931,-80.135 
358879.638,4224884.931,-78.906 
358879.638,4224834.931,-78.848 
358879.638,4224784.931,-79.077 
358879.638,4224734.931,-79.436 
358879.638,4224684.931,-79.732 
358879.638,4224634.931,-79.547 
358879.638,4224584.931,-78.788 
358879.638,4224534.931,-78.093 
358879.638,4224484.931,-77.502 
358879.638,4224434.931,-76.167 
358879.638,4224384.931,-73.791 
358879.638,4224334.931,-71.383 
358879.638,4224284.931,-67.46 
358879.638,4224234.931,-63.75 
358879.638,4224184.931,-61.63 
358879.638,4224134.931,-60.647 
358879.638,4224084.931,-60.27 
358879.638,4224034.931,-60.058 
358879.638,4223984.931,-60.556 
358879.638,4223934.931,-61.571 
358879.638,4223884.931,-64.48 
358879.638,4223834.931,-67.746 
358879.638,4223784.931,-70.127 
358879.638,4223734.931,-72.064 
358879.638,4223684.931,-73.89 
358879.638,4223634.931,-75.022 
358879.638,4223584.931,-75.876 
358879.638,4223534.931,-76.597 
358879.638,4223484.931,-76.707 
358879.638,4223434.931,-76.545 
