689850.000,4341640.098,-465.41 
689850.000,4341540.121,-492.24 
689850.000,4341440.145,-506.4 
689850.000,4341340.168,-495.62 
689850.000,4341240.192,-479.69 
689850.000,4341140.215,-450.07 
689850.000,4341040.238,-428.81 
689850.000,4340940.262,-417.43 
689850.000,4340840.285,-415.96 
689850.000,4340740.308,-417.42 
689850.000,4340640.332,-416.85 
689850.000,4340540.355,-414.37 
689850.000,4340440.379,-414.67 
689850.000,4340340.402,-410.74 
689850.000,4340240.425,-408.75 
689850.000,4340140.449,-408.41 
689850.000,4340040.472,-410.26 
689850.000,4339940.496,-416.07 
689850.000,4339840.519,-420.71 
689850.000,4339740.542,-420.45 
689850.000,4339640.566,-416.13 
689850.000,4339540.589,-411.6 
689850.000,4339440.612,-410.05 
689850.000,4339340.636,-407.42 
689850.000,4339240.659,-405.34 
689850.000,4339140.683,-404.04 
689850.000,4339040.706,-402.77 
689850.000,4338940.729,-400.29 
689850.000,4338840.753,-396.56 
689850.000,4338740.776,-384.42 
689850.000,4338640.799,-371.42 
689850.000,4338540.823,-360.72 
689850.000,4338440.846,-347.8 
689850.000,4338340.870,-331.69 
689850.000,4338240.893,-317.1 
689850.000,4338140.916,-304.14 
689850.000,4338040.940,-296.12 
689850.000,4337940.963,-289.81 
689850.000,4337840.987,-283.74 
689850.000,4337741.010,-276.94 
689850.000,4337641.033,-268.52 
689850.000,4337541.057,-257.47 
689850.000,4337441.080,-243.05 
689850.000,4337341.103,-228.2 
689850.000,4337241.127,-222.97 
689850.000,4337141.150,-223.74 
689850.000,4337041.174,-225.18 
689850.000,4336941.197,-226.63 
689850.000,4336841.220,-225.93 
689850.000,4336741.244,-226 
689850.000,4336641.267,-227.06 
689850.000,4336541.290,-226.86 
689850.000,4336441.314,-224.53 
689850.000,4336341.337,-226.39 
689850.000,4336241.361,-223.87 
689850.000,4336141.384,-224.41 
689850.000,4336041.407,-225.16 
689850.000,4335941.431,-220.17 
689850.000,4335841.454,-221.13 
689850.000,4335741.478,-225.39 
689850.000,4335641.501,-229.67 
689850.000,4335541.524,-226.99 
689850.000,4335441.548,-206.13 
689850.000,4335341.571,-198.43 
689850.000,4335241.594,-196.05 
689850.000,4335141.618,-195.42 
689850.000,4335041.641,-197.37 
689850.000,4334941.665,-205.22 
689850.000,4334841.688,-214.53 
689850.000,4334741.711,-215.91 
689850.000,4334641.735,-201.11 
689850.000,4334541.758,-198.24 
689850.000,4334441.781,-196.77 
689850.000,4334341.805,-193.17 
689850.000,4334241.828,-190.56 
689850.000,4334141.852,-188.52 
689850.000,4334041.875,-184.4 
689850.000,4333941.898,-178.76 
689850.000,4333841.922,-175.85 
689850.000,4333741.945,-165.08 
689850.000,4333641.969,-159.92 
689850.000,4333541.992,-159.07 
689850.000,4333442.015,-161.58 
689850.000,4333342.039,-164.22 
689850.000,4333242.062,-167.98 
689850.000,4333142.085,-165.94 
689850.000,4333042.109,-160.07 
689850.000,4332942.132,-155.47 
689850.000,4332842.156,-147.7 
689850.000,4332742.179,-143.02 
689850.000,4332642.202,-140.44 
689850.000,4332542.226,-139.45 
689850.000,4332442.249,-137.57 
689850.000,4332342.272,-132.7 
689850.000,4332242.296,-127.06 
689850.000,4332142.319,-123.09 
689850.000,4331642.436,-126.37 
689850.000,4331542.460,-130.02 
689850.000,4331442.483,-131.33 
689850.000,4331342.506,-121.87 
689850.000,4330842.623,-128.83 
689850.000,4310947.276,-121.04 
689850.000,4310847.299,-132.04 
689850.000,4310747.323,-148.24 
689850.000,4310647.346,-157.23 
689850.000,4310547.370,-150.99 
689850.000,4310447.393,-145.47 
689850.000,4310347.416,-136.83 
689850.000,4310247.440,-140.74 
689850.000,4310147.463,-148.06 
689850.000,4310047.487,-156.08 
689850.000,4309947.510,-163.64 
689850.000,4309847.533,-170.43 
689850.000,4309747.557,-177.51 
689850.000,4309647.580,-184.83 
689850.000,4309547.603,-192.75 
689850.000,4309447.627,-201.57 
689850.000,4309347.650,-210.34 
689850.000,4309247.674,-218.51 
689850.000,4309147.697,-226.16 
689850.000,4309047.720,-233.36 
689850.000,4308947.744,-240.63 
689850.000,4308847.767,-248 
689850.000,4308747.790,-255.38 
689850.000,4308647.814,-262.72 
689850.000,4308547.837,-270.32 
689850.000,4308447.861,-277.94 
689850.000,4308347.884,-285.62 
689850.000,4308247.907,-293.14 
689850.000,4308147.931,-300.15 
689850.000,4308047.954,-307.33 
689850.000,4307947.978,-315.25 
689850.000,4307848.001,-323.84 
689850.000,4307748.024,-331.23 
689850.000,4307648.048,-337.58 
689850.000,4307548.071,-345.55 
689850.000,4307448.094,-353.46 
689850.000,4307348.118,-360.63 
689850.000,4307248.141,-367.97 
689850.000,4307148.165,-375.91 
689850.000,4307048.188,-384.9 
689850.000,4306948.211,-395.88 
689850.000,4306848.235,-409.11 
689850.000,4306748.258,-427.4 
689850.000,4306648.281,-445.81 
689850.000,4306548.305,-463.21 
689850.000,4306448.328,-478.98 
689850.000,4306348.352,-493.03 
689850.000,4306248.375,-509.72 
689850.000,4306148.398,-520.13 
689850.000,4306048.422,-532.94 
689850.000,4305948.445,-547.36 
689850.000,4305848.469,-550 
689850.000,4305748.492,-541.89 
689850.000,4305648.515,-534.5 
689850.000,4305548.539,-536.79 
689850.000,4305448.562,-552.33 
689850.000,4305348.585,-569.66 
689850.000,4305248.609,-585.46 
689850.000,4305148.632,-596.29 
689850.000,4305048.656,-598.53 
689850.000,4304948.679,-601.55 
689850.000,4304848.702,-605.44 
689850.000,4304748.726,-607.36 
689850.000,4304648.749,-608.37 
689850.000,4304548.772,-609.16 
689850.000,4304448.796,-608.83 
689850.000,4304348.819,-609.88 
689850.000,4304248.843,-610.29 
689850.000,4304148.866,-612.3 
689850.000,4304048.889,-612.21 
689850.000,4303948.913,-613.23 
689850.000,4303848.936,-616.13 
689850.000,4303748.960,-616.88 
689850.000,4303648.983,-621.13 
689850.000,4303549.006,-621.42 
689850.000,4303449.030,-624.12 
689850.000,4303349.053,-629.95 
689850.000,4303249.076,-633.21 
689850.000,4303149.100,-636.23 
689850.000,4303049.123,-636.65 
689850.000,4302949.147,-635.77 
689850.000,4302849.170,-633.78 
689850.000,4302749.193,-634.75 
689850.000,4302649.217,-634.61 
689850.000,4302549.240,-635.93 
689850.000,4302449.263,-636.69 
689850.000,4302349.287,-638.32 
689850.000,4302249.310,-635.89 
689850.000,4302149.334,-635.43 
689850.000,4302049.357,-637.25 
689850.000,4301949.380,-641.98 
689850.000,4301849.404,-645.2 
689850.000,4301749.427,-650.05 
689850.000,4301649.451,-651.04 
689850.000,4301549.474,-649.72 
689850.000,4301449.497,-650.72 
689850.000,4301349.521,-650.94 
689850.000,4301249.544,-649.78 
689850.000,4301149.567,-646.23 
689850.000,4301049.591,-643.48 
689850.000,4300949.614,-641.5 
689850.000,4300849.638,-642.48 
689850.000,4300749.661,-647.55 
689850.000,4300649.684,-652.52 
689850.000,4300549.708,-657.95 
689850.000,4300449.731,-661.06 
689850.000,4300349.754,-661.97 
689850.000,4300249.778,-665.18 
689850.000,4300149.801,-666.42 
689850.000,4300049.825,-665.03 
689850.000,4299949.848,-665.86 
689850.000,4299849.871,-673.78 
689950.000,4354837.012,-587.65 
689950.000,4354737.035,-601.77 
689950.000,4354637.058,-615.68 
689950.000,4354537.082,-636.46 
689950.000,4354437.105,-659.15 
689950.000,4354337.129,-671.91 
689950.000,4353137.409,-668.43 
689950.000,4351537.783,-668.32 
689950.000,4350937.924,-643.8 
689950.000,4350837.947,-613.8 
689950.000,4350737.970,-623.27 
689950.000,4350637.994,-660.55 
689950.000,4350538.017,-668.71 
689950.000,4350438.040,-658.82 
689950.000,4350338.064,-631.3 
689950.000,4350238.087,-630.04 
689950.000,4350138.111,-659.74 
689950.000,4348538.485,-655.44 
689950.000,4348438.508,-648.07 
689950.000,4348338.531,-649.13 
689950.000,4348238.555,-638.06 
689950.000,4348138.578,-623.3 
689950.000,4348038.602,-609.12 
689950.000,4347938.625,-593.75 
689950.000,4347838.648,-578.03 
689950.000,4347738.672,-575.72 
689950.000,4347638.695,-595.41 
689950.000,4347538.719,-614.42 
689950.000,4347438.742,-619.21 
689950.000,4347338.765,-615.31 
689950.000,4347238.789,-628.98 
689950.000,4347138.812,-647.74 
689950.000,4347038.835,-664.62 
689950.000,4346039.069,-662.67 
689950.000,4345939.093,-646.42 
689950.000,4345839.116,-642.1 
689950.000,4345739.139,-628.42 
689950.000,4345639.163,-622.21 
689950.000,4345539.186,-622.23 
689950.000,4345439.210,-632.45 
689950.000,4345339.233,-669.45 
689950.000,4344839.350,-664.25 
689950.000,4344739.373,-645.11 
689950.000,4344639.397,-621.79 
689950.000,4344539.420,-607.13 
689950.000,4344439.443,-592.19 
689950.000,4344339.467,-593.33 
689950.000,4344239.490,-592.72 
689950.000,4344139.513,-587.97 
689950.000,4344039.537,-592.06 
689950.000,4343939.560,-601.13 
689950.000,4343839.584,-613.5 
689950.000,4343739.607,-616.21 
689950.000,4343639.630,-615.46 
689950.000,4343539.654,-614.23 
689950.000,4343439.677,-611.77 
689950.000,4343339.701,-607.74 
689950.000,4343239.724,-604.73 
689950.000,4343139.747,-600.04 
689950.000,4343039.771,-589.19 
689950.000,4342939.794,-582.64 
689950.000,4342839.817,-577.48 
689950.000,4342739.841,-571.33 
689950.000,4342639.864,-566.56 
689950.000,4342539.888,-551.81 
689950.000,4342439.911,-526.19 
689950.000,4342339.934,-496.15 
689950.000,4342239.958,-471.21 
689950.000,4342139.981,-452.76 
689950.000,4342040.004,-434.76 
689950.000,4341940.028,-430.73 
689950.000,4341840.051,-442.43 
689950.000,4341740.075,-461.05 
689950.000,4341640.098,-476.87 
689950.000,4341540.121,-499.01 
689950.000,4341440.145,-513.13 
689950.000,4341340.168,-504.43 
689950.000,4341240.192,-485.16 
689950.000,4341140.215,-456.95 
689950.000,4341040.238,-438.29 
689950.000,4340940.262,-430.19 
689950.000,4340840.285,-427.93 
689950.000,4340740.308,-427.95 
689950.000,4340640.332,-426.45 
689950.000,4340540.355,-422.22 
689950.000,4340440.379,-421.09 
689950.000,4340340.402,-417.4 
689950.000,4340240.425,-413.92 
689950.000,4340140.449,-415.64 
689950.000,4340040.472,-419.01 
689950.000,4339940.496,-422.32 
689950.000,4339840.519,-424.34 
689950.000,4339740.542,-424.72 
689950.000,4339640.566,-420.38 
689950.000,4339540.589,-415.5 
689950.000,4339440.612,-413.15 
689950.000,4339340.636,-410.79 
689950.000,4339240.659,-409.69 
689950.000,4339140.683,-409.3 
689950.000,4339040.706,-407.58 
689950.000,4338940.729,-405.02 
689950.000,4338840.753,-400.53 
689950.000,4338740.776,-390.7 
689950.000,4338640.799,-382.47 
689950.000,4338540.823,-373.09 
689950.000,4338440.846,-359.01 
689950.000,4338340.870,-342.13 
689950.000,4338240.893,-326.12 
689950.000,4338140.916,-314.72 
689950.000,4338040.940,-307.36 
689950.000,4337940.963,-300.82 
689950.000,4337840.987,-294.11 
689950.000,4337741.010,-286.37 
689950.000,4337641.033,-276.55 
689950.000,4337541.057,-263.48 
689950.000,4337441.080,-248.26 
689950.000,4337341.103,-234.66 
689950.000,4337241.127,-230.5 
689950.000,4337141.150,-231.69 
689950.000,4337041.174,-233.5 
689950.000,4336941.197,-234.67 
689950.000,4336841.220,-234.24 
689950.000,4336741.244,-234.39 
689950.000,4336641.267,-235.77 
689950.000,4336541.290,-234.8 
689950.000,4336441.314,-233.11 
689950.000,4336341.337,-234.53 
689950.000,4336241.361,-232.97 
689950.000,4336141.384,-233.55 
689950.000,4336041.407,-232.49 
689950.000,4335941.431,-229.21 
689950.000,4335841.454,-230.65 
689950.000,4335741.478,-234.96 
689950.000,4335641.501,-238.94 
689950.000,4335541.524,-225.44 
689950.000,4335441.548,-210.23 
689950.000,4335341.571,-205.51 
689950.000,4335241.594,-203.87 
689950.000,4335141.618,-203.24 
689950.000,4335041.641,-204.82 
689950.000,4334941.665,-213.76 
689950.000,4334841.688,-229.49 
689950.000,4334741.711,-217.14 
689950.000,4334641.735,-207.93 
689950.000,4334541.758,-205.86 
689950.000,4334441.781,-203.19 
689950.000,4334341.805,-199.57 
689950.000,4334241.828,-197.17 
689950.000,4334141.852,-193.55 
689950.000,4334041.875,-187.46 
689950.000,4333941.898,-188.68 
689950.000,4333841.922,-180.37 
689950.000,4333741.945,-171.81 
689950.000,4333641.969,-167.19 
689950.000,4333541.992,-164.5 
689950.000,4333442.015,-167.24 
689950.000,4333342.039,-169.2 
689950.000,4333242.062,-170.91 
689950.000,4333142.085,-170.12 
689950.000,4333042.109,-165.08 
689950.000,4332942.132,-161.53 
689950.000,4332842.156,-153.25 
689950.000,4332742.179,-147.36 
689950.000,4332642.202,-143.74 
689950.000,4332542.226,-142.12 
689950.000,4332442.249,-141.98 
689950.000,4332342.272,-140.33 
689950.000,4332242.296,-136.58 
689950.000,4332142.319,-132.88 
689950.000,4332042.343,-128.28 
689950.000,4331942.366,-125.17 
689950.000,4331842.389,-123.63 
689950.000,4331742.413,-125.92 
689950.000,4331642.436,-132.22 
689950.000,4331542.460,-139.27 
689950.000,4331442.483,-136.82 
689950.000,4331342.506,-130.23 
689950.000,4331242.530,-122.81 
689950.000,4330942.600,-126.83 
689950.000,4330842.623,-137.64 
689950.000,4311047.253,-121.11 
689950.000,4310947.276,-140.07 
689950.000,4310847.299,-155.78 
689950.000,4310747.323,-168.9 
689950.000,4310647.346,-183.21 
689950.000,4310547.370,-189.8 
689950.000,4310447.393,-179.56 
689950.000,4310347.416,-163.6 
689950.000,4310247.440,-155.36 
689950.000,4310147.463,-160.43 
689950.000,4310047.487,-167.15 
689950.000,4309947.510,-174.51 
689950.000,4309847.533,-182.08 
689950.000,4309747.557,-188.84 
689950.000,4309647.580,-195.37 
689950.000,4309547.603,-202.74 
689950.000,4309447.627,-210.39 
689950.000,4309347.650,-218.22 
689950.000,4309247.674,-225.7 
689950.000,4309147.697,-232.66 
689950.000,4309047.720,-239.63 
689950.000,4308947.744,-246.62 
689950.000,4308847.767,-253.68 
689950.000,4308747.790,-260.93 
689950.000,4308647.814,-268.02 
689950.000,4308547.837,-275.11 
689950.000,4308447.861,-282.59 
689950.000,4308347.884,-290.03 
689950.000,4308247.907,-297.27 
689950.000,4308147.931,-304.19 
689950.000,4308047.954,-310.49 
689950.000,4307947.978,-317.21 
689950.000,4307848.001,-323.79 
689950.000,4307748.024,-330.73 
689950.000,4307648.048,-337.68 
689950.000,4307548.071,-344.74 
689950.000,4307448.094,-351.92 
689950.000,4307348.118,-359.44 
689950.000,4307248.141,-366.92 
689950.000,4307148.165,-374.77 
689950.000,4307048.188,-383.05 
689950.000,4306948.211,-392.31 
689950.000,4306848.235,-402.16 
689950.000,4306748.258,-413.33 
689950.000,4306648.281,-428.37 
689950.000,4306548.305,-450.26 
689950.000,4306448.328,-472.6 
689950.000,4306348.352,-484.42 
689950.000,4306248.375,-502.42 
689950.000,4306148.398,-525.32 
689950.000,4306048.422,-546.32 
689950.000,4305948.445,-561.36 
689950.000,4305848.469,-574.39 
689950.000,4305748.492,-580.02 
689950.000,4305648.515,-575.25 
689950.000,4305548.539,-565.83 
689950.000,4305448.562,-572.25 
689950.000,4305348.585,-583.02 
689950.000,4305248.609,-596.86 
689950.000,4305148.632,-602.27 
689950.000,4305048.656,-601.8 
689950.000,4304948.679,-604.25 
689950.000,4304848.702,-606.57 
689950.000,4304748.726,-607.48 
689950.000,4304648.749,-608.48 
689950.000,4304548.772,-609.86 
689950.000,4304448.796,-610.07 
689950.000,4304348.819,-609.99 
689950.000,4304248.843,-609.17 
689950.000,4304148.866,-611.66 
689950.000,4304048.889,-614.16 
689950.000,4303948.913,-616.57 
689950.000,4303848.936,-617.46 
689950.000,4303748.960,-619.63 
689950.000,4303648.983,-620.62 
689950.000,4303549.006,-621.97 
689950.000,4303449.030,-625.65 
689950.000,4303349.053,-641.93 
689950.000,4303249.076,-643.8 
689950.000,4303149.100,-643.84 
689950.000,4303049.123,-639.33 
689950.000,4302949.147,-635.55 
689950.000,4302849.170,-631.05 
689950.000,4302749.193,-630.22 
689950.000,4302649.217,-633.75 
689950.000,4302549.240,-633.26 
689950.000,4302449.263,-634.04 
689950.000,4302349.287,-633.31 
689950.000,4302249.310,-633.66 
689950.000,4302149.334,-630.87 
689950.000,4302049.357,-629.85 
689950.000,4301949.380,-632.89 
689950.000,4301849.404,-639.9 
689950.000,4301749.427,-644.87 
689950.000,4301649.451,-646.34 
689950.000,4301549.474,-647.56 
689950.000,4301449.497,-646.34 
689950.000,4301349.521,-644.62 
689950.000,4301249.544,-646.3 
689950.000,4301149.567,-642.36 
689950.000,4301049.591,-638.77 
689950.000,4300949.614,-641.83 
689950.000,4300849.638,-645.48 
689950.000,4300749.661,-650.33 
689950.000,4300649.684,-655.95 
689950.000,4300549.708,-662.75 
689950.000,4300449.731,-667.85 
689950.000,4300349.754,-670.29 
689950.000,4300249.778,-673.96 
690050.000,4354837.012,-550.7 
690050.000,4354737.035,-552.43 
690050.000,4354637.058,-569.23 
690050.000,4354537.082,-596.35 
690050.000,4354437.105,-627.84 
690050.000,4354337.129,-652.25 
690050.000,4354237.152,-671.41 
690050.000,4353137.409,-657.4 
690050.000,4351037.900,-671.23 
690050.000,4350937.924,-652.14 
690050.000,4350837.947,-636.74 
690050.000,4350737.970,-650.92 
690050.000,4350338.064,-652.92 
690050.000,4350238.087,-663.98 
690050.000,4350138.111,-671.26 
690050.000,4348538.485,-669.56 
690050.000,4348438.508,-664.54 
690050.000,4348338.531,-658.02 
690050.000,4348238.555,-646.96 
690050.000,4348138.578,-632.91 
690050.000,4348038.602,-618.14 
690050.000,4347938.625,-603.11 
690050.000,4347838.648,-586 
690050.000,4347738.672,-588.05 
690050.000,4347638.695,-614.67 
690050.000,4347538.719,-633.44 
690050.000,4347438.742,-641.36 
690050.000,4347338.765,-631.61 
690050.000,4347238.789,-635.85 
690050.000,4347138.812,-653.46 
690050.000,4347038.835,-668.19 
690050.000,4346039.069,-666.83 
690050.000,4345939.093,-664.26 
690050.000,4345839.116,-659.88 
690050.000,4345739.139,-644.07 
690050.000,4345639.163,-635.58 
690050.000,4345539.186,-636.88 
690050.000,4345439.210,-641.47 
690050.000,4344839.350,-665.36 
690050.000,4344739.373,-640.26 
690050.000,4344639.397,-620.84 
690050.000,4344539.420,-607.33 
690050.000,4344439.443,-599.46 
690050.000,4344339.467,-603.95 
690050.000,4344239.490,-605.57 
690050.000,4344139.513,-603.72 
690050.000,4344039.537,-605.91 
690050.000,4343939.560,-614.99 
690050.000,4343839.584,-623.85 
690050.000,4343739.607,-623.82 
690050.000,4343639.630,-621.08 
690050.000,4343539.654,-619.48 
690050.000,4343439.677,-617.12 
690050.000,4343339.701,-614.15 
690050.000,4343239.724,-610.27 
690050.000,4343139.747,-605.96 
690050.000,4343039.771,-601.84 
690050.000,4342939.794,-597.75 
690050.000,4342839.817,-589.81 
690050.000,4342739.841,-580.18 
690050.000,4342639.864,-565.34 
690050.000,4342539.888,-544.62 
690050.000,4342439.911,-519.51 
690050.000,4342339.934,-496.21 
690050.000,4342239.958,-481.98 
690050.000,4342139.981,-470.56 
690050.000,4342040.004,-458.22 
690050.000,4341940.028,-453.62 
690050.000,4341840.051,-451.02 
690050.000,4341740.075,-469.78 
690050.000,4341640.098,-483.84 
690050.000,4341540.121,-505.17 
690050.000,4341440.145,-520.13 
690050.000,4341340.168,-512.19 
690050.000,4341240.192,-496.46 
690050.000,4341140.215,-460.67 
690050.000,4341040.238,-448.05 
690050.000,4340940.262,-442.29 
690050.000,4340840.285,-439.42 
690050.000,4340740.308,-439.01 
690050.000,4340640.332,-436.43 
690050.000,4340540.355,-431.71 
690050.000,4340440.379,-428.09 
690050.000,4340340.402,-425.11 
690050.000,4340240.425,-423.05 
690050.000,4340140.449,-422.92 
690050.000,4340040.472,-423.71 
690050.000,4339940.496,-425.49 
690050.000,4339840.519,-426.85 
690050.000,4339740.542,-427.2 
690050.000,4339640.566,-423.89 
690050.000,4339540.589,-420.49 
690050.000,4339440.612,-417.89 
690050.000,4339340.636,-415.16 
690050.000,4339240.659,-414.81 
690050.000,4339140.683,-413.84 
690050.000,4339040.706,-411.7 
690050.000,4338940.729,-409.65 
690050.000,4338840.753,-407.5 
690050.000,4338740.776,-401.63 
690050.000,4338640.799,-393.26 
690050.000,4338540.823,-381.29 
690050.000,4338440.846,-366.12 
690050.000,4338340.870,-350.34 
690050.000,4338240.893,-335.26 
690050.000,4338140.916,-324.43 
690050.000,4338040.940,-316.79 
690050.000,4337940.963,-309.77 
690050.000,4337840.987,-302.01 
690050.000,4337741.010,-292.67 
690050.000,4337641.033,-279.48 
690050.000,4337541.057,-265.18 
690050.000,4337441.080,-252.2 
690050.000,4337341.103,-240.88 
690050.000,4337241.127,-237.5 
690050.000,4337141.150,-239.17 
690050.000,4337041.174,-241 
690050.000,4336941.197,-241.99 
690050.000,4336841.220,-242.02 
690050.000,4336741.244,-242.8 
690050.000,4336641.267,-243.88 
690050.000,4336541.290,-242.79 
690050.000,4336441.314,-241.45 
690050.000,4336341.337,-242.85 
690050.000,4336241.361,-241.37 
690050.000,4336141.384,-241.68 
690050.000,4336041.407,-239.11 
690050.000,4335941.431,-237.7 
690050.000,4335841.454,-239.33 
690050.000,4335741.478,-242.45 
690050.000,4335641.501,-242.59 
690050.000,4335541.524,-225.55 
690050.000,4335441.548,-216.36 
690050.000,4335341.571,-213.26 
690050.000,4335241.594,-212.03 
690050.000,4335141.618,-211.86 
690050.000,4335041.641,-215.03 
690050.000,4334941.665,-225.84 
690050.000,4334841.688,-237.13 
690050.000,4334741.711,-222.16 
690050.000,4334641.735,-215.15 
690050.000,4334541.758,-212.77 
690050.000,4334441.781,-210.65 
690050.000,4334341.805,-208.7 
690050.000,4334241.828,-208.31 
690050.000,4334141.852,-203.61 
690050.000,4334041.875,-199.46 
690050.000,4333941.898,-193.22 
690050.000,4333841.922,-187.54 
690050.000,4333741.945,-180.66 
690050.000,4333641.969,-174.27 
690050.000,4333541.992,-169.49 
690050.000,4333442.015,-171.61 
690050.000,4333342.039,-175.94 
690050.000,4333242.062,-177.24 
690050.000,4333142.085,-177.93 
690050.000,4333042.109,-170 
690050.000,4332942.132,-166.5 
690050.000,4332842.156,-158.53 
690050.000,4332742.179,-151.97 
690050.000,4332642.202,-147.81 
690050.000,4332542.226,-146.32 
690050.000,4332442.249,-147.1 
690050.000,4332342.272,-146.42 
690050.000,4332242.296,-144.59 
690050.000,4332142.319,-142.09 
690050.000,4332042.343,-138.26 
690050.000,4331942.366,-135.97 
690050.000,4331842.389,-134.64 
690050.000,4331742.413,-134.26 
690050.000,4331642.436,-136.51 
690050.000,4331542.460,-145.71 
690050.000,4331442.483,-144.51 
690050.000,4331342.506,-138.42 
690050.000,4331242.530,-131.42 
690050.000,4331142.553,-124.5 
690050.000,4331042.576,-123.59 
690050.000,4330942.600,-134.14 
690050.000,4330842.623,-149.07 
690050.000,4330742.647,-155.93 
690050.000,4311047.253,-123.14 
690050.000,4310947.276,-143.64 
690050.000,4310847.299,-171.17 
690050.000,4310747.323,-192.14 
690050.000,4310647.346,-204.93 
690050.000,4310547.370,-211.79 
690050.000,4310447.393,-210.61 
690050.000,4310347.416,-199.46 
690050.000,4310247.440,-178.8 
690050.000,4310147.463,-174.96 
690050.000,4310047.487,-179.68 
690050.000,4309947.510,-186.77 
690050.000,4309847.533,-194.06 
690050.000,4309747.557,-200.45 
690050.000,4309647.580,-206.3 
690050.000,4309547.603,-212.91 
690050.000,4309447.627,-219.21 
690050.000,4309347.650,-226.12 
690050.000,4309247.674,-232.64 
690050.000,4309147.697,-239.35 
690050.000,4309047.720,-246.04 
690050.000,4308947.744,-252.76 
690050.000,4308847.767,-259.54 
690050.000,4308747.790,-265.96 
690050.000,4308647.814,-272.47 
690050.000,4308547.837,-279.33 
690050.000,4308447.861,-286.37 
690050.000,4308347.884,-293.49 
690050.000,4308247.907,-300.68 
690050.000,4308147.931,-307.71 
690050.000,4308047.954,-314.2 
690050.000,4307947.978,-320.06 
690050.000,4307848.001,-326.38 
690050.000,4307748.024,-332.72 
690050.000,4307648.048,-339.26 
690050.000,4307548.071,-346.24 
690050.000,4307448.094,-353.09 
690050.000,4307348.118,-361.17 
690050.000,4307248.141,-369.19 
690050.000,4307148.165,-376.75 
690050.000,4307048.188,-384.8 
690050.000,4306948.211,-393.74 
690050.000,4306848.235,-403.26 
690050.000,4306748.258,-413.17 
690050.000,4306648.281,-424.24 
690050.000,4306548.305,-435.11 
690050.000,4306448.328,-448.41 
690050.000,4306348.352,-461.75 
690050.000,4306248.375,-477.84 
690050.000,4306148.398,-497.09 
690050.000,4306048.422,-520.11 
690050.000,4305948.445,-543.47 
690050.000,4305848.469,-563 
690050.000,4305748.492,-585.65 
690050.000,4305648.515,-594.38 
690050.000,4305548.539,-595.88 
690050.000,4305448.562,-596.1 
690050.000,4305348.585,-600 
690050.000,4305248.609,-604.08 
690050.000,4305148.632,-605.25 
690050.000,4305048.656,-605.19 
690050.000,4304948.679,-606.04 
690050.000,4304848.702,-606.12 
690050.000,4304748.726,-607.11 
690050.000,4304648.749,-608.25 
690050.000,4304548.772,-609.95 
690050.000,4304448.796,-610.94 
690050.000,4304348.819,-610.75 
690050.000,4304248.843,-608.37 
690050.000,4304148.866,-611.96 
690050.000,4304048.889,-613.81 
690050.000,4303948.913,-616.56 
690050.000,4303848.936,-621.52 
690050.000,4303748.960,-623.57 
690050.000,4303648.983,-624.84 
690050.000,4303549.006,-629.98 
690050.000,4303449.030,-633.32 
690050.000,4303349.053,-644.8 
690050.000,4303249.076,-642.16 
690050.000,4303149.100,-639.03 
690050.000,4303049.123,-636.54 
690050.000,4302949.147,-633.85 
690050.000,4302849.170,-631.63 
690050.000,4302749.193,-630.7 
690050.000,4302649.217,-629.74 
690050.000,4302549.240,-632.72 
690050.000,4302449.263,-632.25 
690050.000,4302349.287,-630.16 
690050.000,4302249.310,-628.58 
690050.000,4302149.334,-626.41 
690050.000,4302049.357,-623.16 
690050.000,4301949.380,-625.72 
690050.000,4301849.404,-631.47 
690050.000,4301749.427,-636.82 
690050.000,4301649.451,-642.43 
690050.000,4301549.474,-642.75 
690050.000,4301449.497,-640.77 
690050.000,4301349.521,-640.02 
690050.000,4301249.544,-638.32 
690050.000,4301149.567,-638.78 
690050.000,4301049.591,-641.63 
690050.000,4300949.614,-648.03 
690050.000,4300849.638,-654.05 
690050.000,4300749.661,-661.36 
690050.000,4300649.684,-668.56 
690050.000,4300549.708,-673.48 
690150.000,4354837.012,-554.78 
690150.000,4354737.035,-551.28 
690150.000,4354637.058,-572.47 
690150.000,4354537.082,-596 
690150.000,4354437.105,-615.64 
690150.000,4354337.129,-635.95 
690150.000,4354237.152,-653.61 
690150.000,4353137.409,-658.86 
690150.000,4353037.433,-671.11 
690150.000,4350937.924,-669.74 
690150.000,4350837.947,-650.05 
690150.000,4350338.064,-672.5 
690150.000,4348438.508,-669.87 
690150.000,4348338.531,-663.24 
690150.000,4348238.555,-650.65 
690150.000,4348138.578,-637.27 
690150.000,4348038.602,-622.06 
690150.000,4347938.625,-606.11 
690150.000,4347838.648,-590.29 
690150.000,4347738.672,-586.6 
690150.000,4347638.695,-615.18 
690150.000,4347538.719,-641.73 
690150.000,4347438.742,-658.18 
690150.000,4347338.765,-661.97 
690150.000,4347238.789,-659.12 
690150.000,4345739.139,-658.54 
690150.000,4345639.163,-651.19 
690150.000,4345539.186,-652.96 
690150.000,4345439.210,-656.35 
690150.000,4344839.350,-663.65 
690150.000,4344739.373,-637.46 
690150.000,4344639.397,-625.2 
690150.000,4344539.420,-615.39 
690150.000,4344439.443,-612.35 
690150.000,4344339.467,-619.46 
690150.000,4344239.490,-621.02 
690150.000,4344139.513,-621.43 
690150.000,4344039.537,-626.46 
690150.000,4343939.560,-629.81 
690150.000,4343839.584,-628.78 
690150.000,4343739.607,-626.93 
690150.000,4343639.630,-624.27 
690150.000,4343539.654,-622.91 
690150.000,4343439.677,-622.46 
690150.000,4343339.701,-619.48 
690150.000,4343239.724,-614.1 
690150.000,4343139.747,-611.42 
690150.000,4343039.771,-610.28 
690150.000,4342939.794,-603.68 
690150.000,4342839.817,-590.09 
690150.000,4342739.841,-575.98 
690150.000,4342639.864,-557.93 
690150.000,4342539.888,-536.75 
690150.000,4342439.911,-516.98 
690150.000,4342339.934,-509.35 
690150.000,4342239.958,-498.87 
690150.000,4342139.981,-484.03 
690150.000,4342040.004,-480.94 
690150.000,4341940.028,-474.58 
690150.000,4341840.051,-468.72 
690150.000,4341740.075,-481.36 
690150.000,4341640.098,-496.81 
690150.000,4341540.121,-513.2 
690150.000,4341440.145,-525.01 
690150.000,4341340.168,-518.83 
690150.000,4341240.192,-501.39 
690150.000,4341140.215,-478.92 
690150.000,4341040.238,-472.77 
690150.000,4340940.262,-455.85 
690150.000,4340840.285,-449.89 
690150.000,4340740.308,-446.96 
690150.000,4340640.332,-443.18 
690150.000,4340540.355,-440.57 
690150.000,4340440.379,-434.65 
690150.000,4340340.402,-430.55 
690150.000,4340240.425,-428.73 
690150.000,4340140.449,-427.07 
690150.000,4340040.472,-426.79 
690150.000,4339940.496,-428.69 
690150.000,4339840.519,-429.49 
690150.000,4339740.542,-429.67 
690150.000,4339640.566,-426.34 
690150.000,4339540.589,-425.06 
690150.000,4339440.612,-423.2 
690150.000,4339340.636,-420.96 
690150.000,4339240.659,-419.33 
690150.000,4339140.683,-417.3 
690150.000,4339040.706,-414.97 
690150.000,4338940.729,-413.65 
690150.000,4338840.753,-413.21 
690150.000,4338740.776,-408.39 
690150.000,4338640.799,-400.08 
690150.000,4338540.823,-389.43 
690150.000,4338440.846,-375.21 
690150.000,4338340.870,-358.21 
690150.000,4338240.893,-341.35 
690150.000,4338140.916,-331.24 
690150.000,4338040.940,-324.28 
690150.000,4337940.963,-316.1 
690150.000,4337840.987,-306.75 
690150.000,4337741.010,-294.73 
690150.000,4337641.033,-280.48 
690150.000,4337541.057,-267.51 
690150.000,4337441.080,-256.13 
690150.000,4337341.103,-247.07 
690150.000,4337241.127,-245.2 
690150.000,4337141.150,-247.2 
690150.000,4337041.174,-248.56 
690150.000,4336941.197,-249.56 
690150.000,4336841.220,-249.61 
690150.000,4336741.244,-250.2 
690150.000,4336641.267,-250.93 
690150.000,4336541.290,-250.22 
690150.000,4336441.314,-248.74 
690150.000,4336341.337,-249.72 
690150.000,4336241.361,-248.5 
690150.000,4336141.384,-248.37 
690150.000,4336041.407,-245.83 
690150.000,4335941.431,-245.33 
690150.000,4335841.454,-246.66 
690150.000,4335741.478,-249.64 
690150.000,4335641.501,-242.7 
690150.000,4335541.524,-229.38 
690150.000,4335441.548,-223.24 
690150.000,4335341.571,-221.05 
690150.000,4335241.594,-220.17 
690150.000,4335141.618,-220.64 
690150.000,4335041.641,-225.21 
690150.000,4334941.665,-236.25 
690150.000,4334841.688,-237.12 
690150.000,4334741.711,-224.64 
690150.000,4334641.735,-221.87 
690150.000,4334541.758,-218.46 
690150.000,4334441.781,-214.64 
690150.000,4334341.805,-212.01 
690150.000,4334241.828,-212.31 
690150.000,4334141.852,-211.89 
690150.000,4334041.875,-205.39 
690150.000,4333941.898,-198.96 
690150.000,4333841.922,-193.67 
690150.000,4333741.945,-186.52 
690150.000,4333641.969,-179.66 
690150.000,4333541.992,-175.49 
690150.000,4333442.015,-176.82 
690150.000,4333342.039,-182.49 
690150.000,4333242.062,-184.97 
690150.000,4333142.085,-186.61 
690150.000,4333042.109,-175.99 
690150.000,4332942.132,-171.29 
690150.000,4332842.156,-163.33 
690150.000,4332742.179,-157.16 
690150.000,4332642.202,-153.85 
690150.000,4332542.226,-152.64 
690150.000,4332442.249,-154.04 
690150.000,4332342.272,-153.65 
690150.000,4332242.296,-152.33 
690150.000,4332142.319,-149.85 
690150.000,4332042.343,-147.04 
690150.000,4331942.366,-144.91 
690150.000,4331842.389,-142.71 
690150.000,4331742.413,-140.83 
690150.000,4331642.436,-141.56 
690150.000,4331542.460,-150.66 
690150.000,4331442.483,-157.66 
690150.000,4331342.506,-150.61 
690150.000,4331242.530,-143.63 
690150.000,4331142.553,-136.47 
690150.000,4331042.576,-134.22 
690150.000,4330942.600,-141.23 
690150.000,4330842.623,-155.68 
690150.000,4330742.647,-166.23 
690150.000,4330642.670,-163.4 
690150.000,4330542.693,-154.63 
690150.000,4311047.253,-122.05 
690150.000,4310947.276,-135.27 
690150.000,4310847.299,-155.64 
690150.000,4310747.323,-184.05 
690150.000,4310647.346,-214.76 
690150.000,4310547.370,-227.96 
690150.000,4310447.393,-231.72 
690150.000,4310347.416,-229.54 
690150.000,4310247.440,-217.55 
690150.000,4310147.463,-198 
690150.000,4310047.487,-195.15 
690150.000,4309947.510,-199.94 
690150.000,4309847.533,-206.39 
690150.000,4309747.557,-212.35 
690150.000,4309647.580,-217.92 
690150.000,4309547.603,-223.06 
690150.000,4309447.627,-228.37 
690150.000,4309347.650,-234.06 
690150.000,4309247.674,-240.04 
690150.000,4309147.697,-246.39 
690150.000,4309047.720,-252.82 
690150.000,4308947.744,-259.08 
690150.000,4308847.767,-265.07 
690150.000,4308747.790,-270.75 
690150.000,4308647.814,-276.81 
690150.000,4308547.837,-283.21 
690150.000,4308447.861,-289.95 
690150.000,4308347.884,-296.85 
690150.000,4308247.907,-303.91 
690150.000,4308147.931,-310.67 
690150.000,4308047.954,-316.93 
690150.000,4307947.978,-322.67 
690150.000,4307848.001,-328.39 
690150.000,4307748.024,-333.93 
690150.000,4307648.048,-339.93 
690150.000,4307548.071,-346.53 
690150.000,4307448.094,-353.59 
690150.000,4307348.118,-361.42 
690150.000,4307248.141,-368.99 
690150.000,4307148.165,-375.96 
690150.000,4307048.188,-384.01 
690150.000,4306948.211,-392.55 
690150.000,4306848.235,-401.37 
690150.000,4306748.258,-412.1 
690150.000,4306648.281,-423.74 
690150.000,4306548.305,-434.04 
690150.000,4306448.328,-443.9 
690150.000,4306348.352,-462.6 
690150.000,4306248.375,-474.92 
690150.000,4306148.398,-491.95 
690150.000,4306048.422,-511.39 
690150.000,4305948.445,-525.17 
690150.000,4305848.469,-543.87 
690150.000,4305748.492,-579.25 
690150.000,4305648.515,-593.93 
690150.000,4305548.539,-596.95 
690150.000,4305448.562,-599.63 
690150.000,4305348.585,-606.47 
690150.000,4305248.609,-606.47 
690150.000,4305148.632,-606.19 
690150.000,4305048.656,-606.5 
690150.000,4304948.679,-606.05 
690150.000,4304848.702,-606.55 
690150.000,4304748.726,-607.64 
690150.000,4304648.749,-608.89 
690150.000,4304548.772,-610.08 
690150.000,4304448.796,-611.81 
690150.000,4304348.819,-612.84 
690150.000,4304248.843,-611.55 
690150.000,4304148.866,-612.34 
690150.000,4304048.889,-614.4 
690150.000,4303948.913,-617.64 
690150.000,4303848.936,-618.67 
690150.000,4303748.960,-621.53 
690150.000,4303648.983,-623.3 
690150.000,4303549.006,-630.98 
690150.000,4303449.030,-648.18 
690150.000,4303349.053,-649.64 
690150.000,4303249.076,-638.47 
690150.000,4303149.100,-634.37 
690150.000,4303049.123,-632.32 
690150.000,4302949.147,-631.47 
690150.000,4302849.170,-631.29 
690150.000,4302749.193,-630.8 
690150.000,4302649.217,-628.99 
690150.000,4302549.240,-628.18 
690150.000,4302449.263,-628.08 
690150.000,4302349.287,-625.87 
690150.000,4302249.310,-623.02 
690150.000,4302149.334,-620.84 
690150.000,4302049.357,-619.07 
690150.000,4301949.380,-619.94 
690150.000,4301849.404,-620.47 
690150.000,4301749.427,-626.95 
690150.000,4301649.451,-634.19 
690150.000,4301549.474,-637.8 
690150.000,4301449.497,-635.39 
690150.000,4301349.521,-633.66 
690150.000,4301249.544,-632.09 
690150.000,4301149.567,-638.02 
690150.000,4301049.591,-646.15 
690150.000,4300949.614,-656.24 
690150.000,4300849.638,-664.35 
690150.000,4300749.661,-674.65 
690250.000,4354837.012,-573.33 
690250.000,4354737.035,-564.77 
690250.000,4354637.058,-580.86 
690250.000,4354537.082,-613.62 
690250.000,4354437.105,-632.16 
690250.000,4354337.129,-636.3 
690250.000,4354237.152,-647.52 
690250.000,4354137.175,-672.44 
690250.000,4353137.409,-667.28 
690250.000,4353037.433,-653.6 
690250.000,4350837.947,-663.18 
690250.000,4348438.508,-672.82 
690250.000,4348338.531,-665.91 
690250.000,4348238.555,-654.44 
690250.000,4348138.578,-638.61 
690250.000,4348038.602,-625.72 
690250.000,4347938.625,-612.8 
690250.000,4347838.648,-598.41 
690250.000,4347738.672,-585.53 
690250.000,4347638.695,-612.82 
690250.000,4347538.719,-643.72 
690250.000,4347438.742,-664.74 
690250.000,4345639.163,-670.54 
690250.000,4345539.186,-665.92 
690250.000,4345439.210,-666.2 
690250.000,4344839.350,-669.15 
690250.000,4344739.373,-641.32 
690250.000,4344639.397,-630.29 
690250.000,4344539.420,-623.83 
690250.000,4344439.443,-625.5 
690250.000,4344339.467,-631.65 
690250.000,4344239.490,-634.22 
690250.000,4344139.513,-633.33 
690250.000,4344039.537,-633.97 
690250.000,4343939.560,-633.72 
690250.000,4343839.584,-633.72 
690250.000,4343739.607,-629.92 
690250.000,4343639.630,-626.99 
690250.000,4343539.654,-625.93 
690250.000,4343439.677,-622.8 
690250.000,4343339.701,-621.12 
690250.000,4343239.724,-617.41 
690250.000,4343139.747,-615.81 
690250.000,4343039.771,-614.78 
690250.000,4342939.794,-606.81 
690250.000,4342839.817,-597.25 
690250.000,4342739.841,-580.54 
690250.000,4342639.864,-562.02 
690250.000,4342539.888,-538.26 
690250.000,4342439.911,-528.97 
690250.000,4342339.934,-523.49 
690250.000,4342239.958,-508.18 
690250.000,4342139.981,-499.07 
690250.000,4342040.004,-498.56 
690250.000,4341940.028,-494.67 
690250.000,4341840.051,-485.6 
690250.000,4341740.075,-493.33 
690250.000,4341640.098,-510.25 
690250.000,4341540.121,-522.52 
690250.000,4341440.145,-528.42 
690250.000,4341340.168,-523.86 
690250.000,4341240.192,-511.95 
690250.000,4341140.215,-492.09 
690250.000,4341040.238,-482.66 
690250.000,4340940.262,-463.44 
690250.000,4340840.285,-457.2 
690250.000,4340740.308,-456.44 
690250.000,4340640.332,-451.96 
690250.000,4340540.355,-449.87 
690250.000,4340440.379,-441.3 
690250.000,4340340.402,-435.19 
690250.000,4340240.425,-432.71 
690250.000,4340140.449,-431.78 
690250.000,4340040.472,-431.73 
690250.000,4339940.496,-432.15 
690250.000,4339840.519,-432.4 
690250.000,4339740.542,-431.43 
690250.000,4339640.566,-429.17 
690250.000,4339540.589,-428.17 
690250.000,4339440.612,-426.59 
690250.000,4339340.636,-425.32 
690250.000,4339240.659,-423.48 
690250.000,4339140.683,-421.79 
690250.000,4339040.706,-419.56 
690250.000,4338940.729,-418.71 
690250.000,4338840.753,-417.76 
690250.000,4338740.776,-414.03 
690250.000,4338640.799,-407.57 
690250.000,4338540.823,-400.27 
690250.000,4338440.846,-388.45 
690250.000,4338340.870,-369.19 
690250.000,4338240.893,-348.92 
690250.000,4338140.916,-335.67 
690250.000,4338040.940,-325.34 
690250.000,4337940.963,-316.69 
690250.000,4337840.987,-306.38 
690250.000,4337741.010,-293.59 
690250.000,4337641.033,-282.66 
690250.000,4337541.057,-272.25 
690250.000,4337441.080,-261.53 
690250.000,4337341.103,-254.31 
690250.000,4337241.127,-253.61 
690250.000,4337141.150,-255.45 
690250.000,4337041.174,-256.86 
690250.000,4336941.197,-257.96 
690250.000,4336841.220,-258.01 
690250.000,4336741.244,-258.46 
690250.000,4336641.267,-259.08 
690250.000,4336541.290,-258.34 
690250.000,4336441.314,-256.45 
690250.000,4336341.337,-257.17 
690250.000,4336241.361,-255.42 
690250.000,4336141.384,-254.8 
690250.000,4336041.407,-252.25 
690250.000,4335941.431,-251.53 
690250.000,4335841.454,-252.64 
690250.000,4335741.478,-253.55 
690250.000,4335641.501,-243.44 
690250.000,4335541.524,-235.04 
690250.000,4335441.548,-230.86 
690250.000,4335341.571,-229.41 
690250.000,4335241.594,-229.06 
690250.000,4335141.618,-230.48 
690250.000,4335041.641,-234.92 
690250.000,4334941.665,-244.56 
690250.000,4334841.688,-237.74 
690250.000,4334741.711,-228.76 
690250.000,4334641.735,-226.1 
690250.000,4334541.758,-223.86 
690250.000,4334441.781,-219.06 
690250.000,4334341.805,-215.58 
690250.000,4334241.828,-218.18 
690250.000,4334141.852,-218.57 
690250.000,4334041.875,-212.67 
690250.000,4333941.898,-206.63 
690250.000,4333841.922,-198.82 
690250.000,4333741.945,-190.42 
690250.000,4333641.969,-184.11 
690250.000,4333541.992,-182.2 
690250.000,4333442.015,-183.35 
690250.000,4333342.039,-187.11 
690250.000,4333242.062,-190.59 
690250.000,4333142.085,-191.3 
690250.000,4333042.109,-182.39 
690250.000,4332942.132,-176.16 
690250.000,4332842.156,-168.39 
690250.000,4332742.179,-163.05 
690250.000,4332642.202,-160.3 
690250.000,4332542.226,-159.39 
690250.000,4332442.249,-159.91 
690250.000,4332342.272,-159.86 
690250.000,4332242.296,-159.17 
690250.000,4332142.319,-157.26 
690250.000,4332042.343,-155.14 
690250.000,4331942.366,-152.63 
690250.000,4331842.389,-150.37 
690250.000,4331742.413,-148.42 
690250.000,4331642.436,-147.72 
690250.000,4331542.460,-153.26 
690250.000,4331442.483,-169.42 
690250.000,4331342.506,-166.2 
690250.000,4331242.530,-156.94 
690250.000,4331142.553,-149.1 
690250.000,4331042.576,-145.13 
690250.000,4330942.600,-148.43 
690250.000,4330842.623,-160.9 
690250.000,4330742.647,-176.27 
690250.000,4330642.670,-173.46 
690250.000,4330542.693,-162.86 
690250.000,4330442.717,-150.54 
690250.000,4311047.253,-122.29 
690250.000,4310947.276,-132.7 
690250.000,4310847.299,-148.71 
690250.000,4310747.323,-171.26 
690250.000,4310647.346,-202.51 
690250.000,4310547.370,-230.57 
690250.000,4310447.393,-247.13 
690250.000,4310347.416,-249.49 
690250.000,4310247.440,-245.03 
690250.000,4310147.463,-232.19 
690250.000,4310047.487,-218.53 
690250.000,4309947.510,-217.12 
690250.000,4309847.533,-221.07 
690250.000,4309747.557,-225.86 
690250.000,4309647.580,-229.61 
690250.000,4309547.603,-233.54 
690250.000,4309447.627,-237.71 
690250.000,4309347.650,-242.59 
690250.000,4309247.674,-247.95 
690250.000,4309147.697,-253.68 
690250.000,4309047.720,-259.25 
690250.000,4308947.744,-264.99 
690250.000,4308847.767,-270.25 
690250.000,4308747.790,-275.41 
690250.000,4308647.814,-280.92 
690250.000,4308547.837,-286.68 
690250.000,4308447.861,-292.55 
690250.000,4308347.884,-298.42 
690250.000,4308247.907,-304.34 
690250.000,4308147.931,-309.96 
690250.000,4308047.954,-315.09 
690250.000,4307947.978,-320.19 
690250.000,4307848.001,-324.85 
690250.000,4307748.024,-330.43 
690250.000,4307648.048,-336.75 
690250.000,4307548.071,-343.69 
690250.000,4307448.094,-350.75 
690250.000,4307348.118,-357.64 
690250.000,4307248.141,-364.58 
690250.000,4307148.165,-371.47 
690250.000,4307048.188,-378.07 
690250.000,4306948.211,-385.72 
690250.000,4306848.235,-394.6 
690250.000,4306748.258,-404.9 
690250.000,4306648.281,-415.01 
690250.000,4306548.305,-425.02 
690250.000,4306448.328,-435.28 
690250.000,4306348.352,-446.82 
690250.000,4306248.375,-457.75 
690250.000,4306148.398,-481.73 
690250.000,4306048.422,-502.92 
690250.000,4305948.445,-513.38 
690250.000,4305848.469,-531.21 
690250.000,4305748.492,-558.42 
690250.000,4305648.515,-584.62 
690250.000,4305548.539,-597.37 
690250.000,4305448.562,-597.12 
690250.000,4305348.585,-604.79 
690250.000,4305248.609,-607.55 
690250.000,4305148.632,-607.47 
690250.000,4305048.656,-608.07 
690250.000,4304948.679,-608.02 
690250.000,4304848.702,-608.5 
690250.000,4304748.726,-608.64 
690250.000,4304648.749,-609.19 
690250.000,4304548.772,-610.55 
690250.000,4304448.796,-612.09 
690250.000,4304348.819,-613.27 
690250.000,4304248.843,-613.27 
690250.000,4304148.866,-613.73 
690250.000,4304048.889,-613.78 
690250.000,4303948.913,-618 
690250.000,4303848.936,-619.75 
690250.000,4303748.960,-618.1 
690250.000,4303648.983,-620.47 
690250.000,4303549.006,-628.78 
690250.000,4303449.030,-644.04 
690250.000,4303349.053,-643.95 
690250.000,4303249.076,-637.29 
690250.000,4303149.100,-633.14 
690250.000,4303049.123,-630.18 
690250.000,4302949.147,-628.92 
690250.000,4302849.170,-629.86 
690250.000,4302749.193,-629.46 
690250.000,4302649.217,-628.36 
690250.000,4302549.240,-625.48 
690250.000,4302449.263,-622.27 
690250.000,4302349.287,-620.24 
690250.000,4302249.310,-618.45 
690250.000,4302149.334,-614.25 
690250.000,4302049.357,-612.43 
690250.000,4301949.380,-611.12 
690250.000,4301849.404,-609.28 
690250.000,4301749.427,-612.64 
690250.000,4301649.451,-625.55 
690250.000,4301549.474,-631.47 
690250.000,4301449.497,-629.31 
690250.000,4301349.521,-626.73 
690250.000,4301249.544,-628.26 
690250.000,4301149.567,-639.8 
690250.000,4301049.591,-654.36 
690250.000,4300949.614,-667.91 
690350.000,4354837.012,-586.44 
690350.000,4354737.035,-579.15 
690350.000,4354637.058,-590.73 
690350.000,4354537.082,-614.55 
690350.000,4354437.105,-643.54 
690350.000,4354337.129,-659.17 
690350.000,4354237.152,-663.36 
690350.000,4353037.433,-648.93 
690350.000,4352937.456,-653.57 
690350.000,4348438.508,-673.74 
690350.000,4348338.531,-664.96 
690350.000,4348238.555,-653 
690350.000,4348138.578,-639.34 
690350.000,4348038.602,-630.67 
690350.000,4347938.625,-621.72 
690350.000,4347838.648,-605.82 
690350.000,4347738.672,-596.34 
690350.000,4347638.695,-620.84 
690350.000,4347538.719,-646.42 
690350.000,4347438.742,-667.27 
690350.000,4344839.350,-672.42 
690350.000,4344739.373,-650.82 
690350.000,4344639.397,-639.05 
690350.000,4344539.420,-632.08 
690350.000,4344439.443,-630.33 
690350.000,4344339.467,-639.67 
690350.000,4344239.490,-641.38 
690350.000,4344139.513,-640.57 
690350.000,4344039.537,-636.67 
690350.000,4343939.560,-636.42 
690350.000,4343839.584,-633.73 
690350.000,4343739.607,-629.26 
690350.000,4343639.630,-627.6 
690350.000,4343539.654,-626.15 
690350.000,4343439.677,-625.15 
690350.000,4343339.701,-622.87 
690350.000,4343239.724,-621.26 
690350.000,4343139.747,-619.23 
690350.000,4343039.771,-615.3 
690350.000,4342939.794,-609.73 
690350.000,4342839.817,-599.53 
690350.000,4342739.841,-587.13 
690350.000,4342639.864,-568.01 
690350.000,4342539.888,-556.15 
690350.000,4342439.911,-545.42 
690350.000,4342339.934,-535.14 
690350.000,4342239.958,-522.23 
690350.000,4342139.981,-516.27 
690350.000,4342040.004,-512.68 
690350.000,4341940.028,-504.77 
690350.000,4341840.051,-498.83 
690350.000,4341740.075,-507.19 
690350.000,4341640.098,-520.27 
690350.000,4341540.121,-530.79 
690350.000,4341440.145,-533.73 
690350.000,4341340.168,-528.94 
690350.000,4341240.192,-522.28 
690350.000,4341140.215,-505.98 
690350.000,4341040.238,-486.6 
690350.000,4340940.262,-465.95 
690350.000,4340840.285,-461.72 
690350.000,4340740.308,-463.23 
690350.000,4340640.332,-461.15 
690350.000,4340540.355,-456.96 
690350.000,4340440.379,-448.26 
690350.000,4340340.402,-439.49 
690350.000,4340240.425,-435.99 
690350.000,4340140.449,-436.09 
690350.000,4340040.472,-436.87 
690350.000,4339940.496,-435.41 
690350.000,4339840.519,-434.92 
690350.000,4339740.542,-434.23 
690350.000,4339640.566,-433.03 
690350.000,4339540.589,-431.64 
690350.000,4339440.612,-429.79 
690350.000,4339340.636,-427.82 
690350.000,4339240.659,-426.23 
690350.000,4339140.683,-425.29 
690350.000,4339040.706,-424.59 
690350.000,4338940.729,-423.81 
690350.000,4338840.753,-422.34 
690350.000,4338740.776,-418.85 
690350.000,4338640.799,-413.08 
690350.000,4338540.823,-406.37 
690350.000,4338440.846,-396.52 
690350.000,4338340.870,-378.68 
690350.000,4338240.893,-354.06 
690350.000,4338140.916,-337.56 
690350.000,4338040.940,-326.24 
690350.000,4337940.963,-316.09 
690350.000,4337840.987,-305.6 
690350.000,4337741.010,-294.92 
690350.000,4337641.033,-286.22 
690350.000,4337541.057,-276.41 
690350.000,4337441.080,-266.11 
690350.000,4337341.103,-260.73 
690350.000,4337241.127,-261.08 
690350.000,4337141.150,-263.11 
690350.000,4337041.174,-264.66 
690350.000,4336941.197,-266.03 
690350.000,4336841.220,-265.97 
690350.000,4336741.244,-266.08 
690350.000,4336641.267,-266.79 
690350.000,4336541.290,-265.66 
690350.000,4336441.314,-263.99 
690350.000,4336341.337,-264 
690350.000,4336241.361,-262.07 
690350.000,4336141.384,-260.85 
690350.000,4336041.407,-258.42 
690350.000,4335941.431,-257.1 
690350.000,4335841.454,-258.55 
690350.000,4335741.478,-255.9 
690350.000,4335641.501,-248.08 
690350.000,4335541.524,-242.13 
690350.000,4335441.548,-238.94 
690350.000,4335341.571,-237.48 
690350.000,4335241.594,-237.79 
690350.000,4335141.618,-239.7 
690350.000,4335041.641,-243.49 
690350.000,4334941.665,-251.1 
690350.000,4334841.688,-239.9 
690350.000,4334741.711,-234.28 
