698697.078,4351991.785,-1173.4 
698697.078,4351792.116,-1182.5 
698697.078,4351592.446,-1187.2 
698697.078,4351392.776,-1182.4 
698697.078,4351193.106,-1170.6 
698697.078,4350993.436,-1149 
698697.078,4350793.766,-1108.5 
698697.078,4350594.096,-1064.8 
698697.078,4350394.426,-1034.6 
698697.078,4350194.756,-1010.5 
698697.078,4349995.086,-975 
698697.078,4349795.416,-934.3 
698697.078,4349595.746,-906.5 
698697.078,4349396.076,-888.3 
698697.078,4349196.406,-876.5 
698697.078,4348996.736,-868.7 
698697.078,4348797.066,-863.4 
698697.078,4348597.396,-853.4 
698697.078,4348397.726,-824.2 
698697.078,4348198.056,-783.3 
698697.078,4347998.386,-756 
698697.078,4347798.716,-747.8 
698697.078,4347599.046,-746.9 
698697.078,4347399.376,-747.3 
698697.078,4347199.706,-745.9 
698697.078,4347000.036,-742.2 
698697.078,4346800.366,-738.8 
698697.078,4346600.696,-736.5 
698697.078,4346401.026,-734.6 
698697.078,4346201.356,-732.6 
698697.078,4346001.686,-730.2 
698697.078,4345802.017,-727.3 
698697.078,4345602.347,-723.9 
698697.078,4345402.677,-722 
698697.078,4345203.007,-720.8 
698697.078,4345003.337,-718.8 
698697.078,4344803.667,-714.4 
698697.078,4344603.997,-708.4 
698697.078,4344404.327,-703 
698697.078,4344204.657,-698.1 
698697.078,4344004.987,-692.9 
698697.078,4343805.317,-686.5 
698697.078,4343605.647,-676.6 
698697.078,4343405.977,-663.5 
698697.078,4343206.307,-647.9 
698697.078,4343006.637,-626.6 
698697.078,4342806.967,-601.3 
698697.078,4342607.297,-575.4 
698697.078,4342407.627,-561.6 
698697.078,4322440.630,-567.6 
698697.078,4322240.960,-578 
698697.078,4322041.290,-585.1 
698697.078,4321841.620,-593.9 
698697.078,4321641.950,-602.2 
698697.078,4321442.281,-611 
698697.078,4321242.611,-620 
698697.078,4321042.941,-625.8 
698697.078,4320843.271,-629.2 
698697.078,4320643.601,-633.8 
698697.078,4320443.931,-640 
698697.078,4320244.261,-647.3 
698697.078,4320044.591,-654.7 
698697.078,4319844.921,-661.4 
698697.078,4319645.251,-670.4 
698697.078,4319445.581,-682.6 
698697.078,4319245.911,-700.2 
698697.078,4319046.241,-721.8 
698697.078,4318846.571,-744 
698697.078,4318646.901,-770.5 
698697.078,4318447.231,-802 
698697.078,4318247.561,-826.6 
698697.078,4318047.891,-854.9 
698697.078,4317848.221,-884.6 
698697.078,4317648.551,-909.4 
698697.078,4317448.881,-929 
698697.078,4317249.211,-936.9 
698697.078,4317049.541,-944.3 
698697.078,4316849.871,-948 
698697.078,4316650.201,-942.7 
698697.078,4316450.531,-933.6 
698697.078,4316250.861,-922.8 
698697.078,4316051.191,-914.9 
698697.078,4315851.521,-902.8 
698697.078,4315651.851,-896.4 
698697.078,4315452.182,-890.8 
698697.078,4315252.512,-882.4 
698697.078,4315052.842,-876.7 
698697.078,4314853.172,-870.4 
698697.078,4314653.502,-865.5 
698697.078,4314453.832,-866.7 
698697.078,4314254.162,-867.5 
698697.078,4314054.492,-863 
698697.078,4313854.822,-862.8 
698697.078,4313655.152,-862.5 
698697.078,4313455.482,-865.7 
698697.078,4313255.812,-868.7 
698697.078,4313056.142,-873.2 
698697.078,4312856.472,-878.6 
698697.078,4312656.802,-882.7 
698697.078,4312457.132,-889.7 
698697.078,4312257.462,-892.1 
698697.078,4312057.792,-890.1 
698697.078,4311858.122,-893.4 
698697.078,4311658.452,-899.8 
698697.078,4311458.782,-903.9 
698697.078,4311259.112,-913.1 
698697.078,4311059.442,-929.6 
698697.078,4310859.772,-942.4 
698697.078,4310660.102,-957.6 
698697.078,4310460.432,-985 
698697.078,4310260.762,-1006.1 
698697.078,4310061.092,-1021.3 
698697.078,4309861.422,-1015.7 
698697.078,4309661.752,-1019.5 
698697.078,4309462.083,-1031 
698697.078,4309262.413,-1056.8 
698697.078,4309062.743,-1082.4 
698697.078,4308863.073,-1084.8 
698697.078,4308663.403,-1093.1 
698697.078,4308463.733,-1103.3 
698697.078,4308264.063,-1104.5 
698697.078,4308064.393,-1114.7 
698697.078,4307864.723,-1121.6 
698697.078,4307665.053,-1126.5 
698697.078,4307465.383,-1130.7 
698697.078,4307265.713,-1141.2 
698697.078,4307066.043,-1166.2 
698697.078,4306866.373,-1204.2 
698697.078,4306666.703,-1236.5 
698697.078,4306467.033,-1256.2 
698697.078,4306267.363,-1242.6 
698697.078,4306067.693,-1225.4 
698697.078,4305868.023,-1219.4 
698697.078,4305668.353,-1235.7 
698697.078,4305468.683,-1250.1 
698697.078,4305269.013,-1264 
698697.078,4305069.343,-1296.1 
698697.078,4304869.673,-1328.6 
698697.078,4304670.003,-1356.4 
698697.078,4304470.333,-1368.8 
698697.078,4304270.663,-1378.2 
698697.078,4304070.993,-1384.8 
698697.078,4303871.323,-1387.5 
698697.078,4303671.653,-1390.6 
698697.078,4303471.983,-1391 
698697.078,4303272.314,-1395.9 
698697.078,4303072.644,-1403.5 
698697.078,4302872.974,-1412.8 
698697.078,4302673.304,-1423.1 
698697.078,4302473.634,-1431.1 
698697.078,4302273.964,-1439.8 
698697.078,4302074.294,-1447.7 
698697.078,4301874.624,-1455.3 
698697.078,4301674.954,-1464.3 
698697.078,4301475.284,-1473.2 
698697.078,4301275.614,-1479.2 
698697.078,4301075.944,-1489.6 
698697.078,4300876.274,-1505.4 
698697.078,4300676.604,-1512.3 
698697.078,4300476.934,-1517.7 
698697.078,4300277.264,-1522.2 
698697.078,4300077.594,-1522.5 
698697.078,4299877.924,-1522.4 
698697.078,4299678.254,-1520.9 
698697.078,4299478.584,-1523.2 
698697.078,4299278.914,-1526 
698697.078,4299079.244,-1532.4 
698697.078,4298879.574,-1537.3 
698697.078,4298679.904,-1541.5 
698697.078,4298480.234,-1545.9 
698697.078,4298280.564,-1550.2 
698697.078,4298080.894,-1555.8 
698697.078,4297881.224,-1562 
698697.078,4297681.554,-1567 
698697.078,4297481.884,-1572.1 
698697.078,4297282.215,-1578.2 
698697.078,4297082.545,-1582.5 
698697.078,4296882.875,-1588.1 
698697.078,4296683.205,-1594.7 
698697.078,4296483.535,-1602 
698697.078,4296283.865,-1608.2 
698697.078,4296084.195,-1612.7 
698697.078,4295884.525,-1616.1 
698697.078,4295684.855,-1621.9 
698697.078,4295485.185,-1628.3 
698697.078,4295285.515,-1634.4 
698697.078,4295085.845,-1640.1 
698697.078,4294886.175,-1644.3 
698697.078,4294686.505,-1650.6 
698697.078,4294486.835,-1652.6 
698897.047,4354787.165,-1189.1 
698897.047,4354587.495,-1178.6 
698897.047,4354387.825,-1151.7 
698897.047,4354188.155,-1128.6 
698897.047,4353988.485,-1107.3 
698897.047,4353788.815,-1100.6 
698897.047,4353589.145,-1103.6 
698897.047,4353389.475,-1094.5 
698897.047,4353189.805,-1096.1 
698897.047,4352990.135,-1109.4 
698897.047,4352790.465,-1120.6 
698897.047,4352590.795,-1137.7 
698897.047,4352391.125,-1159.5 
698897.047,4352191.455,-1175.5 
698897.047,4351991.785,-1184.8 
698897.047,4351792.116,-1189.4 
698897.047,4351592.446,-1189.7 
698897.047,4351392.776,-1180.1 
698897.047,4351193.106,-1154.7 
698897.047,4350993.436,-1120.8 
698897.047,4350793.766,-1085.2 
698897.047,4350594.096,-1056.3 
698897.047,4350394.426,-1037.9 
698897.047,4350194.756,-1015.1 
698897.047,4349995.086,-977.4 
698897.047,4349795.416,-941 
698897.047,4349595.746,-914.3 
698897.047,4349396.076,-890.3 
698897.047,4349196.406,-871.5 
698897.047,4348996.736,-856.5 
698897.047,4348797.066,-837.6 
698897.047,4348597.396,-816.6 
698897.047,4348397.726,-791.8 
698897.047,4348198.056,-766.5 
698897.047,4347998.386,-754.3 
698897.047,4347798.716,-752.3 
698897.047,4347599.046,-752.5 
698897.047,4347399.376,-752.9 
698897.047,4347199.706,-751.3 
698897.047,4347000.036,-747.8 
698897.047,4346800.366,-743.9 
698897.047,4346600.696,-740.2 
698897.047,4346401.026,-736.6 
698897.047,4346201.356,-734 
698897.047,4346001.686,-732.4 
698897.047,4345802.017,-729.4 
698897.047,4345602.347,-725.7 
698897.047,4345402.677,-723.4 
698897.047,4345203.007,-721.6 
698897.047,4345003.337,-719.2 
698897.047,4344803.667,-714.1 
698897.047,4344603.997,-707.8 
698897.047,4344404.327,-703.1 
698897.047,4344204.657,-697.9 
698897.047,4344004.987,-692.7 
698897.047,4343805.317,-687.6 
698897.047,4343605.647,-682.4 
698897.047,4343405.977,-675.1 
698897.047,4343206.307,-660.7 
698897.047,4343006.637,-640.6 
698897.047,4342806.967,-618.8 
698897.047,4342607.297,-601.1 
698897.047,4342407.627,-586.8 
698897.047,4342207.957,-578.4 
698897.047,4322440.630,-557.6 
698897.047,4322240.960,-570.1 
698897.047,4322041.290,-579.3 
698897.047,4321841.620,-586.8 
698897.047,4321641.950,-594.3 
698897.047,4321442.281,-601.8 
698897.047,4321242.611,-607.9 
698897.047,4321042.941,-613.1 
698897.047,4320843.271,-619 
698897.047,4320643.601,-626.3 
698897.047,4320443.931,-634.1 
698897.047,4320244.261,-642.8 
698897.047,4320044.591,-652 
698897.047,4319844.921,-660.3 
698897.047,4319645.251,-668.4 
698897.047,4319445.581,-677.9 
698897.047,4319245.911,-689.6 
698897.047,4319046.241,-705.6 
698897.047,4318846.571,-726.4 
698897.047,4318646.901,-748.8 
698897.047,4318447.231,-771.4 
698897.047,4318247.561,-780.6 
698897.047,4318047.891,-798.6 
698897.047,4317848.221,-828.5 
698897.047,4317648.551,-862.1 
698897.047,4317448.881,-891.7 
698897.047,4317249.211,-914.3 
698897.047,4317049.541,-936 
698897.047,4316849.871,-950 
698897.047,4316650.201,-959.6 
698897.047,4316450.531,-969 
698897.047,4316250.861,-974.6 
698897.047,4316051.191,-974.7 
698897.047,4315851.521,-963.2 
698897.047,4315651.851,-959.9 
698897.047,4315452.182,-954.3 
698897.047,4315252.512,-931.4 
698897.047,4315052.842,-921.8 
698897.047,4314853.172,-913.5 
698897.047,4314653.502,-907.9 
698897.047,4314453.832,-906.2 
698897.047,4314254.162,-904.7 
698897.047,4314054.492,-906.2 
698897.047,4313854.822,-916.1 
698897.047,4313655.152,-909.5 
698897.047,4313455.482,-903.7 
698897.047,4313255.812,-906.4 
698897.047,4313056.142,-906.4 
698897.047,4312856.472,-906.2 
698897.047,4312656.802,-915.2 
698897.047,4312457.132,-931.3 
698897.047,4312257.462,-942.1 
698897.047,4312057.792,-942.9 
698897.047,4311858.122,-942 
698897.047,4311658.452,-938.6 
698897.047,4311458.782,-937.5 
698897.047,4311259.112,-944.5 
698897.047,4311059.442,-969.5 
698897.047,4310859.772,-987.5 
698897.047,4310660.102,-1010.5 
698897.047,4310460.432,-1044.5 
698897.047,4310260.762,-1074.3 
698897.047,4310061.092,-1092.3 
698897.047,4309861.422,-1084.8 
698897.047,4309661.752,-1084.6 
698897.047,4309462.083,-1091.5 
698897.047,4309262.413,-1108.5 
698897.047,4309062.743,-1130 
698897.047,4308863.073,-1135.4 
698897.047,4308663.403,-1142.2 
698897.047,4308463.733,-1152.8 
698897.047,4308264.063,-1157.3 
698897.047,4308064.393,-1162.3 
698897.047,4307864.723,-1169 
698897.047,4307665.053,-1178.2 
698897.047,4307465.383,-1175.5 
698897.047,4307265.713,-1184.9 
698897.047,4307066.043,-1209.1 
698897.047,4306866.373,-1238.5 
698897.047,4306666.703,-1281.1 
698897.047,4306467.033,-1303.1 
698897.047,4306267.363,-1300.9 
698897.047,4306067.693,-1269.1 
698897.047,4305868.023,-1265.8 
698897.047,4305668.353,-1278.8 
698897.047,4305468.683,-1299.6 
698897.047,4305269.013,-1319.4 
698897.047,4305069.343,-1342.7 
698897.047,4304869.673,-1361.1 
698897.047,4304670.003,-1372.8 
698897.047,4304470.333,-1381 
698897.047,4304270.663,-1386 
698897.047,4304070.993,-1392.6 
698897.047,4303871.323,-1394.4 
698897.047,4303671.653,-1399.7 
698897.047,4303471.983,-1404.2 
698897.047,4303272.314,-1410.7 
698897.047,4303072.644,-1416.1 
698897.047,4302872.974,-1424.6 
698897.047,4302673.304,-1434.4 
698897.047,4302473.634,-1442.4 
698897.047,4302273.964,-1450 
698897.047,4302074.294,-1456.8 
698897.047,4301874.624,-1462.6 
698897.047,4301674.954,-1471 
698897.047,4301475.284,-1477.7 
698897.047,4301275.614,-1488.2 
698897.047,4301075.944,-1501.4 
698897.047,4300876.274,-1510.9 
698897.047,4300676.604,-1522.4 
698897.047,4300476.934,-1525.4 
698897.047,4300277.264,-1529.9 
698897.047,4300077.594,-1529.6 
698897.047,4299877.924,-1527 
698897.047,4299678.254,-1525.5 
698897.047,4299478.584,-1528 
698897.047,4299278.914,-1533.4 
698897.047,4299079.244,-1537.5 
698897.047,4298879.574,-1541.2 
698897.047,4298679.904,-1545.8 
698897.047,4298480.234,-1548.7 
698897.047,4298280.564,-1555.7 
698897.047,4298080.894,-1561.4 
698897.047,4297881.224,-1568.6 
698897.047,4297681.554,-1572.3 
698897.047,4297481.884,-1578.6 
698897.047,4297282.215,-1582.7 
698897.047,4297082.545,-1587.4 
698897.047,4296882.875,-1594 
698897.047,4296683.205,-1598.9 
698897.047,4296483.535,-1606.3 
698897.047,4296283.865,-1610.6 
698897.047,4296084.195,-1614.6 
698897.047,4295884.525,-1620.3 
698897.047,4295684.855,-1625.7 
698897.047,4295485.185,-1632.8 
698897.047,4295285.515,-1639 
698897.047,4295085.845,-1643.9 
698897.047,4294886.175,-1647.5 
698897.047,4294686.505,-1653.7 
698897.047,4294486.835,-1655.7 
699097.017,4354787.165,-1205.8 
699097.017,4354587.495,-1206 
699097.017,4354387.825,-1197.7 
699097.017,4354188.155,-1176.3 
699097.017,4353988.485,-1141.9 
699097.017,4353788.815,-1126.1 
699097.017,4353589.145,-1125.2 
699097.017,4353389.475,-1113.4 
699097.017,4353189.805,-1115.7 
699097.017,4352990.135,-1130.8 
699097.017,4352790.465,-1146.8 
699097.017,4352590.795,-1167.5 
699097.017,4352391.125,-1181.5 
699097.017,4352191.455,-1187.5 
699097.017,4351991.785,-1193.4 
699097.017,4351792.116,-1194.1 
699097.017,4351592.446,-1187.3 
699097.017,4351392.776,-1168.7 
699097.017,4351193.106,-1131.3 
699097.017,4350993.436,-1085.7 
699097.017,4350793.766,-1054.5 
699097.017,4350594.096,-1040.5 
699097.017,4350394.426,-1028.2 
699097.017,4350194.756,-996.9 
699097.017,4349995.086,-956.4 
699097.017,4349795.416,-932.3 
699097.017,4349595.746,-915.3 
699097.017,4349396.076,-893.8 
699097.017,4349196.406,-872.6 
699097.017,4348996.736,-851.9 
699097.017,4348797.066,-822.7 
699097.017,4348597.396,-785.4 
699097.017,4348397.726,-762.3 
699097.017,4348198.056,-757.9 
699097.017,4347998.386,-758.6 
699097.017,4347798.716,-759.6 
699097.017,4347599.046,-759.3 
699097.017,4347399.376,-758.2 
699097.017,4347199.706,-756 
699097.017,4347000.036,-752.1 
699097.017,4346800.366,-747.3 
699097.017,4346600.696,-742 
699097.017,4346401.026,-737.4 
699097.017,4346201.356,-734.2 
699097.017,4346001.686,-732.2 
699097.017,4345802.017,-729.7 
699097.017,4345602.347,-726.8 
699097.017,4345402.677,-724.6 
699097.017,4345203.007,-722.3 
699097.017,4345003.337,-719.5 
699097.017,4344803.667,-714.7 
699097.017,4344603.997,-708.4 
699097.017,4344404.327,-703.2 
699097.017,4344204.657,-698.4 
699097.017,4344004.987,-693.1 
699097.017,4343805.317,-688.5 
699097.017,4343605.647,-684.3 
699097.017,4343405.977,-678.4 
699097.017,4343206.307,-668.4 
699097.017,4343006.637,-654.3 
699097.017,4342806.967,-638.7 
699097.017,4342607.297,-625.9 
699097.017,4342407.627,-612.2 
699097.017,4342207.957,-587.3 
699097.017,4342008.287,-570.3 
699097.017,4322240.960,-562.1 
699097.017,4322041.290,-570.9 
699097.017,4321841.620,-577.5 
699097.017,4321641.950,-582.1 
699097.017,4321442.281,-587.9 
699097.017,4321242.611,-594.1 
699097.017,4321042.941,-602 
699097.017,4320843.271,-611.3 
699097.017,4320643.601,-619.5 
699097.017,4320443.931,-627.4 
699097.017,4320244.261,-638 
699097.017,4320044.591,-650.5 
699097.017,4319844.921,-660.9 
699097.017,4319645.251,-669.4 
699097.017,4319445.581,-678 
699097.017,4319245.911,-688.2 
699097.017,4319046.241,-701.4 
699097.017,4318846.571,-717 
699097.017,4318646.901,-733.1 
699097.017,4318447.231,-751.1 
699097.017,4318247.561,-764.6 
699097.017,4318047.891,-780.4 
699097.017,4317848.221,-801.8 
699097.017,4317648.551,-824 
699097.017,4317448.881,-845.3 
699097.017,4317249.211,-867.5 
699097.017,4317049.541,-890.9 
699097.017,4316849.871,-911 
699097.017,4316650.201,-935 
699097.017,4316450.531,-961 
699097.017,4316250.861,-982.9 
699097.017,4316051.191,-1001.1 
699097.017,4315851.521,-1010.1 
699097.017,4315651.851,-1014.3 
699097.017,4315452.182,-1010.4 
699097.017,4315252.512,-998 
699097.017,4315052.842,-984.3 
699097.017,4314853.172,-964.2 
699097.017,4314653.502,-953.9 
699097.017,4314453.832,-951.7 
699097.017,4314254.162,-960.4 
699097.017,4314054.492,-972.8 
699097.017,4313854.822,-970.2 
699097.017,4313655.152,-968.9 
699097.017,4313455.482,-966.1 
699097.017,4313255.812,-961.7 
699097.017,4313056.142,-960.9 
699097.017,4312856.472,-951.2 
699097.017,4312656.802,-943.5 
699097.017,4312457.132,-950.7 
699097.017,4312257.462,-952.8 
699097.017,4312057.792,-955.7 
699097.017,4311858.122,-963.5 
699097.017,4311658.452,-973.6 
699097.017,4311458.782,-984.6 
699097.017,4311259.112,-1000.1 
699097.017,4311059.442,-1026.6 
699097.017,4310859.772,-1046.1 
699097.017,4310660.102,-1066.1 
699097.017,4310460.432,-1105 
699097.017,4310260.762,-1145.8 
699097.017,4310061.092,-1165.2 
699097.017,4309861.422,-1163.3 
699097.017,4309661.752,-1155.4 
699097.017,4309462.083,-1146.2 
699097.017,4309262.413,-1147.9 
699097.017,4309062.743,-1174.1 
699097.017,4308863.073,-1189.7 
699097.017,4308663.403,-1195.1 
699097.017,4308463.733,-1199.6 
699097.017,4308264.063,-1204.3 
699097.017,4308064.393,-1204.9 
699097.017,4307864.723,-1204.5 
699097.017,4307665.053,-1216.8 
699097.017,4307465.383,-1215.6 
699097.017,4307265.713,-1224 
699097.017,4307066.043,-1237.8 
699097.017,4306866.373,-1264.6 
699097.017,4306666.703,-1326.3 
699097.017,4306467.033,-1350 
699097.017,4306267.363,-1355.5 
699097.017,4306067.693,-1324.3 
699097.017,4305868.023,-1313.1 
699097.017,4305668.353,-1323.4 
699097.017,4305468.683,-1341.4 
699097.017,4305269.013,-1364.4 
699097.017,4305069.343,-1376 
699097.017,4304869.673,-1378.9 
699097.017,4304670.003,-1383.4 
699097.017,4304470.333,-1388 
699097.017,4304270.663,-1393 
699097.017,4304070.993,-1398.8 
699097.017,4303871.323,-1401.9 
699097.017,4303671.653,-1411 
699097.017,4303471.983,-1421.7 
699097.017,4303272.314,-1429.4 
699097.017,4303072.644,-1433.3 
699097.017,4302872.974,-1442.9 
699097.017,4302673.304,-1450.2 
699097.017,4302473.634,-1458.9 
699097.017,4302273.964,-1465.9 
699097.017,4302074.294,-1472.1 
699097.017,4301874.624,-1479.6 
699097.017,4301674.954,-1487.3 
699097.017,4301475.284,-1496 
699097.017,4301275.614,-1507.5 
699097.017,4301075.944,-1511.9 
699097.017,4300876.274,-1519.2 
699097.017,4300676.604,-1526.9 
699097.017,4300476.934,-1532.1 
699097.017,4300277.264,-1535.7 
699097.017,4300077.594,-1537.4 
699097.017,4299877.924,-1536.4 
699097.017,4299678.254,-1536.2 
699097.017,4299478.584,-1537.4 
699097.017,4299278.914,-1538.8 
699097.017,4299079.244,-1542.1 
699097.017,4298879.574,-1544.9 
699097.017,4298679.904,-1549.4 
699097.017,4298480.234,-1555.2 
699097.017,4298280.564,-1561.6 
699097.017,4298080.894,-1568.3 
699097.017,4297881.224,-1575.6 
699097.017,4297681.554,-1580.4 
699097.017,4297481.884,-1586.2 
699097.017,4297282.215,-1590.4 
699097.017,4297082.545,-1594.9 
699097.017,4296882.875,-1599.6 
699097.017,4296683.205,-1605.1 
699097.017,4296483.535,-1610.4 
699097.017,4296283.865,-1614.1 
699097.017,4296084.195,-1619.3 
699097.017,4295884.525,-1624.4 
699097.017,4295684.855,-1630.1 
699097.017,4295485.185,-1637.3 
699097.017,4295285.515,-1642.7 
699097.017,4295085.845,-1647.9 
699097.017,4294886.175,-1652.1 
699097.017,4294686.505,-1656.5 
699097.017,4294486.835,-1658.3 
699296.986,4354787.165,-1225.1 
699296.986,4354587.495,-1221.7 
699296.986,4354387.825,-1218.9 
699296.986,4354188.155,-1208 
699296.986,4353988.485,-1186 
699296.986,4353788.815,-1167.9 
699296.986,4353589.145,-1150.4 
699296.986,4353389.475,-1134 
699296.986,4353189.805,-1139 
699296.986,4352990.135,-1159.9 
699296.986,4352790.465,-1180.7 
699296.986,4352590.795,-1191 
699296.986,4352391.125,-1193.9 
699296.986,4352191.455,-1199.5 
699296.986,4351991.785,-1204 
699296.986,4351792.116,-1198.4 
699296.986,4351592.446,-1179.3 
699296.986,4351392.776,-1154.1 
699296.986,4351193.106,-1115.4 
699296.986,4350993.436,-1067.5 
699296.986,4350793.766,-1035.7 
699296.986,4350594.096,-1020.2 
699296.986,4350394.426,-1003.4 
699296.986,4350194.756,-970 
699296.986,4349995.086,-934.4 
699296.986,4349795.416,-913.6 
699296.986,4349595.746,-900.6 
699296.986,4349396.076,-886.6 
699296.986,4349196.406,-869.5 
699296.986,4348996.736,-846.7 
699296.986,4348797.066,-806.6 
699296.986,4348597.396,-770.1 
699296.986,4348397.726,-759.8 
699296.986,4348198.056,-762.1 
699296.986,4347998.386,-764.2 
699296.986,4347798.716,-763.7 
699296.986,4347599.046,-762.6 
699296.986,4347399.376,-760.7 
699296.986,4347199.706,-757.4 
699296.986,4347000.036,-753.8 
699296.986,4346800.366,-748.6 
699296.986,4346600.696,-741.8 
699296.986,4346401.026,-736.8 
699296.986,4346201.356,-733.9 
699296.986,4346001.686,-731.4 
699296.986,4345802.017,-729.3 
699296.986,4345602.347,-727.6 
699296.986,4345402.677,-725.6 
699296.986,4345203.007,-723.4 
699296.986,4345003.337,-720.1 
699296.986,4344803.667,-714.7 
699296.986,4344603.997,-708.9 
699296.986,4344404.327,-704.7 
699296.986,4344204.657,-700.6 
699296.986,4344004.987,-695.4 
699296.986,4343805.317,-689.7 
699296.986,4343605.647,-683.8 
699296.986,4343405.977,-677.2 
699296.986,4343206.307,-669.6 
699296.986,4343006.637,-661 
699296.986,4342806.967,-651.2 
699296.986,4342607.297,-641.7 
699296.986,4342407.627,-630.5 
699296.986,4342207.957,-610.1 
699296.986,4342008.287,-582.8 
699296.986,4341808.617,-567.9 
699296.986,4322041.290,-554.4 
699296.986,4321841.620,-563.2 
699296.986,4321641.950,-570 
699296.986,4321442.281,-576.1 
699296.986,4321242.611,-583.8 
699296.986,4321042.941,-593.2 
699296.986,4320843.271,-602.1 
699296.986,4320643.601,-609.4 
699296.986,4320443.931,-617.3 
699296.986,4320244.261,-629.8 
699296.986,4320044.591,-645.7 
699296.986,4319844.921,-657.2 
699296.986,4319645.251,-666.2 
699296.986,4319445.581,-674.8 
699296.986,4319245.911,-684.9 
699296.986,4319046.241,-697.2 
699296.986,4318846.571,-709.1 
699296.986,4318646.901,-722.2 
699296.986,4318447.231,-736.7 
699296.986,4318247.561,-752.9 
699296.986,4318047.891,-770 
699296.986,4317848.221,-787 
699296.986,4317648.551,-805.1 
699296.986,4317448.881,-821.7 
699296.986,4317249.211,-837.9 
699296.986,4317049.541,-853.7 
699296.986,4316849.871,-877.2 
699296.986,4316650.201,-911.3 
699296.986,4316450.531,-941.8 
699296.986,4316250.861,-967.8 
699296.986,4316051.191,-991.8 
699296.986,4315851.521,-1011.7 
699296.986,4315651.851,-1019.2 
699296.986,4315452.182,-1022 
699296.986,4315252.512,-1026.6 
699296.986,4315052.842,-1027.1 
699296.986,4314853.172,-1020.3 
699296.986,4314653.502,-1011.1 
699296.986,4314453.832,-1018 
699296.986,4314254.162,-1035.4 
699296.986,4314054.492,-1037.3 
699296.986,4313854.822,-1031 
699296.986,4313655.152,-1032.2 
699296.986,4313455.482,-1028.9 
699296.986,4313255.812,-1023.5 
699296.986,4313056.142,-1021.1 
699296.986,4312856.472,-1005 
699296.986,4312656.802,-986.2 
699296.986,4312457.132,-983.6 
699296.986,4312257.462,-981.9 
699296.986,4312057.792,-985.1 
699296.986,4311858.122,-1002.4 
699296.986,4311658.452,-1033.8 
699296.986,4311458.782,-1052.8 
699296.986,4311259.112,-1059.5 
699296.986,4311059.442,-1073.7 
699296.986,4310859.772,-1098.3 
699296.986,4310660.102,-1119.5 
699296.986,4310460.432,-1156.9 
699296.986,4310260.762,-1204.7 
699296.986,4310061.092,-1227.4 
699296.986,4309861.422,-1225 
699296.986,4309661.752,-1212.3 
699296.986,4309462.083,-1197.6 
699296.986,4309262.413,-1195.3 
699296.986,4309062.743,-1216.5 
699296.986,4308863.073,-1234.7 
699296.986,4308663.403,-1238.5 
699296.986,4308463.733,-1245 
699296.986,4308264.063,-1252.2 
699296.986,4308064.393,-1255.3 
699296.986,4307864.723,-1253.7 
699296.986,4307665.053,-1252.6 
699296.986,4307465.383,-1252.9 
699296.986,4307265.713,-1264.4 
699296.986,4307066.043,-1276.4 
699296.986,4306866.373,-1308.4 
699296.986,4306666.703,-1365.9 
699296.986,4306467.033,-1394.9 
699296.986,4306267.363,-1396.3 
699296.986,4306067.693,-1381.3 
699296.986,4305868.023,-1360.9 
699296.986,4305668.353,-1370.3 
699296.986,4305468.683,-1385 
699296.986,4305269.013,-1392.8 
699296.986,4305069.343,-1391.8 
699296.986,4304869.673,-1390 
699296.986,4304670.003,-1391.7 
699296.986,4304470.333,-1394.9 
699296.986,4304270.663,-1403.5 
699296.986,4304070.993,-1409.5 
699296.986,4303871.323,-1416.9 
699296.986,4303671.653,-1423.9 
699296.986,4303471.983,-1434.9 
699296.986,4303272.314,-1445.7 
699296.986,4303072.644,-1453.3 
699296.986,4302872.974,-1461.4 
699296.986,4302673.304,-1467.5 
699296.986,4302473.634,-1475.2 
699296.986,4302273.964,-1481.7 
699296.986,4302074.294,-1484.8 
699296.986,4301874.624,-1493.4 
699296.986,4301674.954,-1502.4 
699296.986,4301475.284,-1514.3 
699296.986,4301275.614,-1520.9 
699296.986,4301075.944,-1528.9 
699296.986,4300876.274,-1534.7 
699296.986,4300676.604,-1538.2 
699296.986,4300476.934,-1542 
699296.986,4300277.264,-1544.8 
699296.986,4300077.594,-1546.8 
699296.986,4299877.924,-1544.7 
699296.986,4299678.254,-1543.3 
699296.986,4299478.584,-1542 
699296.986,4299278.914,-1543.6 
699296.986,4299079.244,-1548.4 
699296.986,4298879.574,-1553.2 
699296.986,4298679.904,-1558.1 
699296.986,4298480.234,-1565.2 
699296.986,4298280.564,-1571.2 
699296.986,4298080.894,-1576.5 
699296.986,4297881.224,-1581.2 
699296.986,4297681.554,-1586.6 
699296.986,4297481.884,-1591 
699296.986,4297282.215,-1597.1 
699296.986,4297082.545,-1602.7 
699296.986,4296882.875,-1607.2 
699296.986,4296683.205,-1610.5 
699296.986,4296483.535,-1614.5 
699296.986,4296283.865,-1620.1 
699296.986,4296084.195,-1625.2 
699296.986,4295884.525,-1631 
699296.986,4295684.855,-1635.4 
699296.986,4295485.185,-1641.2 
699296.986,4295285.515,-1644.5 
699296.986,4295085.845,-1650.4 
699296.986,4294886.175,-1654.8 
699296.986,4294686.505,-1658.7 
699296.986,4294486.835,-1660.5 
699496.955,4354787.165,-1227.8 
699496.955,4354587.495,-1232.8 
699496.955,4354387.825,-1236.6 
699496.955,4354188.155,-1237.2 
699496.955,4353988.485,-1229.3 
699496.955,4353788.815,-1214.5 
699496.955,4353589.145,-1187.4 
699496.955,4353389.475,-1163.5 
699496.955,4353189.805,-1171.8 
699496.955,4352990.135,-1196.4 
699496.955,4352790.465,-1206.9 
699496.955,4352590.795,-1205.4 
699496.955,4352391.125,-1208.1 
699496.955,4352191.455,-1212.4 
699496.955,4351991.785,-1206.1 
699496.955,4351792.116,-1188 
699496.955,4351592.446,-1158.7 
699496.955,4351392.776,-1129.8 
699496.955,4351193.106,-1094 
699496.955,4350993.436,-1057.4 
699496.955,4350793.766,-1029.5 
699496.955,4350594.096,-1004.2 
699496.955,4350394.426,-976.6 
699496.955,4350194.756,-944.6 
699496.955,4349995.086,-919.4 
699496.955,4349795.416,-900.5 
699496.955,4349595.746,-885.3 
699496.955,4349396.076,-872.9 
699496.955,4349196.406,-858.4 
699496.955,4348996.736,-828.9 
699496.955,4348797.066,-786.3 
699496.955,4348597.396,-764.4 
699496.955,4348397.726,-765.5 
699496.955,4348198.056,-769.3 
699496.955,4347998.386,-770.7 
699496.955,4347798.716,-769.3 
699496.955,4347599.046,-766.3 
699496.955,4347399.376,-762.4 
699496.955,4347199.706,-758.4 
699496.955,4347000.036,-754.4 
699496.955,4346800.366,-749.6 
699496.955,4346600.696,-743.2 
699496.955,4346401.026,-737.1 
699496.955,4346201.356,-733.4 
699496.955,4346001.686,-730.6 
699496.955,4345802.017,-728 
699496.955,4345602.347,-725.9 
699496.955,4345402.677,-723.8 
699496.955,4345203.007,-721.9 
699496.955,4345003.337,-718.5 
699496.955,4344803.667,-715.2 
699496.955,4344603.997,-712.2 
699496.955,4344404.327,-708 
699496.955,4344204.657,-703.4 
699496.955,4344004.987,-698 
699496.955,4343805.317,-691.2 
699496.955,4343605.647,-684.2 
699496.955,4343405.977,-677 
699496.955,4343206.307,-669.9 
699496.955,4343006.637,-663.8 
699496.955,4342806.967,-657.4 
699496.955,4342607.297,-651.6 
699496.955,4342407.627,-644.6 
699496.955,4342207.957,-630.6 
699496.955,4342008.287,-609.6 
699496.955,4341808.617,-583 
699496.955,4341608.947,-566.2 
699496.955,4321641.950,-557.2 
699496.955,4321442.281,-564.5 
699496.955,4321242.611,-574.3 
699496.955,4321042.941,-583.8 
699496.955,4320843.271,-591.2 
699496.955,4320643.601,-598.6 
699496.955,4320443.931,-606.9 
699496.955,4320244.261,-618.3 
699496.955,4320044.591,-632.3 
699496.955,4319844.921,-644.8 
699496.955,4319645.251,-655.1 
699496.955,4319445.581,-663.9 
699496.955,4319245.911,-674.3 
699496.955,4319046.241,-686.7 
699496.955,4318846.571,-701.2 
699496.955,4318646.901,-715.4 
699496.955,4318447.231,-728.6 
699496.955,4318247.561,-744.3 
699496.955,4318047.891,-761.6 
699496.955,4317848.221,-779.7 
699496.955,4317648.551,-797.4 
699496.955,4317448.881,-813.4 
699496.955,4317249.211,-827.6 
699496.955,4317049.541,-844.7 
699496.955,4316849.871,-865.2 
699496.955,4316650.201,-889.9 
699496.955,4316450.531,-921.5 
699496.955,4316250.861,-952.7 
699496.955,4316051.191,-975.6 
699496.955,4315851.521,-994 
699496.955,4315651.851,-1007.9 
699496.955,4315452.182,-1015.8 
699496.955,4315252.512,-1021.2 
699496.955,4315052.842,-1025.9 
699496.955,4314853.172,-1033.9 
699496.955,4314653.502,-1048 
699496.955,4314453.832,-1063.4 
699496.955,4314254.162,-1070.2 
699496.955,4314054.492,-1075.8 
699496.955,4313854.822,-1078.8 
699496.955,4313655.152,-1085.3 
699496.955,4313455.482,-1085.3 
699496.955,4313255.812,-1083.1 
699496.955,4313056.142,-1078 
699496.955,4312856.472,-1066.2 
699496.955,4312656.802,-1049.9 
699496.955,4312457.132,-1055.8 
699496.955,4312257.462,-1055.5 
699496.955,4312057.792,-1057.1 
699496.955,4311858.122,-1075.8 
699496.955,4311658.452,-1096.5 
699496.955,4311458.782,-1112.5 
699496.955,4311259.112,-1119.6 
699496.955,4311059.442,-1133 
699496.955,4310859.772,-1154 
699496.955,4310660.102,-1171 
699496.955,4310460.432,-1197.2 
699496.955,4310260.762,-1247.2 
699496.955,4310061.092,-1285.8 
699496.955,4309861.422,-1290.7 
699496.955,4309661.752,-1281.3 
699496.955,4309462.083,-1267.9 
699496.955,4309262.413,-1254.8 
699496.955,4309062.743,-1259.9 
699496.955,4308863.073,-1275 
699496.955,4308663.403,-1285.5 
699496.955,4308463.733,-1281.7 
699496.955,4308264.063,-1274.8 
699496.955,4308064.393,-1283.3 
699496.955,4307864.723,-1296.5 
699496.955,4307665.053,-1292.2 
699496.955,4307465.383,-1294.7 
699496.955,4307265.713,-1308.6 
699496.955,4307066.043,-1335.1 
699496.955,4306866.373,-1371.3 
699496.955,4306666.703,-1395.1 
699496.955,4306467.033,-1406.1 
699496.955,4306267.363,-1412 
699496.955,4306067.693,-1396.7 
699496.955,4305868.023,-1380.7 
699496.955,4305668.353,-1392.9 
699496.955,4305468.683,-1402.2 
699496.955,4305269.013,-1405.9 
699496.955,4305069.343,-1406.8 
699496.955,4304869.673,-1403 
699496.955,4304670.003,-1402.1 
699496.955,4304470.333,-1405.4 
699496.955,4304270.663,-1413.2 
699496.955,4304070.993,-1422.7 
699496.955,4303871.323,-1428.9 
699496.955,4303671.653,-1437.6 
699496.955,4303471.983,-1446.1 
699496.955,4303272.314,-1458.1 
699496.955,4303072.644,-1467.8 
699496.955,4302872.974,-1473.9 
699496.955,4302673.304,-1481 
699496.955,4302473.634,-1487.2 
699496.955,4302273.964,-1493.6 
699496.955,4302074.294,-1501.1 
699496.955,4301874.624,-1508.7 
699496.955,4301674.954,-1516.2 
699496.955,4301475.284,-1532.8 
699496.955,4301275.614,-1537.4 
699496.955,4301075.944,-1543.5 
699496.955,4300876.274,-1548.7 
699496.955,4300676.604,-1550.9 
699496.955,4300476.934,-1551.3 
699496.955,4300277.264,-1551.9 
699496.955,4300077.594,-1552.5 
699496.955,4299877.924,-1553 
699496.955,4299678.254,-1551.3 
699496.955,4299478.584,-1551.7 
699496.955,4299278.914,-1553.4 
699496.955,4299079.244,-1557.5 
699496.955,4298879.574,-1564.1 
699496.955,4298679.904,-1570.4 
699496.955,4298480.234,-1577 
699496.955,4298280.564,-1583.1 
699496.955,4298080.894,-1585.6 
699496.955,4297881.224,-1589.5 
699496.955,4297681.554,-1592.8 
699496.955,4297481.884,-1599.6 
699496.955,4297282.215,-1605.2 
699496.955,4297082.545,-1610.3 
699496.955,4296882.875,-1613.6 
699496.955,4296683.205,-1616.8 
699496.955,4296483.535,-1621.4 
699496.955,4296283.865,-1626.3 
699496.955,4296084.195,-1631.2 
699496.955,4295884.525,-1633.9 
699496.955,4295684.855,-1639.9 
699496.955,4295485.185,-1643.3 
699496.955,4295285.515,-1647.5 
699496.955,4295085.845,-1651.1 
699496.955,4294886.175,-1656.2 
699496.955,4294686.505,-1661.1 
699496.955,4294486.835,-1664.4 
699696.925,4354787.165,-1231 
699696.925,4354587.495,-1234.4 
699696.925,4354387.825,-1240.1 
699696.925,4354188.155,-1245.8 
699696.925,4353988.485,-1246.8 
699696.925,4353788.815,-1245.1 
699696.925,4353589.145,-1225.5 
699696.925,4353389.475,-1207.4 
699696.925,4353189.805,-1215.9 
699696.925,4352990.135,-1224.5 
699696.925,4352790.465,-1224.5 
699696.925,4352590.795,-1225.9 
699696.925,4352391.125,-1226.4 
699696.925,4352191.455,-1216.9 
699696.925,4351991.785,-1196.2 
699696.925,4351792.116,-1166.8 
699696.925,4351592.446,-1127 
699696.925,4351392.776,-1092.3 
699696.925,4351193.106,-1070.5 
699696.925,4350993.436,-1054.7 
699696.925,4350793.766,-1032.4 
699696.925,4350594.096,-1001.6 
699696.925,4350394.426,-968.7 
699696.925,4350194.756,-938.8 
699696.925,4349995.086,-918.2 
699696.925,4349795.416,-901.2 
699696.925,4349595.746,-885.7 
699696.925,4349396.076,-873.1 
699696.925,4349196.406,-854.9 
699696.925,4348996.736,-816.5 
699696.925,4348797.066,-780.1 
699696.925,4348597.396,-772.2 
699696.925,4348397.726,-775.4 
699696.925,4348198.056,-777 
699696.925,4347998.386,-777.5 
699696.925,4347798.716,-775.1 
699696.925,4347599.046,-771 
699696.925,4347399.376,-767 
699696.925,4347199.706,-761.7 
699696.925,4347000.036,-755.5 
699696.925,4346800.366,-749.7 
699696.925,4346600.696,-743.2 
699696.925,4346401.026,-736.2 
699696.925,4346201.356,-731.2 
699696.925,4346001.686,-728.2 
699696.925,4345802.017,-725.8 
699696.925,4345602.347,-723.7 
699696.925,4345402.677,-721.6 
699696.925,4345203.007,-719.7 
699696.925,4345003.337,-718.1 
699696.925,4344803.667,-716.9 
699696.925,4344603.997,-715.6 
699696.925,4344404.327,-713.2 
699696.925,4344204.657,-706.7 
699696.925,4344004.987,-698.9 
699696.925,4343805.317,-692.6 
699696.925,4343605.647,-685.2 
699696.925,4343405.977,-677.4 
699696.925,4343206.307,-672.2 
699696.925,4343006.637,-668.6 
699696.925,4342806.967,-663.8 
699696.925,4342607.297,-659.1 
699696.925,4342407.627,-654.7 
699696.925,4342207.957,-645.9 
699696.925,4342008.287,-629.5 
699696.925,4341808.617,-604.9 
699696.925,4341608.947,-572.6 
699696.925,4341409.277,-553.3 
699696.925,4321442.281,-554.7 
699696.925,4321242.611,-565.2 
699696.925,4321042.941,-575.2 
699696.925,4320843.271,-582.8 
699696.925,4320643.601,-591.5 
699696.925,4320443.931,-599.8 
699696.925,4320244.261,-610.3 
699696.925,4320044.591,-621.4 
699696.925,4319844.921,-632.2 
699696.925,4319645.251,-642.3 
699696.925,4319445.581,-652.4 
699696.925,4319245.911,-663 
699696.925,4319046.241,-675.9 
699696.925,4318846.571,-690.5 
699696.925,4318646.901,-706.1 
699696.925,4318447.231,-721.2 
699696.925,4318247.561,-739.9 
699696.925,4318047.891,-757.1 
699696.925,4317848.221,-776 
699696.925,4317648.551,-794.1 
699696.925,4317448.881,-812 
699696.925,4317249.211,-828.5 
699696.925,4317049.541,-846.7 
699696.925,4316849.871,-866.8 
699696.925,4316650.201,-886.7 
699696.925,4316450.531,-904.4 
699696.925,4316250.861,-926.6 
699696.925,4316051.191,-947.6 
699696.925,4315851.521,-964.8 
699696.925,4315651.851,-980.5 
699696.925,4315452.182,-992.4 
699696.925,4315252.512,-1001.5 
699696.925,4315052.842,-1011.9 
699696.925,4314853.172,-1019.7 
699696.925,4314653.502,-1026 
699696.925,4314453.832,-1032.8 
699696.925,4314254.162,-1039.7 
699696.925,4314054.492,-1044.4 
699696.925,4313854.822,-1052 
699696.925,4313655.152,-1066.1 
699696.925,4313455.482,-1082.8 
699696.925,4313255.812,-1104.4 
699696.925,4313056.142,-1120 
699696.925,4312856.472,-1121.7 
699696.925,4312656.802,-1119.6 
699696.925,4312457.132,-1121.2 
699696.925,4312257.462,-1120.7 
699696.925,4312057.792,-1127 
699696.925,4311858.122,-1144.5 
699696.925,4311658.452,-1162.6 
699696.925,4311458.782,-1167.7 
699696.925,4311259.112,-1174.3 
699696.925,4311059.442,-1193 
699696.925,4310859.772,-1210.3 
699696.925,4310660.102,-1228.4 
699696.925,4310460.432,-1264.3 
699696.925,4310260.762,-1298.9 
699696.925,4310061.092,-1316.1 
699696.925,4309861.422,-1338.4 
699696.925,4309661.752,-1368.3 
699696.925,4309462.083,-1374.7 
699696.925,4309262.413,-1348.5 
699696.925,4309062.743,-1336.9 
699696.925,4308863.073,-1330.8 
699696.925,4308663.403,-1332.6 
699696.925,4308463.733,-1328.5 
699696.925,4308264.063,-1329.2 
699696.925,4308064.393,-1330.9 
699696.925,4307864.723,-1327.4 
699696.925,4307665.053,-1330.6 
699696.925,4307465.383,-1340.3 
699696.925,4307265.713,-1358.7 
699696.925,4307066.043,-1389.1 
699696.925,4306866.373,-1403.8 
699696.925,4306666.703,-1410.6 
699696.925,4306467.033,-1436.8 
699696.925,4306267.363,-1440.2 
699696.925,4306067.693,-1419.4 
699696.925,4305868.023,-1406.7 
699696.925,4305668.353,-1412.5 
699696.925,4305468.683,-1416.6 
699696.925,4305269.013,-1418.4 
699696.925,4305069.343,-1419.2 
699696.925,4304869.673,-1418.4 
699696.925,4304670.003,-1414.9 
699696.925,4304470.333,-1417.4 
699696.925,4304270.663,-1425.1 
699696.925,4304070.993,-1433.3 
699696.925,4303871.323,-1442.8 
699696.925,4303671.653,-1451.7 
699696.925,4303471.983,-1461.4 
699696.925,4303272.314,-1469.2 
699696.925,4303072.644,-1479.7 
699696.925,4302872.974,-1486.7 
699696.925,4302673.304,-1492.7 
699696.925,4302473.634,-1499.5 
699696.925,4302273.964,-1507.2 
699696.925,4302074.294,-1514.7 
699696.925,4301874.624,-1523.5 
699696.925,4301674.954,-1532.9 
699696.925,4301475.284,-1546.7 
699696.925,4301275.614,-1552.9 
699696.925,4301075.944,-1555.1 
699696.925,4300876.274,-1555.8 
699696.925,4300676.604,-1558.1 
699696.925,4300476.934,-1557.9 
699696.925,4300277.264,-1558.8 
699696.925,4300077.594,-1559.1 
699696.925,4299877.924,-1559.2 
699696.925,4299678.254,-1561.3 
699696.925,4299478.584,-1563.3 
699696.925,4299278.914,-1565.4 
699696.925,4299079.244,-1571.2 
699696.925,4298879.574,-1577.4 
699696.925,4298679.904,-1583.7 
699696.925,4298480.234,-1587.6 
699696.925,4298280.564,-1590.1 
699696.925,4298080.894,-1592.3 
699696.925,4297881.224,-1598.3 
699696.925,4297681.554,-1603 
699696.925,4297481.884,-1608.5 
699696.925,4297282.215,-1614.2 
699696.925,4297082.545,-1617.4 
699696.925,4296882.875,-1621.2 
699696.925,4296683.205,-1624.5 
699696.925,4296483.535,-1629.1 
699696.925,4296283.865,-1632.2 
699696.925,4296084.195,-1637.4 
699696.925,4295884.525,-1638.8 
699696.925,4295684.855,-1642.7 
699696.925,4295485.185,-1647.5 
699696.925,4295285.515,-1649.7 
699696.925,4295085.845,-1655.6 
699696.925,4294886.175,-1660.1 
699696.925,4294686.505,-1662.1 
699696.925,4294486.835,-1666.4 
699896.894,4354787.165,-1219.4 
699896.894,4354587.495,-1229.8 
699896.894,4354387.825,-1239.7 
699896.894,4354188.155,-1247.2 
699896.894,4353988.485,-1252.8 
699896.894,4353788.815,-1253.4 
699896.894,4353589.145,-1251 
699896.894,4353389.475,-1247.2 
699896.894,4353189.805,-1244.6 
699896.894,4352990.135,-1242.9 
699896.894,4352790.465,-1240.6 
699896.894,4352590.795,-1234.3 
699896.894,4352391.125,-1225.8 
699896.894,4352191.455,-1212 
699896.894,4351991.785,-1184.9 
699896.894,4351792.116,-1154.4 
699896.894,4351592.446,-1113.3 
699896.894,4351392.776,-1069.1 
699896.894,4351193.106,-1050.5 
699896.894,4350993.436,-1048.8 
699896.894,4350793.766,-1032.3 
699896.894,4350594.096,-1003.9 
699896.894,4350394.426,-967.9 
699896.894,4350194.756,-935.6 
699896.894,4349995.086,-918.7 
699896.894,4349795.416,-904.2 
699896.894,4349595.746,-890.9 
699896.894,4349396.076,-876 
699896.894,4349196.406,-855.2 
699896.894,4348996.736,-818.4 
699896.894,4348797.066,-787.6 
699896.894,4348597.396,-784.6 
699896.894,4348397.726,-788.9 
699896.894,4348198.056,-791.1 
699896.894,4347998.386,-789.2 
699896.894,4347798.716,-783.4 
699896.894,4347599.046,-777 
699896.894,4347399.376,-770.9 
699896.894,4347199.706,-764.7 
699896.894,4347000.036,-758.7 
699896.894,4346800.366,-751.6 
699896.894,4346600.696,-742.2 
699896.894,4346401.026,-733.1 
699896.894,4346201.356,-726.6 
699896.894,4346001.686,-722.7 
699896.894,4345802.017,-720.5 
699896.894,4345602.347,-719.6 
699896.894,4345402.677,-719.4 
699896.894,4345203.007,-719.2 
699896.894,4345003.337,-718.2 
699896.894,4344803.667,-717.2 
699896.894,4344603.997,-716.1 
699896.894,4344404.327,-712.9 
699896.894,4344204.657,-708 
699896.894,4344004.987,-702.4 
699896.894,4343805.317,-694.5 
699896.894,4343605.647,-685.2 
699896.894,4343405.977,-678.9 
699896.894,4343206.307,-675.5 
699896.894,4343006.637,-673.1 
699896.894,4342806.967,-670.6 
699896.894,4342607.297,-666.5 
699896.894,4342407.627,-662.5 
699896.894,4342207.957,-658.4 
699896.894,4342008.287,-646.6 
699896.894,4341808.617,-624.5 
699896.894,4341608.947,-600.5 
699896.894,4341409.277,-576 
699896.894,4341209.607,-561.4 
699896.894,4321242.611,-560.2 
699896.894,4321042.941,-569.4 
699896.894,4320843.271,-579 
699896.894,4320643.601,-588.3 
699896.894,4320443.931,-597.3 
699896.894,4320244.261,-607.5 
699896.894,4320044.591,-617.3 
699896.894,4319844.921,-627.1 
699896.894,4319645.251,-637.1 
699896.894,4319445.581,-646.6 
699896.894,4319245.911,-658.5 
699896.894,4319046.241,-671.5 
699896.894,4318846.571,-684.8 
699896.894,4318646.901,-699.4 
699896.894,4318447.231,-713.9 
699896.894,4318247.561,-732.7 
699896.894,4318047.891,-751.6 
699896.894,4317848.221,-771.4 
699896.894,4317648.551,-793.2 
699896.894,4317448.881,-812.4 
699896.894,4317249.211,-831.5 
699896.894,4317049.541,-850.6 
699896.894,4316849.871,-867.7 
699896.894,4316650.201,-882.1 
699896.894,4316450.531,-895.4 
699896.894,4316250.861,-910.4 
699896.894,4316051.191,-924 
699896.894,4315851.521,-938.2 
699896.894,4315651.851,-955.4 
699896.894,4315452.182,-972.2 
699896.894,4315252.512,-982.6 
699896.894,4315052.842,-991.6 
699896.894,4314853.172,-999.4 
699896.894,4314653.502,-1007.1 
699896.894,4314453.832,-1014.9 
699896.894,4314254.162,-1020 
699896.894,4314054.492,-1021.7 
699896.894,4313854.822,-1022.9 
699896.894,4313655.152,-1026.5 
699896.894,4313455.482,-1033.9 
699896.894,4313255.812,-1051.7 
699896.894,4313056.142,-1084.8 
699896.894,4312856.472,-1113 
699896.894,4312656.802,-1137 
699896.894,4312457.132,-1155.1 
699896.894,4312257.462,-1174.9 
699896.894,4312057.792,-1192.9 
699896.894,4311858.122,-1200.9 
699896.894,4311658.452,-1210.3 
699896.894,4311458.782,-1215.5 
699896.894,4311259.112,-1222.4 
699896.894,4311059.442,-1237.5 
699896.894,4310859.772,-1259 
699896.894,4310660.102,-1293.3 
699896.894,4310460.432,-1325.4 
699896.894,4310260.762,-1345.6 
699896.894,4310061.092,-1356.8 
699896.894,4309861.422,-1390.7 
699896.894,4309661.752,-1419.7 
699896.894,4309462.083,-1435.7 
699896.894,4309262.413,-1437.3 
699896.894,4309062.743,-1428.1 
699896.894,4308863.073,-1403.2 
699896.894,4308663.403,-1385.7 
699896.894,4308463.733,-1382 
699896.894,4308264.063,-1377.2 
699896.894,4308064.393,-1378.8 
699896.894,4307864.723,-1375 
699896.894,4307665.053,-1375.3 
699896.894,4307465.383,-1389.8 
699896.894,4307265.713,-1402.4 
699896.894,4307066.043,-1421.4 
699896.894,4306866.373,-1423.7 
699896.894,4306666.703,-1431.7 
699896.894,4306467.033,-1464 
699896.894,4306267.363,-1472.3 
699896.894,4306067.693,-1455.9 
699896.894,4305868.023,-1435.4 
699896.894,4305668.353,-1430.4 
699896.894,4305468.683,-1427.8 
699896.894,4305269.013,-1428.5 
699896.894,4305069.343,-1429.8 
699896.894,4304869.673,-1430.1 
699896.894,4304670.003,-1429.1 
699896.894,4304470.333,-1429.6 
699896.894,4304270.663,-1435.3 
699896.894,4304070.993,-1445.1 
699896.894,4303871.323,-1456.5 
699896.894,4303671.653,-1465.7 
699896.894,4303471.983,-1473.2 
699896.894,4303272.314,-1482.8 
699896.894,4303072.644,-1492.2 
699896.894,4302872.974,-1500 
699896.894,4302673.304,-1505.6 
699896.894,4302473.634,-1513.4 
699896.894,4302273.964,-1520 
699896.894,4302074.294,-1530.8 
699896.894,4301874.624,-1541.3 
699896.894,4301674.954,-1550.8 
699896.894,4301475.284,-1561.3 
699896.894,4301275.614,-1562.9 
699896.894,4301075.944,-1562.5 
699896.894,4300876.274,-1563.9 
699896.894,4300676.604,-1562 
699896.894,4300476.934,-1563.6 
699896.894,4300277.264,-1563.5 
699896.894,4300077.594,-1566.2 
699896.894,4299877.924,-1568.2 
699896.894,4299678.254,-1570.3 
699896.894,4299478.584,-1573.1 
699896.894,4299278.914,-1577.6 
699896.894,4299079.244,-1583.1 
699896.894,4298879.574,-1589.5 
699896.894,4298679.904,-1592.9 
699896.894,4298480.234,-1595.8 
699896.894,4298280.564,-1598.9 
699896.894,4298080.894,-1604.4 
699896.894,4297881.224,-1607.3 
699896.894,4297681.554,-1611.6 
699896.894,4297481.884,-1616.5 
699896.894,4297282.215,-1619.7 
699896.894,4297082.545,-1623.7 
699896.894,4296882.875,-1629.2 
699896.894,4296683.205,-1632.9 
699896.894,4296483.535,-1637.2 
699896.894,4296283.865,-1639.8 
699896.894,4296084.195,-1641.3 
699896.894,4295884.525,-1642.7 
699896.894,4295684.855,-1647.9 
699896.894,4295485.185,-1651.7 
699896.894,4295285.515,-1654.6 
699896.894,4295085.845,-1660 
699896.894,4294886.175,-1662.4 
699896.894,4294686.505,-1666.4 
699896.894,4294486.835,-1669.3 
700096.864,4354787.165,-1205.3 
700096.864,4354587.495,-1226.8 
700096.864,4354387.825,-1243.7 
700096.864,4354188.155,-1250.4 
700096.864,4353988.485,-1255.5 
700096.864,4353788.815,-1259.5 
700096.864,4353589.145,-1259.8 
700096.864,4353389.475,-1258.4 
700096.864,4353189.805,-1257.4 
700096.864,4352990.135,-1254.1 
700096.864,4352790.465,-1243.5 
700096.864,4352590.795,-1229.5 
700096.864,4352391.125,-1219.8 
700096.864,4352191.455,-1194.8 
700096.864,4351991.785,-1155.5 
700096.864,4351792.116,-1122.5 
700096.864,4351592.446,-1080.6 
700096.864,4351392.776,-1040.7 
700096.864,4351193.106,-1028.4 
700096.864,4350993.436,-1028.2 
700096.864,4350793.766,-1020.3 
700096.864,4350594.096,-1000.7 
700096.864,4350394.426,-970.3 
700096.864,4350194.756,-939 
700096.864,4349995.086,-917.9 
700096.864,4349795.416,-905.4 
700096.864,4349595.746,-894.6 
700096.864,4349396.076,-878.5 
700096.864,4349196.406,-853 
700096.864,4348996.736,-820 
700096.864,4348797.066,-798.7 
700096.864,4348597.396,-797.7 
700096.864,4348397.726,-800.9 
700096.864,4348198.056,-802.6 
700096.864,4347998.386,-801.5 
700096.864,4347798.716,-795.1 
700096.864,4347599.046,-786.8 
700096.864,4347399.376,-777.3 
700096.864,4347199.706,-767.9 
700096.864,4347000.036,-759.5 
700096.864,4346800.366,-749.4 
700096.864,4346600.696,-738.6 
700096.864,4346401.026,-729.1 
700096.864,4346201.356,-721.5 
700096.864,4346001.686,-717.3 
700096.864,4345802.017,-717.1 
700096.864,4345602.347,-718.6 
700096.864,4345402.677,-720.2 
700096.864,4345203.007,-721.3 
700096.864,4345003.337,-721.6 
700096.864,4344803.667,-719.9 
700096.864,4344603.997,-716.8 
700096.864,4344404.327,-713.1 
700096.864,4344204.657,-708.6 
700096.864,4344004.987,-703.8 
700096.864,4343805.317,-698.9 
700096.864,4343605.647,-692.3 
700096.864,4343405.977,-686 
700096.864,4343206.307,-682.3 
700096.864,4343006.637,-679.4 
700096.864,4342806.967,-677.1 
700096.864,4342607.297,-674.7 
700096.864,4342407.627,-671.5 
700096.864,4342207.957,-668.1 
700096.864,4342008.287,-661.5 
