687495.030,4339773.199,-134.5 
687495.030,4339724.008,-127.48 
687495.030,4339674.818,-117.86 
687495.030,4339625.628,-109.21 
687495.030,4339576.438,-103.27 
687495.030,4339527.247,-100.58 
687495.030,4339478.057,-99.84 
687495.030,4339428.867,-99.26 
687495.030,4339379.677,-97.57 
687495.030,4339330.487,-95.21 
687495.030,4339281.296,-95.62 
687495.030,4339232.106,-93.2 
687495.030,4339182.916,-90.69 
687495.030,4339133.726,-89.14 
687495.030,4339084.536,-88.75 
687495.030,4339035.345,-88.06 
687495.030,4338986.155,-86.1 
687495.030,4338936.965,-85.28 
687495.030,4338887.775,-85.49 
687495.030,4338838.584,-86.29 
687495.030,4338789.394,-86.03 
687495.030,4338740.204,-86.6 
687495.030,4338691.014,-88.77 
687495.030,4338641.824,-91.85 
687495.030,4338543.443,-96.2 
687495.030,4338445.063,-111.3 
687495.030,4308586.602,-105.4 
687495.030,4308537.412,-107.5 
687495.030,4308488.221,-111.39 
687495.030,4308439.031,-114.92 
687495.030,4308389.841,-118.77 
687495.030,4308340.651,-122.44 
687495.030,4308291.461,-126.16 
687495.030,4308242.270,-129.99 
687495.030,4308193.080,-133.61 
687495.030,4308143.890,-137.49 
687495.030,4308094.700,-141.47 
687495.030,4308045.509,-145.45 
687495.030,4307996.319,-149.98 
687495.030,4307947.129,-154.8 
687544.220,4342085.139,-156.52 
687544.220,4342035.948,-153.36 
687544.220,4341986.758,-157.24 
687544.220,4339969.959,-158.28 
687544.220,4339920.769,-152.9 
687544.220,4339871.579,-145.89 
687544.220,4339822.389,-139.69 
687544.220,4339773.199,-134.98 
687544.220,4339724.008,-129.57 
687544.220,4339674.818,-121.87 
687544.220,4339625.628,-113.68 
687544.220,4339576.438,-108.65 
687544.220,4339527.247,-106.63 
687544.220,4339478.057,-106.43 
687544.220,4339428.867,-105.7 
687544.220,4339379.677,-102.89 
687544.220,4339330.487,-100.55 
687544.220,4339281.296,-100.89 
687544.220,4339232.106,-97.5 
687544.220,4339182.916,-95.43 
687544.220,4339133.726,-93.69 
687544.220,4339084.536,-92.86 
687544.220,4339035.345,-91.65 
687544.220,4338986.155,-89.88 
687544.220,4338936.965,-88.63 
687544.220,4338887.775,-88.34 
687544.220,4338838.584,-88.8 
687544.220,4338789.394,-87.98 
687544.220,4338740.204,-87.44 
687544.220,4338691.014,-90.09 
687544.220,4338641.824,-92.45 
687544.220,4338543.443,-95.31 
687544.220,4338445.063,-109.97 
687544.220,4308586.602,-106.89 
687544.220,4308537.412,-111.26 
687544.220,4308488.221,-114.81 
687544.220,4308439.031,-119.08 
687544.220,4308389.841,-123.53 
687544.220,4308340.651,-127.86 
687544.220,4308291.461,-132.1 
687544.220,4308242.270,-136.15 
687544.220,4308193.080,-139.97 
687544.220,4308143.890,-143.88 
687544.220,4308094.700,-148.26 
687544.220,4308045.509,-151.92 
687544.220,4307996.319,-155.84 
687544.220,4307947.129,-156.74 
687593.410,4342085.139,-159.6 
687593.410,4342035.948,-157.95 
687593.410,4341986.758,-158.23 
687593.410,4339969.959,-156.91 
687593.410,4339920.769,-150.44 
687593.410,4339871.579,-143.59 
687593.410,4339822.389,-137.78 
687593.410,4339773.199,-132.96 
687593.410,4339724.008,-128.05 
687593.410,4339674.818,-121.59 
687593.410,4339625.628,-116.78 
687593.410,4339576.438,-114.87 
687593.410,4339527.247,-113.54 
687593.410,4339478.057,-113.21 
687593.410,4339428.867,-111.33 
687593.410,4339379.677,-109.29 
687593.410,4339330.487,-108.27 
687593.410,4339281.296,-106.53 
687593.410,4339232.106,-102.69 
687593.410,4339182.916,-101.15 
687593.410,4339133.726,-99.18 
687593.410,4339084.536,-97.63 
687593.410,4339035.345,-95.44 
687593.410,4338986.155,-94.08 
687593.410,4338936.965,-93.5 
687593.410,4338887.775,-92.98 
687593.410,4338838.584,-93.09 
687593.410,4338789.394,-92.35 
687593.410,4338740.204,-91.36 
687593.410,4338691.014,-92.54 
687593.410,4338641.824,-93.41 
687593.410,4338592.633,-94.64 
687593.410,4338543.443,-95.92 
687593.410,4338494.253,-104.6 
687593.410,4338445.063,-112.61 
687593.410,4338395.873,-121.98 
687593.410,4338346.682,-129.52 
687593.410,4338297.492,-136.45 
687593.410,4338248.302,-134.39 
687593.410,4338199.112,-130.08 
687593.410,4308635.792,-105.99 
687593.410,4308586.602,-109.74 
687593.410,4308537.412,-113.7 
687593.410,4308488.221,-118.29 
687593.410,4308439.031,-123.2 
687593.410,4308389.841,-128.47 
687593.410,4308340.651,-133.58 
687593.410,4308291.461,-138.41 
687593.410,4308242.270,-142.71 
687593.410,4308193.080,-146.72 
687593.410,4308143.890,-150.66 
687593.410,4308094.700,-154.6 
687593.410,4308045.509,-157.15 
687593.410,4307996.319,-157.66 
687642.600,4342035.948,-159.3 
687642.600,4340019.150,-157.98 
687642.600,4339969.959,-154.36 
687642.600,4339920.769,-147.47 
687642.600,4339871.579,-141.27 
687642.600,4339822.389,-136.18 
687642.600,4339773.199,-131.67 
687642.600,4339724.008,-126.62 
687642.600,4339674.818,-122.17 
687642.600,4339625.628,-121.27 
687642.600,4339576.438,-122.05 
687642.600,4339527.247,-121.19 
687642.600,4339478.057,-119.65 
687642.600,4339428.867,-118.89 
687642.600,4339379.677,-117.68 
687642.600,4339330.487,-115.95 
687642.600,4339281.296,-112.27 
687642.600,4339232.106,-108.85 
687642.600,4339182.916,-107.91 
687642.600,4339133.726,-106.21 
687642.600,4339084.536,-103.7 
687642.600,4339035.345,-102 
687642.600,4338986.155,-99.55 
687642.600,4338936.965,-99.64 
687642.600,4338887.775,-98.46 
687642.600,4338838.584,-98.44 
687642.600,4338789.394,-97.79 
687642.600,4338740.204,-98.31 
687642.600,4338691.014,-98.58 
687642.600,4338641.824,-97.82 
687642.600,4338592.633,-99.22 
687642.600,4338543.443,-100.41 
687642.600,4338494.253,-115.68 
687642.600,4338445.063,-119.6 
687642.600,4338395.873,-128.98 
687642.600,4338346.682,-138.03 
687642.600,4338297.492,-146.72 
687642.600,4338248.302,-141.05 
687642.600,4338199.112,-138.83 
687642.600,4338149.921,-147.11 
687642.600,4338100.731,-150.96 
687642.600,4308734.172,-101.24 
687642.600,4308684.982,-104.64 
687642.600,4308635.792,-108.23 
687642.600,4308586.602,-112.04 
687642.600,4308537.412,-116.56 
687642.600,4308488.221,-121.44 
687642.600,4308439.031,-127.03 
687642.600,4308389.841,-133.7 
687642.600,4308340.651,-139.9 
687642.600,4308291.461,-144.9 
687642.600,4308242.270,-149.45 
687642.600,4308193.080,-153.67 
687642.600,4308143.890,-156.65 
687642.600,4308094.700,-156.95 
687642.600,4308045.509,-158.95 
687691.790,4340068.340,-158.76 
687691.790,4340019.150,-155.39 
687691.790,4339969.959,-150.95 
687691.790,4339920.769,-145.49 
687691.790,4339871.579,-139.18 
687691.790,4339822.389,-134.2 
687691.790,4339773.199,-130.78 
687691.790,4339724.008,-127.5 
687691.790,4339674.818,-127.23 
687691.790,4339625.628,-128.73 
687691.790,4339576.438,-129.54 
687691.790,4339527.247,-127.94 
687691.790,4339478.057,-126.67 
687691.790,4339428.867,-128.08 
687691.790,4339379.677,-125.84 
687691.790,4339330.487,-125.29 
687691.790,4339281.296,-122.8 
687691.790,4339232.106,-121.07 
687691.790,4339182.916,-121.37 
687691.790,4339133.726,-121.84 
687691.790,4339084.536,-117.72 
687691.790,4339035.345,-116.46 
687691.790,4338986.155,-109.27 
687691.790,4338936.965,-110.32 
687691.790,4338887.775,-112.78 
687691.790,4338838.584,-108.88 
687691.790,4338789.394,-105.9 
687691.790,4338740.204,-106.14 
687691.790,4338691.014,-105.42 
687691.790,4338641.824,-106.35 
687691.790,4338592.633,-108.23 
687691.790,4338543.443,-112.92 
687691.790,4338494.253,-124.64 
687691.790,4338445.063,-132.62 
687691.790,4338395.873,-136.21 
687691.790,4338346.682,-147.52 
687691.790,4338297.492,-155.06 
687691.790,4338248.302,-151.55 
687691.790,4338199.112,-152.36 
687691.790,4338149.921,-154.24 
687691.790,4338100.731,-157.13 
687691.790,4338051.541,-156.04 
687691.790,4338002.351,-151.92 
687691.790,4337953.161,-149.8 
687691.790,4337903.970,-150.91 
687691.790,4308783.363,-100.24 
687691.790,4308734.172,-103.47 
687691.790,4308684.982,-106.6 
687691.790,4308635.792,-110.28 
687691.790,4308586.602,-113.91 
687691.790,4308537.412,-118.32 
687691.790,4308488.221,-123.58 
687691.790,4308439.031,-129.39 
687691.790,4308389.841,-137.36 
687691.790,4308340.651,-144.99 
687691.790,4308291.461,-151.41 
687691.790,4308242.270,-155.78 
687691.790,4308193.080,-156.38 
687691.790,4308143.890,-158.86 
687740.981,4340068.340,-157.47 
687740.981,4340019.150,-151.9 
687740.981,4339969.959,-146.52 
687740.981,4339920.769,-141.87 
687740.981,4339871.579,-136.36 
687740.981,4339822.389,-132.79 
687740.981,4339773.199,-132.55 
687740.981,4339724.008,-133.36 
687740.981,4339674.818,-135.3 
687740.981,4339625.628,-136.96 
687740.981,4339576.438,-136.65 
687740.981,4339527.247,-134.36 
687740.981,4339478.057,-135.31 
687740.981,4339428.867,-134.54 
687740.981,4339379.677,-134.46 
687740.981,4339330.487,-141.12 
687740.981,4339281.296,-141.24 
687740.981,4339232.106,-140.81 
687740.981,4339182.916,-142.01 
687740.981,4339133.726,-144.88 
687740.981,4339084.536,-139.43 
687740.981,4339035.345,-134.59 
687740.981,4338986.155,-123.51 
687740.981,4338936.965,-127.83 
687740.981,4338887.775,-134.06 
687740.981,4338838.584,-126.69 
687740.981,4338789.394,-119.04 
687740.981,4338740.204,-115.79 
687740.981,4338691.014,-115.88 
687740.981,4338641.824,-123.86 
687740.981,4338592.633,-125.95 
687740.981,4338543.443,-132.7 
687740.981,4338494.253,-138.26 
687740.981,4338445.063,-146.63 
687740.981,4338395.873,-149.63 
687740.981,4338346.682,-154.98 
687740.981,4338297.492,-157.27 
687740.981,4338248.302,-158.25 
687740.981,4338199.112,-157.51 
687740.981,4338149.921,-158.39 
687740.981,4338100.731,-158.3 
687740.981,4338051.541,-159.27 
687740.981,4338002.351,-157.5 
687740.981,4337953.161,-156.19 
687740.981,4337903.970,-157.94 
687740.981,4337854.780,-158.59 
687740.981,4337805.590,-153.15 
687740.981,4308832.553,-98.88 
687740.981,4308783.363,-102.14 
687740.981,4308734.172,-105.24 
687740.981,4308684.982,-108.09 
687740.981,4308635.792,-111.66 
687740.981,4308586.602,-115.36 
687740.981,4308537.412,-119.41 
687740.981,4308488.221,-124.36 
687740.981,4308439.031,-130.08 
687740.981,4308389.841,-137.26 
687740.981,4308340.651,-145.46 
687740.981,4308291.461,-154.47 
687740.981,4308242.270,-158.88 
687790.171,4340068.340,-154.8 
687790.171,4340019.150,-147.67 
687790.171,4339969.959,-142.52 
687790.171,4339920.769,-137.84 
687790.171,4339871.579,-135.06 
687790.171,4339822.389,-135.46 
687790.171,4339773.199,-139.03 
687790.171,4339724.008,-141.9 
687790.171,4339674.818,-143.59 
687790.171,4339625.628,-145.3 
687790.171,4339576.438,-143.78 
687790.171,4339527.247,-143.45 
687790.171,4339478.057,-143.2 
687790.171,4339428.867,-140.7 
687790.171,4339379.677,-146.13 
687790.171,4339330.487,-152.7 
687790.171,4339281.296,-154.36 
687790.171,4339232.106,-153.46 
687790.171,4339182.916,-155.06 
687790.171,4339133.726,-157.44 
687790.171,4339084.536,-154.99 
687790.171,4339035.345,-148.97 
687790.171,4338986.155,-137.22 
687790.171,4338936.965,-144.78 
687790.171,4338887.775,-150.15 
687790.171,4338838.584,-146.01 
687790.171,4338789.394,-133.4 
687790.171,4338740.204,-127.88 
687790.171,4338691.014,-129.63 
687790.171,4338641.824,-145.36 
687790.171,4338592.633,-147.94 
687790.171,4338543.443,-150.64 
687790.171,4338494.253,-154.27 
687790.171,4338445.063,-153.79 
687790.171,4338395.873,-156.52 
687790.171,4338346.682,-158.92 
687790.171,4338100.731,-158.8 
687790.171,4338051.541,-159.08 
687790.171,4338002.351,-159.24 
687790.171,4337953.161,-159.29 
687790.171,4337903.970,-159.25 
687790.171,4337854.780,-158.8 
687790.171,4337805.590,-155.06 
687790.171,4337756.400,-151.79 
687790.171,4337707.210,-154.85 
687790.171,4337658.019,-157.43 
687790.171,4308881.743,-97.87 
687790.171,4308832.553,-100.9 
687790.171,4308783.363,-103.94 
687790.171,4308734.172,-106.65 
687790.171,4308684.982,-109.51 
687790.171,4308635.792,-112.69 
687790.171,4308586.602,-116.25 
687790.171,4308537.412,-120.38 
687790.171,4308488.221,-124.79 
687790.171,4308439.031,-130.1 
687790.171,4308389.841,-136.03 
687790.171,4308340.651,-143.36 
687790.171,4308291.461,-151.85 
687790.171,4308242.270,-158.23 
687839.361,4340117.530,-158.11 
687839.361,4340068.340,-152.24 
687839.361,4340019.150,-144.71 
687839.361,4339969.959,-140.66 
687839.361,4339920.769,-138.24 
687839.361,4339871.579,-138.98 
687839.361,4339822.389,-142.44 
687839.361,4339773.199,-146.7 
687839.361,4339724.008,-149.73 
687839.361,4339674.818,-151.6 
687839.361,4339625.628,-153.03 
687839.361,4339576.438,-151.16 
687839.361,4339527.247,-153.41 
687839.361,4339478.057,-149.9 
687839.361,4339428.867,-150.18 
687839.361,4339379.677,-155.9 
687839.361,4339084.536,-159.09 
687839.361,4339035.345,-158.07 
687839.361,4338986.155,-150.26 
687839.361,4338936.965,-154.13 
687839.361,4338887.775,-156.37 
687839.361,4338838.584,-157.15 
687839.361,4338789.394,-144.82 
687839.361,4338740.204,-140.25 
687839.361,4338691.014,-144.5 
687839.361,4338641.824,-155.49 
687839.361,4338592.633,-158.19 
687839.361,4338543.443,-159.15 
687839.361,4338494.253,-159.55 
687839.361,4338002.351,-159.1 
687839.361,4337953.161,-159.1 
687839.361,4337903.970,-159.1 
687839.361,4337854.780,-159.32 
687839.361,4337805.590,-158.08 
687839.361,4337756.400,-156.17 
687839.361,4337707.210,-156.32 
687839.361,4337658.019,-158.64 
687839.361,4337559.639,-156.82 
687839.361,4337510.449,-155.02 
687839.361,4337461.258,-152.2 
687839.361,4308930.933,-98.07 
687839.361,4308881.743,-100.7 
687839.361,4308832.553,-103.01 
687839.361,4308783.363,-105.51 
687839.361,4308734.172,-108.09 
687839.361,4308684.982,-110.94 
687839.361,4308635.792,-113.97 
687839.361,4308586.602,-117.33 
687839.361,4308537.412,-121.27 
687839.361,4308488.221,-125.68 
687839.361,4308439.031,-130.65 
687839.361,4308389.841,-136.29 
687839.361,4308340.651,-142.59 
687839.361,4308291.461,-149.43 
687839.361,4308242.270,-157.38 
687888.551,4340117.530,-158.27 
687888.551,4340068.340,-152.13 
687888.551,4340019.150,-144.69 
687888.551,4339969.959,-143.23 
687888.551,4339920.769,-144.75 
687888.551,4339871.579,-147.07 
687888.551,4339822.389,-150.5 
687888.551,4339773.199,-154.14 
687888.551,4339724.008,-156.58 
687888.551,4339674.818,-157.72 
687888.551,4339625.628,-157.87 
687888.551,4339576.438,-155.81 
687888.551,4339527.247,-158.67 
687888.551,4339478.057,-155.95 
687888.551,4339428.867,-159.2 
687888.551,4338986.155,-159.1 
687888.551,4338936.965,-158.5 
687888.551,4338838.584,-158.65 
687888.551,4338789.394,-154.18 
687888.551,4338740.204,-149.13 
687888.551,4338691.014,-156.46 
687888.551,4338641.824,-156.88 
687888.551,4337805.590,-158.9 
687888.551,4337756.400,-159.3 
687888.551,4337559.639,-158.42 
687888.551,4337510.449,-155.05 
687888.551,4337461.258,-149.22 
687888.551,4337412.068,-146.42 
687888.551,4308980.124,-97.16 
687888.551,4308930.933,-100.18 
687888.551,4308881.743,-102.6 
687888.551,4308832.553,-104.7 
687888.551,4308783.363,-107.15 
687888.551,4308734.172,-109.69 
687888.551,4308684.982,-112.54 
687888.551,4308635.792,-115.66 
687888.551,4308586.602,-118.94 
687888.551,4308537.412,-122.75 
687888.551,4308488.221,-127.12 
687888.551,4308439.031,-132.09 
687888.551,4308389.841,-137.56 
687888.551,4308340.651,-143.48 
687888.551,4308291.461,-150.05 
687888.551,4308242.270,-157.14 
687937.742,4340068.340,-153.12 
687937.742,4340019.150,-149.23 
687937.742,4339969.959,-150.29 
687937.742,4339920.769,-152.65 
687937.742,4339871.579,-155.02 
687937.742,4339822.389,-156.64 
687937.742,4339773.199,-158.52 
687937.742,4339724.008,-159.27 
687937.742,4339674.818,-159.7 
687937.742,4339478.057,-159.6 
687937.742,4338838.584,-159.7 
687937.742,4338789.394,-159.76 
687937.742,4338740.204,-157.14 
687937.742,4338691.014,-157.13 
687937.742,4337559.639,-159.2 
687937.742,4337510.449,-156.07 
687937.742,4337461.258,-152.99 
687937.742,4337412.068,-151.93 
687937.742,4337362.878,-149.25 
687937.742,4337313.688,-148.38 
687937.742,4309029.314,-97.52 
687937.742,4308980.124,-99.75 
687937.742,4308930.933,-102.19 
687937.742,4308881.743,-104.34 
687937.742,4308832.553,-106.73 
687937.742,4308783.363,-109.1 
687937.742,4308734.172,-111.73 
687937.742,4308684.982,-114.58 
687937.742,4308635.792,-117.74 
687937.742,4308586.602,-121.11 
687937.742,4308537.412,-124.87 
687937.742,4308488.221,-129.33 
687937.742,4308439.031,-134.22 
687937.742,4308389.841,-139.55 
687937.742,4308340.651,-145.43 
687937.742,4308291.461,-151.71 
687937.742,4308242.270,-157.99 
687986.932,4340166.720,-158.99 
687986.932,4340117.530,-157.36 
687986.932,4340068.340,-155.39 
687986.932,4340019.150,-154.92 
687986.932,4339969.959,-155.8 
687986.932,4339920.769,-157.74 
687986.932,4339871.579,-159.22 
687986.932,4339822.389,-159.3 
687986.932,4337559.639,-159.4 
687986.932,4337510.449,-159.53 
687986.932,4337461.258,-159.46 
687986.932,4337412.068,-155.63 
687986.932,4337362.878,-148.64 
687986.932,4337313.688,-143.9 
687986.932,4309078.504,-96.69 
687986.932,4309029.314,-99.42 
687986.932,4308980.124,-101.57 
687986.932,4308930.933,-104.17 
687986.932,4308881.743,-106.5 
687986.932,4308832.553,-108.85 
687986.932,4308783.363,-111.5 
687986.932,4308734.172,-114.13 
687986.932,4308684.982,-117.02 
687986.932,4308635.792,-120.33 
687986.932,4308586.602,-123.84 
687986.932,4308537.412,-127.6 
687986.932,4308488.221,-132.18 
687986.932,4308439.031,-136.86 
687986.932,4308389.841,-141.98 
687986.932,4308340.651,-147.83 
687986.932,4308291.461,-153.94 
687986.932,4308242.270,-158.73 
688036.122,4340166.720,-159.48 
688036.122,4340117.530,-159.47 
688036.122,4340068.340,-159.68 
688036.122,4340019.150,-159.6 
688036.122,4337362.878,-151.76 
688036.122,4337313.688,-142.89 
688036.122,4337215.307,-109.49 
688036.122,4337166.117,-107.55 
688036.122,4337116.927,-107.16 
688036.122,4309127.694,-95.72 
688036.122,4309078.504,-99.02 
688036.122,4309029.314,-101.72 
688036.122,4308980.124,-103.6 
688036.122,4308930.933,-106.31 
688036.122,4308881.743,-108.8 
688036.122,4308832.553,-111.31 
688036.122,4308783.363,-114.2 
688036.122,4308734.172,-117.02 
688036.122,4308684.982,-120.07 
688036.122,4308635.792,-123.38 
688036.122,4308586.602,-127.07 
688036.122,4308537.412,-131.07 
688036.122,4308488.221,-135.28 
688036.122,4308439.031,-139.88 
688036.122,4308389.841,-145.11 
688036.122,4308340.651,-150.74 
688036.122,4308291.461,-156.57 
688036.122,4308242.270,-158.39 
688085.312,4337412.068,-157.65 
688085.312,4337362.878,-151.48 
688085.312,4337313.688,-135.23 
688085.312,4337264.498,-117.34 
688085.312,4337215.307,-111.56 
688085.312,4337166.117,-107.11 
688085.312,4337116.927,-104.84 
688085.312,4337067.737,-103.76 
688085.312,4309176.884,-96.7 
688085.312,4309127.694,-99.28 
688085.312,4309078.504,-101.19 
688085.312,4309029.314,-103.83 
688085.312,4308980.124,-106.38 
688085.312,4308930.933,-108.82 
688085.312,4308881.743,-111.47 
688085.312,4308832.553,-114.22 
688085.312,4308783.363,-117.14 
688085.312,4308734.172,-120.16 
688085.312,4308684.982,-123.47 
688085.312,4308635.792,-127 
688085.312,4308586.602,-130.86 
688085.312,4308537.412,-134.71 
688085.312,4308488.221,-138.95 
688085.312,4308439.031,-143.69 
688085.312,4308389.841,-148.94 
688085.312,4308340.651,-154.31 
688085.312,4308291.461,-158.84 
688134.502,4337412.068,-156.73 
688134.502,4337362.878,-149.94 
688134.502,4337313.688,-135.89 
688134.502,4337264.498,-119.59 
688134.502,4337215.307,-113.87 
688134.502,4337166.117,-109.79 
688134.502,4337116.927,-106.98 
688134.502,4337067.737,-106.31 
688134.502,4337018.546,-106.29 
688134.502,4336969.356,-105.77 
688134.502,4309226.075,-96.31 
688134.502,4309176.884,-99.3 
688134.502,4309127.694,-101.36 
688134.502,4309078.504,-103.42 
688134.502,4309029.314,-106.16 
688134.502,4308980.124,-108.68 
688134.502,4308930.933,-111.43 
688134.502,4308881.743,-114.41 
688134.502,4308832.553,-117.55 
688134.502,4308783.363,-120.55 
688134.502,4308734.172,-123.82 
688134.502,4308684.982,-127.41 
688134.502,4308635.792,-131.12 
688134.502,4308586.602,-134.91 
688134.502,4308537.412,-138.72 
688134.502,4308488.221,-143.1 
688134.502,4308439.031,-148.07 
688134.502,4308389.841,-153.03 
688134.502,4308340.651,-157.77 
688134.502,4308291.461,-159.02 
688183.693,4337412.068,-157.33 
688183.693,4337362.878,-147.29 
688183.693,4337313.688,-131.99 
688183.693,4337264.498,-120.71 
688183.693,4337215.307,-115.05 
688183.693,4337166.117,-112 
688183.693,4337116.927,-110.2 
688183.693,4337067.737,-109.04 
688183.693,4337018.546,-107.96 
688183.693,4336969.356,-106.87 
688183.693,4336920.166,-106.17 
688183.693,4336870.976,-106.18 
688183.693,4336821.786,-105.71 
688183.693,4336772.595,-104.94 
688183.693,4336723.405,-104.82 
688183.693,4336674.215,-105.44 
688183.693,4309275.265,-96.53 
688183.693,4309226.075,-98.83 
688183.693,4309176.884,-101.22 
688183.693,4309127.694,-103.64 
688183.693,4309078.504,-105.93 
688183.693,4309029.314,-108.56 
688183.693,4308980.124,-111.34 
688183.693,4308930.933,-114.25 
688183.693,4308881.743,-117.51 
688183.693,4308832.553,-120.71 
688183.693,4308783.363,-124.27 
688183.693,4308734.172,-127.93 
688183.693,4308684.982,-131.86 
688183.693,4308635.792,-135.55 
688183.693,4308586.602,-139.11 
688183.693,4308537.412,-143.34 
688183.693,4308488.221,-147.9 
688183.693,4308439.031,-152.61 
688183.693,4308389.841,-157 
688183.693,4308340.651,-158.73 
688232.883,4337412.068,-155.52 
688232.883,4337362.878,-141.33 
688232.883,4337313.688,-125.44 
688232.883,4337264.498,-119.89 
688232.883,4337215.307,-116.19 
688232.883,4337166.117,-114.29 
688232.883,4337116.927,-112.8 
688232.883,4337067.737,-111.44 
688232.883,4337018.546,-110.31 
688232.883,4336969.356,-109.36 
688232.883,4336920.166,-108.74 
688232.883,4336870.976,-108.65 
688232.883,4336821.786,-107.91 
688232.883,4336772.595,-107.39 
688232.883,4336723.405,-107.16 
688232.883,4336674.215,-107.72 
688232.883,4336625.025,-105.76 
688232.883,4336575.835,-105.04 
688232.883,4336477.454,-107.32 
688232.883,4309324.455,-96.33 
688232.883,4309275.265,-98.55 
688232.883,4309226.075,-100.95 
688232.883,4309176.884,-103.25 
688232.883,4309127.694,-105.84 
688232.883,4309078.504,-108.41 
688232.883,4309029.314,-111.19 
688232.883,4308980.124,-113.98 
688232.883,4308930.933,-117.33 
688232.883,4308881.743,-120.73 
688232.883,4308832.553,-124.27 
688232.883,4308783.363,-128.47 
688232.883,4308734.172,-132.45 
688232.883,4308684.982,-136.36 
688232.883,4308635.792,-140.32 
688232.883,4308586.602,-144.31 
688232.883,4308537.412,-148.68 
688232.883,4308488.221,-153.06 
688232.883,4308439.031,-157.14 
688232.883,4308389.841,-158.92 
688282.073,4337412.068,-150.84 
688282.073,4337362.878,-137.42 
688282.073,4337313.688,-125.03 
688282.073,4337264.498,-121.17 
688282.073,4337215.307,-118.69 
688282.073,4337166.117,-116.97 
688282.073,4337116.927,-115.25 
688282.073,4337067.737,-113.68 
688282.073,4337018.546,-112.63 
688282.073,4336969.356,-111.97 
688282.073,4336920.166,-111.81 
688282.073,4336870.976,-111.38 
688282.073,4336821.786,-111.19 
688282.073,4336772.595,-110.42 
688282.073,4336723.405,-109.74 
688282.073,4336674.215,-109.32 
688282.073,4336625.025,-109.03 
688282.073,4336575.835,-107.1 
688282.073,4336526.644,-108.13 
688282.073,4336477.454,-106.69 
688282.073,4336428.264,-107.25 
688282.073,4336379.074,-107.16 
688282.073,4336329.883,-107.09 
688282.073,4336280.693,-106.13 
688282.073,4336231.503,-105.86 
688282.073,4336182.313,-106.48 
688282.073,4309373.645,-96.07 
688282.073,4309324.455,-98.62 
688282.073,4309275.265,-100.5 
688282.073,4309226.075,-103.08 
688282.073,4309176.884,-105.58 
688282.073,4309127.694,-108.16 
688282.073,4309078.504,-110.91 
688282.073,4309029.314,-113.87 
688282.073,4308980.124,-117.07 
688282.073,4308930.933,-120.32 
688282.073,4308881.743,-124 
688282.073,4308832.553,-128.28 
688282.073,4308783.363,-132.66 
688282.073,4308734.172,-136.96 
688282.073,4308684.982,-141.03 
688282.073,4308635.792,-145.41 
688282.073,4308586.602,-149.88 
688282.073,4308537.412,-154.33 
688282.073,4308488.221,-157.83 
688282.073,4308439.031,-159.08 
688331.263,4337461.258,-156.84 
688331.263,4337412.068,-149.13 
688331.263,4337362.878,-136.88 
688331.263,4337313.688,-127.21 
688331.263,4337264.498,-124.04 
688331.263,4337215.307,-121.76 
688331.263,4337166.117,-119.64 
688331.263,4337116.927,-117.49 
688331.263,4337067.737,-116.03 
688331.263,4337018.546,-115.1 
688331.263,4336969.356,-114.78 
688331.263,4336920.166,-114.82 
688331.263,4336870.976,-114.31 
688331.263,4336821.786,-114.08 
688331.263,4336772.595,-113.58 
688331.263,4336723.405,-113.13 
688331.263,4336674.215,-112.08 
688331.263,4336625.025,-111.07 
688331.263,4336575.835,-110.77 
688331.263,4336526.644,-111.31 
688331.263,4336477.454,-109.01 
688331.263,4336428.264,-109.56 
688331.263,4336379.074,-111.25 
688331.263,4336329.883,-110.38 
688331.263,4336280.693,-108.82 
688331.263,4336231.503,-107.57 
688331.263,4336182.313,-108.01 
688331.263,4336133.123,-108.67 
688331.263,4336083.932,-109.13 
688331.263,4335985.552,-110.87 
688331.263,4309472.026,-94.79 
688331.263,4309422.835,-96.47 
688331.263,4309373.645,-98.48 
688331.263,4309324.455,-100.68 
688331.263,4309275.265,-102.89 
688331.263,4309226.075,-105.37 
688331.263,4309176.884,-108.04 
688331.263,4309127.694,-110.82 
688331.263,4309078.504,-113.63 
688331.263,4309029.314,-116.74 
688331.263,4308980.124,-119.95 
688331.263,4308930.933,-123.82 
688331.263,4308881.743,-127.75 
688331.263,4308832.553,-132.24 
688331.263,4308783.363,-136.51 
688331.263,4308734.172,-141.42 
688331.263,4308684.982,-146.28 
688331.263,4308635.792,-150.9 
688331.263,4308586.602,-155.43 
688331.263,4308537.412,-157.72 
688331.263,4308488.221,-159.52 
688380.453,4337461.258,-155.81 
688380.453,4337412.068,-143.79 
688380.453,4337362.878,-133.57 
688380.453,4337313.688,-130.29 
688380.453,4337264.498,-127.09 
688380.453,4337215.307,-124.25 
688380.453,4337166.117,-121.84 
688380.453,4337116.927,-119.9 
688380.453,4337067.737,-118.66 
688380.453,4337018.546,-117.79 
688380.453,4336969.356,-117.47 
688380.453,4336920.166,-117.2 
688380.453,4336870.976,-116.84 
688380.453,4336821.786,-116.71 
688380.453,4336772.595,-116.15 
688380.453,4336723.405,-116.04 
688380.453,4336674.215,-115.04 
688380.453,4336625.025,-114.42 
688380.453,4336575.835,-115.54 
688380.453,4336526.644,-114.2 
688380.453,4336477.454,-112.55 
688380.453,4336428.264,-113.66 
688380.453,4336379.074,-118.21 
688380.453,4336329.883,-114.83 
688380.453,4336280.693,-112.91 
688380.453,4336231.503,-110.94 
688380.453,4336182.313,-111.81 
688380.453,4336133.123,-111.86 
688380.453,4336083.932,-110.05 
688380.453,4336034.742,-112.43 
688380.453,4335985.552,-112.43 
688380.453,4335936.362,-112.67 
688380.453,4335887.172,-111.54 
688380.453,4335739.601,-112.59 
688380.453,4309521.216,-93.75 
688380.453,4309472.026,-96.83 
688380.453,4309422.835,-98.71 
688380.453,4309373.645,-100.86 
688380.453,4309324.455,-103.07 
688380.453,4309275.265,-105.52 
688380.453,4309226.075,-108.1 
688380.453,4309176.884,-110.97 
688380.453,4309127.694,-113.69 
688380.453,4309078.504,-116.79 
688380.453,4309029.314,-119.9 
688380.453,4308980.124,-123.45 
688380.453,4308930.933,-127.59 
688380.453,4308881.743,-131.54 
688380.453,4308832.553,-136.18 
688380.453,4308783.363,-140.71 
688380.453,4308734.172,-145.88 
688380.453,4308684.982,-150.96 
688380.453,4308635.792,-155.86 
688380.453,4308586.602,-158.32 
688429.644,4337461.258,-157.23 
688429.644,4337362.878,-137.96 
688429.644,4337313.688,-133.76 
688429.644,4337264.498,-129.77 
688429.644,4337215.307,-126.79 
688429.644,4337166.117,-124.4 
688429.644,4337116.927,-122.58 
688429.644,4337067.737,-121.21 
688429.644,4337018.546,-120.35 
688429.644,4336969.356,-120.04 
688429.644,4336920.166,-119.84 
688429.644,4336870.976,-119.51 
688429.644,4336821.786,-119.28 
688429.644,4336772.595,-118.95 
688429.644,4336723.405,-118.59 
688429.644,4336674.215,-117.39 
688429.644,4336625.025,-117.12 
688429.644,4336575.835,-119.45 
688429.644,4336526.644,-116.34 
688429.644,4336477.454,-115.29 
688429.644,4336428.264,-116.73 
688429.644,4336379.074,-122.33 
688429.644,4336329.883,-117.35 
688429.644,4336280.693,-115.58 
688429.644,4336231.503,-114.2 
688429.644,4336182.313,-114.32 
688429.644,4336133.123,-113.64 
688429.644,4336083.932,-113.7 
688429.644,4336034.742,-117.46 
688429.644,4335985.552,-116.11 
688429.644,4335936.362,-114.81 
688429.644,4335887.172,-112.24 
688429.644,4335837.981,-111.6 
688429.644,4335788.791,-113.88 
688429.644,4335739.601,-112.96 
688429.644,4335690.411,-114.95 
688429.644,4309570.406,-94.89 
688429.644,4309521.216,-96.18 
688429.644,4309472.026,-98.75 
688429.644,4309422.835,-100.94 
688429.644,4309373.645,-103.19 
688429.644,4309324.455,-105.71 
688429.644,4309275.265,-108.23 
688429.644,4309226.075,-111.21 
688429.644,4309176.884,-114.08 
688429.644,4309127.694,-117.15 
688429.644,4309078.504,-120.26 
688429.644,4309029.314,-123.69 
688429.644,4308980.124,-127.33 
688429.644,4308930.933,-130.98 
688429.644,4308881.743,-135.45 
688429.644,4308832.553,-139.94 
688429.644,4308783.363,-145.04 
688429.644,4308734.172,-150.1 
688429.644,4308684.982,-155.43 
688429.644,4308635.792,-158.51 
688478.834,4337461.258,-156.1 
688478.834,4337412.068,-149.57 
688478.834,4337362.878,-141.3 
688478.834,4337313.688,-136.66 
688478.834,4337264.498,-132.71 
688478.834,4337215.307,-129.4 
688478.834,4337166.117,-126.94 
688478.834,4337116.927,-125.26 
688478.834,4337067.737,-123.92 
688478.834,4337018.546,-123.27 
688478.834,4336969.356,-122.8 
688478.834,4336920.166,-122.25 
688478.834,4336870.976,-122.02 
688478.834,4336821.786,-121.96 
688478.834,4336772.595,-121.8 
688478.834,4336723.405,-120.96 
688478.834,4336674.215,-119.86 
688478.834,4336625.025,-119.93 
688478.834,4336575.835,-122.44 
688478.834,4336526.644,-118.41 
688478.834,4336477.454,-117.96 
688478.834,4336428.264,-120.02 
688478.834,4336379.074,-125.85 
688478.834,4336329.883,-119.81 
688478.834,4336280.693,-117.16 
688478.834,4336231.503,-116.37 
688478.834,4336182.313,-117.47 
688478.834,4336133.123,-115.97 
688478.834,4336083.932,-116.77 
688478.834,4336034.742,-119.37 
688478.834,4335985.552,-122 
688478.834,4335936.362,-116.46 
688478.834,4335887.172,-114.11 
688478.834,4335837.981,-113.52 
688478.834,4335788.791,-114.15 
688478.834,4335739.601,-114.74 
688478.834,4335690.411,-116.95 
688478.834,4335641.220,-113.94 
688478.834,4335592.030,-111.89 
688478.834,4335542.840,-112.72 
688478.834,4335493.650,-115.38 
688478.834,4335444.460,-114.97 
688478.834,4335395.269,-115.88 
688478.834,4335346.079,-116.92 
688478.834,4335296.889,-116.67 
688478.834,4309668.787,-93.63 
688478.834,4309619.596,-94.88 
688478.834,4309570.406,-97.05 
688478.834,4309521.216,-98.83 
688478.834,4309472.026,-101.08 
688478.834,4309422.835,-103.23 
688478.834,4309373.645,-105.93 
688478.834,4309324.455,-108.77 
688478.834,4309275.265,-111.51 
688478.834,4309226.075,-114.47 
688478.834,4309176.884,-117.65 
688478.834,4309127.694,-120.89 
688478.834,4309078.504,-124.41 
688478.834,4309029.314,-127.72 
688478.834,4308980.124,-131.3 
688478.834,4308930.933,-135.1 
688478.834,4308881.743,-139.49 
688478.834,4308832.553,-144.39 
688478.834,4308783.363,-149.09 
688478.834,4308734.172,-154.24 
688478.834,4308684.982,-158.97 
688528.024,4337461.258,-158.06 
688528.024,4337412.068,-152.19 
688528.024,4337362.878,-144.89 
688528.024,4337313.688,-139.72 
688528.024,4337264.498,-135.38 
688528.024,4337215.307,-132.07 
688528.024,4337166.117,-129.6 
688528.024,4337116.927,-127.87 
688528.024,4337067.737,-126.65 
688528.024,4337018.546,-126.05 
688528.024,4336969.356,-125.54 
688528.024,4336920.166,-124.9 
688528.024,4336870.976,-125.05 
688528.024,4336821.786,-125.03 
688528.024,4336772.595,-124.69 
688528.024,4336723.405,-123.35 
688528.024,4336674.215,-122.69 
688528.024,4336625.025,-123.19 
688528.024,4336575.835,-124.44 
688528.024,4336526.644,-120.9 
688528.024,4336477.454,-120.69 
688528.024,4336428.264,-122.85 
688528.024,4336379.074,-127.86 
688528.024,4336329.883,-121.54 
688528.024,4336280.693,-118.82 
688528.024,4336231.503,-118.99 
688528.024,4336182.313,-120.04 
688528.024,4336133.123,-118.49 
688528.024,4336083.932,-119.59 
688528.024,4336034.742,-121.28 
688528.024,4335985.552,-124.97 
688528.024,4335936.362,-118.76 
688528.024,4335887.172,-116.83 
688528.024,4335837.981,-115.85 
688528.024,4335788.791,-117.77 
688528.024,4335739.601,-117.6 
688528.024,4335690.411,-117.43 
688528.024,4335641.220,-116.36 
688528.024,4335592.030,-115.14 
688528.024,4335542.840,-115.42 
688528.024,4335493.650,-119.49 
688528.024,4335444.460,-115.63 
688528.024,4335395.269,-116.13 
688528.024,4335346.079,-116.29 
688528.024,4335296.889,-119.83 
688528.024,4335247.699,-122.21 
688528.024,4309717.977,-93.41 
688528.024,4309668.787,-95.06 
688528.024,4309619.596,-96.91 
688528.024,4309570.406,-99.43 
688528.024,4309521.216,-101.68 
688528.024,4309472.026,-103.71 
688528.024,4309422.835,-106.11 
688528.024,4309373.645,-109.01 
688528.024,4309324.455,-111.72 
688528.024,4309275.265,-115.17 
688528.024,4309226.075,-118.38 
688528.024,4309176.884,-121.8 
688528.024,4309127.694,-125.23 
688528.024,4309078.504,-128.78 
688528.024,4309029.314,-132.24 
688528.024,4308980.124,-135.52 
688528.024,4308930.933,-139.45 
688528.024,4308881.743,-144.27 
688528.024,4308832.553,-148.76 
688528.024,4308783.363,-153.63 
688528.024,4308734.172,-158.04 
688528.024,4308684.982,-159.3 
688577.214,4337461.258,-157.81 
688577.214,4337412.068,-152.89 
688577.214,4337362.878,-147.54 
688577.214,4337313.688,-142.42 
688577.214,4337264.498,-137.86 
688577.214,4337215.307,-134.63 
688577.214,4337166.117,-132.2 
688577.214,4337116.927,-130.4 
688577.214,4337067.737,-129.28 
688577.214,4337018.546,-128.77 
688577.214,4336969.356,-128.31 
688577.214,4336920.166,-127.65 
688577.214,4336870.976,-128.06 
688577.214,4336821.786,-127.95 
688577.214,4336772.595,-126.88 
688577.214,4336723.405,-125.63 
688577.214,4336674.215,-125.1 
688577.214,4336625.025,-125.64 
688577.214,4336575.835,-126.95 
688577.214,4336526.644,-123.39 
688577.214,4336477.454,-123.74 
688577.214,4336428.264,-126.57 
688577.214,4336379.074,-128.38 
688577.214,4336329.883,-123.79 
688577.214,4336280.693,-121.39 
688577.214,4336231.503,-121.5 
688577.214,4336182.313,-122.67 
688577.214,4336133.123,-121.27 
688577.214,4336083.932,-122.34 
688577.214,4336034.742,-122.9 
688577.214,4335985.552,-128.2 
688577.214,4335936.362,-121.16 
688577.214,4335887.172,-119.02 
688577.214,4335837.981,-118.77 
688577.214,4335788.791,-120.45 
688577.214,4335739.601,-120.36 
688577.214,4335690.411,-120.91 
688577.214,4335641.220,-119.5 
688577.214,4335592.030,-119.86 
688577.214,4335542.840,-121.61 
688577.214,4335493.650,-126.2 
688577.214,4335444.460,-119.31 
688577.214,4335395.269,-117.57 
688577.214,4335346.079,-118.81 
688577.214,4335296.889,-129.18 
688577.214,4335247.699,-132.9 
688577.214,4335198.509,-125.14 
688577.214,4335149.318,-118.17 
688577.214,4335100.128,-114.82 
688577.214,4335050.938,-113.98 
688577.214,4335001.748,-115.05 
688577.214,4334952.557,-114.91 
688577.214,4334903.367,-113.61 
688577.214,4334854.177,-114.28 
688577.214,4334804.987,-118.21 
688577.214,4334755.797,-120.64 
688577.214,4309767.167,-92.99 
688577.214,4309717.977,-94.27 
688577.214,4309668.787,-97.01 
688577.214,4309619.596,-99.45 
688577.214,4309570.406,-101.51 
688577.214,4309521.216,-103.9 
688577.214,4309472.026,-106.58 
688577.214,4309422.835,-109.48 
688577.214,4309373.645,-112.29 
688577.214,4309324.455,-115.06 
688577.214,4309275.265,-119.2 
688577.214,4309226.075,-122.66 
688577.214,4309176.884,-126.49 
688577.214,4309127.694,-130.13 
688577.214,4309078.504,-133.39 
688577.214,4309029.314,-137.07 
688577.214,4308980.124,-140.73 
688577.214,4308930.933,-144.69 
688577.214,4308881.743,-149.1 
688577.214,4308832.553,-153.75 
688577.214,4308783.363,-157.97 
688577.214,4308734.172,-159.7 
688626.405,4337412.068,-154.45 
688626.405,4337362.878,-149.1 
688626.405,4337313.688,-144.4 
688626.405,4337264.498,-140.5 
688626.405,4337215.307,-137.31 
688626.405,4337166.117,-134.92 
688626.405,4337116.927,-133.19 
688626.405,4337067.737,-132.13 
688626.405,4337018.546,-131.56 
688626.405,4336969.356,-130.98 
688626.405,4336920.166,-130.62 
688626.405,4336870.976,-131.42 
688626.405,4336821.786,-130.86 
688626.405,4336772.595,-128.92 
688626.405,4336723.405,-128.37 
688626.405,4336674.215,-127.84 
688626.405,4336625.025,-128.43 
688626.405,4336575.835,-129.41 
688626.405,4336526.644,-126.15 
688626.405,4336477.454,-127.03 
688626.405,4336428.264,-131.75 
688626.405,4336379.074,-128.57 
688626.405,4336329.883,-126.31 
688626.405,4336280.693,-124.12 
688626.405,4336231.503,-124.28 
688626.405,4336182.313,-125.04 
688626.405,4336133.123,-124.27 
688626.405,4336083.932,-125.15 
688626.405,4336034.742,-124.86 
688626.405,4335985.552,-131.85 
688626.405,4335936.362,-123.65 
688626.405,4335887.172,-121.44 
688626.405,4335837.981,-121.34 
688626.405,4335788.791,-123.07 
688626.405,4335739.601,-122.71 
688626.405,4335690.411,-123.45 
688626.405,4335641.220,-122.16 
688626.405,4335592.030,-122.76 
688626.405,4335542.840,-125.77 
688626.405,4335493.650,-129.24 
688626.405,4335444.460,-123.59 
688626.405,4335395.269,-122.77 
688626.405,4335346.079,-126.36 
688626.405,4335296.889,-137.07 
688626.405,4335247.699,-139.45 
688626.405,4335198.509,-129.37 
688626.405,4335149.318,-122.03 
688626.405,4335100.128,-118.26 
688626.405,4335050.938,-116.58 
688626.405,4335001.748,-117.17 
688626.405,4334952.557,-116.42 
688626.405,4334903.367,-115.7 
688626.405,4334854.177,-116.35 
688626.405,4334804.987,-117.18 
688626.405,4334755.797,-119.6 
688626.405,4334706.606,-120.49 
688626.405,4334657.416,-122.19 
688626.405,4334608.226,-122.89 
688626.405,4334559.036,-121.42 
688626.405,4334411.465,-121.81 
688626.405,4334313.085,-119.46 
688626.405,4309816.357,-93.67 
688626.405,4309767.167,-94.95 
688626.405,4309717.977,-96.61 
688626.405,4309668.787,-98.53 
688626.405,4309619.596,-100.94 
688626.405,4309570.406,-103.79 
688626.405,4309521.216,-106.54 
688626.405,4309472.026,-109.52 
688626.405,4309422.835,-112.74 
688626.405,4309373.645,-116.3 
688626.405,4309324.455,-119.89 
688626.405,4309275.265,-123.78 
688626.405,4309226.075,-127.9 
688626.405,4309176.884,-131.79 
688626.405,4309127.694,-135.38 
688626.405,4309078.504,-138.92 
688626.405,4309029.314,-142.4 
688626.405,4308980.124,-146.44 
688626.405,4308930.933,-150.32 
688626.405,4308881.743,-154.43 
688626.405,4308832.553,-157.98 
688626.405,4308783.363,-159.8 
688675.595,4337412.068,-157.09 
688675.595,4337362.878,-152.12 
688675.595,4337313.688,-147.38 
688675.595,4337264.498,-143.38 
688675.595,4337215.307,-140.17 
688675.595,4337166.117,-137.77 
688675.595,4337116.927,-135.98 
688675.595,4337067.737,-135.02 
688675.595,4337018.546,-134.55 
688675.595,4336969.356,-134.02 
688675.595,4336920.166,-133.68 
688675.595,4336870.976,-134.27 
688675.595,4336821.786,-133.36 
688675.595,4336772.595,-131.77 
688675.595,4336723.405,-131.66 
688675.595,4336674.215,-130.88 
688675.595,4336625.025,-131.45 
688675.595,4336575.835,-132.02 
688675.595,4336526.644,-129.03 
688675.595,4336477.454,-130.57 
688675.595,4336428.264,-136.36 
688675.595,4336379.074,-129.93 
688675.595,4336329.883,-129.14 
688675.595,4336280.693,-127.28 
688675.595,4336231.503,-127.47 
688675.595,4336182.313,-127.23 
688675.595,4336133.123,-127.51 
688675.595,4336083.932,-127.25 
688675.595,4336034.742,-127.41 
688675.595,4335985.552,-134.46 
688675.595,4335936.362,-126.12 
688675.595,4335887.172,-124.74 
688675.595,4335837.981,-124.63 
688675.595,4335788.791,-125.58 
688675.595,4335739.601,-125.55 
688675.595,4335690.411,-126.11 
688675.595,4335641.220,-124.88 
688675.595,4335592.030,-125.13 
688675.595,4335542.840,-130.62 
688675.595,4335493.650,-133.02 
688675.595,4335444.460,-127.47 
688675.595,4335395.269,-127.3 
688675.595,4335346.079,-131.41 
688675.595,4335296.889,-144.8 
688675.595,4335247.699,-145.78 
688675.595,4335198.509,-130.99 
688675.595,4335149.318,-123 
688675.595,4335100.128,-120.54 
688675.595,4335050.938,-119.31 
688675.595,4335001.748,-118.84 
688675.595,4334952.557,-119.04 
688675.595,4334903.367,-118.73 
688675.595,4334854.177,-119.12 
688675.595,4334804.987,-118.39 
688675.595,4334755.797,-121.33 
688675.595,4334706.606,-123.96 
688675.595,4334657.416,-120.55 
688675.595,4334608.226,-119.39 
688675.595,4334559.036,-121.49 
688675.595,4334509.845,-122.26 
688675.595,4334460.655,-122.84 
688675.595,4334411.465,-121.52 
688675.595,4334362.275,-119.59 
688675.595,4334313.085,-119.93 
688675.595,4309865.547,-93.19 
688675.595,4309816.357,-94.38 
688675.595,4309767.167,-96.99 
688675.595,4309717.977,-98.81 
688675.595,4309668.787,-100.86 
688675.595,4309619.596,-103.29 
688675.595,4309570.406,-106.12 
688675.595,4309521.216,-109.2 
688675.595,4309472.026,-112.69 
688675.595,4309422.835,-116.34 
688675.595,4309373.645,-120.24 
688675.595,4309324.455,-124.49 
688675.595,4309275.265,-128.87 
688675.595,4309226.075,-133.16 
688675.595,4309176.884,-137.24 
688675.595,4309127.694,-141.25 
688675.595,4309078.504,-144.94 
688675.595,4309029.314,-148.71 
688675.595,4308980.124,-152.27 
688675.595,4308930.933,-155.95 
688675.595,4308881.743,-159.2 
688724.785,4337412.068,-158.55 
688724.785,4337362.878,-154.85 
688724.785,4337313.688,-150.04 
688724.785,4337264.498,-146.02 
688724.785,4337215.307,-142.78 
688724.785,4337166.117,-140.4 
688724.785,4337116.927,-138.76 
688724.785,4337067.737,-137.97 
688724.785,4337018.546,-137.64 
688724.785,4336969.356,-136.94 
688724.785,4336920.166,-137 
688724.785,4336870.976,-137.66 
688724.785,4336821.786,-136.32 
688724.785,4336772.595,-134.65 
688724.785,4336723.405,-134.49 
688724.785,4336674.215,-133.73 
688724.785,4336625.025,-134.46 
688724.785,4336575.835,-134.78 
688724.785,4336526.644,-132.39 
688724.785,4336477.454,-134.72 
688724.785,4336428.264,-138.75 
688724.785,4336379.074,-131.89 
688724.785,4336329.883,-132.25 
688724.785,4336280.693,-130.47 
688724.785,4336231.503,-130.8 
688724.785,4336182.313,-129.26 
688724.785,4336133.123,-130.42 
688724.785,4336083.932,-130.27 
688724.785,4336034.742,-130.65 
688724.785,4335985.552,-137.43 
688724.785,4335936.362,-128.65 
688724.785,4335887.172,-127.35 
688724.785,4335837.981,-127.49 
688724.785,4335788.791,-128.73 
688724.785,4335739.601,-129.26 
688724.785,4335690.411,-128.68 
688724.785,4335641.220,-127.44 
688724.785,4335592.030,-127.77 
688724.785,4335542.840,-134.68 
688724.785,4335493.650,-136.96 
688724.785,4335444.460,-131.22 
688724.785,4335395.269,-130.59 
688724.785,4335346.079,-133.81 
688724.785,4335296.889,-147.57 
688724.785,4335247.699,-146.01 
688724.785,4335198.509,-131.32 
688724.785,4335149.318,-124.72 
688724.785,4335100.128,-122.9 
688724.785,4335050.938,-121.82 
688724.785,4335001.748,-121.3 
688724.785,4334952.557,-121.56 
688724.785,4334903.367,-121.62 
688724.785,4334854.177,-121.62 
688724.785,4334804.987,-121.91 
688724.785,4334755.797,-123.18 
688724.785,4334706.606,-126.49 
688724.785,4334657.416,-126.77 
688724.785,4334608.226,-125.29 
688724.785,4334559.036,-125.56 
688724.785,4334509.845,-125.47 
688724.785,4334460.655,-125.2 
688724.785,4334411.465,-124.64 
688724.785,4334362.275,-124.86 
688724.785,4334313.085,-127.61 
688724.785,4334263.894,-129.22 
688724.785,4309914.738,-93.11 
688724.785,4309865.547,-94.21 
688724.785,4309816.357,-96.48 
688724.785,4309767.167,-98.31 
688724.785,4309717.977,-100.26 
688724.785,4309668.787,-102.73 
688724.785,4309619.596,-105.32 
688724.785,4309570.406,-108.54 
688724.785,4309521.216,-112.07 
688724.785,4309472.026,-115.84 
688724.785,4309422.835,-119.95 
688724.785,4309373.645,-124.53 
688724.785,4309324.455,-129.41 
688724.785,4309275.265,-134.24 
688724.785,4309226.075,-138.67 
688724.785,4309176.884,-143.16 
688724.785,4309127.694,-147.45 
688724.785,4309078.504,-151.35 
688724.785,4309029.314,-154.74 
688724.785,4308980.124,-157.6 
688724.785,4308930.933,-159.7 
688773.975,4337362.878,-156.8 
688773.975,4337313.688,-152.23 
688773.975,4337264.498,-148.46 
688773.975,4337215.307,-145.32 
688773.975,4337166.117,-143.06 
688773.975,4337116.927,-141.73 
688773.975,4337067.737,-141.1 
688773.975,4337018.546,-140.83 
688773.975,4336969.356,-139.98 
688773.975,4336920.166,-140.31 
688773.975,4336870.976,-140.94 
688773.975,4336821.786,-138.98 
688773.975,4336772.595,-137.94 
688773.975,4336723.405,-138.05 
688773.975,4336674.215,-137.12 
688773.975,4336625.025,-138.62 
688773.975,4336575.835,-137.61 
688773.975,4336526.644,-136.25 
688773.975,4336477.454,-140.44 
688773.975,4336428.264,-136.99 
688773.975,4336379.074,-134.18 
688773.975,4336329.883,-135.02 
688773.975,4336280.693,-133.98 
688773.975,4336231.503,-134.09 
688773.975,4336182.313,-132.32 
688773.975,4336133.123,-133.76 
688773.975,4336083.932,-132.94 
688773.975,4336034.742,-133.97 
688773.975,4335985.552,-140.52 
688773.975,4335936.362,-131.7 
688773.975,4335887.172,-130.49 
688773.975,4335837.981,-130.55 
688773.975,4335788.791,-132.19 
688773.975,4335739.601,-132.52 
688773.975,4335690.411,-130.91 
688773.975,4335641.220,-130.22 
688773.975,4335592.030,-130.4 
688773.975,4335542.840,-136.19 
688773.975,4335493.650,-142.05 
688773.975,4335444.460,-136.82 
688773.975,4335395.269,-137.28 
688773.975,4335346.079,-141.08 
688773.975,4335296.889,-151.6 
688773.975,4335247.699,-146.78 
688773.975,4335198.509,-132.8 
688773.975,4335149.318,-126.59 
688773.975,4335100.128,-125.09 
688773.975,4335050.938,-124.24 
688773.975,4335001.748,-124 
688773.975,4334952.557,-124.33 
688773.975,4334903.367,-124.13 
688773.975,4334854.177,-124.2 
688773.975,4334804.987,-124.69 
688773.975,4334755.797,-125.97 
688773.975,4334706.606,-128.29 
688773.975,4334657.416,-130.76 
688773.975,4334608.226,-131.25 
688773.975,4334559.036,-129.56 
688773.975,4334509.845,-128.85 
688773.975,4334460.655,-128.92 
688773.975,4334411.465,-128.79 
688773.975,4334362.275,-130.78 
688773.975,4334313.085,-130.95 
688773.975,4334263.894,-125.78 
688773.975,4334214.704,-120.6 
688773.975,4334165.514,-117.76 
688773.975,4334116.324,-117.65 
688773.975,4334067.134,-119.49 
688773.975,4334017.943,-119.33 
688773.975,4333968.753,-116.91 
688773.975,4333919.563,-112.77 
688773.975,4309963.928,-92.24 
688773.975,4309914.738,-93.73 
688773.975,4309865.547,-96.17 
688773.975,4309816.357,-97.86 
688773.975,4309767.167,-99.75 
688773.975,4309717.977,-102.06 
688773.975,4309668.787,-104.66 
688773.975,4309619.596,-107.66 
688773.975,4309570.406,-110.8 
688773.975,4309521.216,-114.65 
688773.975,4309472.026,-118.89 
688773.975,4309422.835,-123.55 
688773.975,4309373.645,-128.78 
688773.975,4309324.455,-134 
688773.975,4309275.265,-139.14 
