559185.933,4277831.105,-627.3 
559185.933,4277730.927,-625.6 
559185.933,4277630.749,-624.4 
559185.933,4277530.570,-623.2 
559185.933,4277430.392,-621.9 
559185.933,4277330.214,-621.1 
559185.933,4277230.036,-620.9 
559185.933,4277129.857,-622.1 
559185.933,4277029.679,-622.7 
559185.933,4276929.501,-623.9 
559185.933,4276829.323,-624.6 
559185.933,4276729.144,-624.7 
559185.933,4276628.966,-624 
559185.933,4276528.788,-623.8 
559185.933,4276428.610,-622.9 
559185.933,4276328.431,-621.8 
559185.933,4276228.253,-621.4 
559185.933,4276128.075,-621.2 
559185.933,4276027.897,-621.4 
559185.933,4275927.718,-622.3 
559185.933,4275827.540,-623.3 
559185.933,4275727.362,-624.6 
559185.933,4275627.184,-626.7 
559185.933,4275527.005,-628.8 
559185.933,4255290.998,-627.4 
559185.933,4255190.820,-619.8 
559185.933,4255090.642,-609.2 
559185.933,4254990.463,-596.3 
559185.933,4254890.285,-581.2 
559185.933,4254790.107,-563.5 
559185.933,4254689.929,-548.2 
559185.933,4254589.750,-537.7 
559185.933,4254489.572,-526.9 
559185.933,4254389.394,-505.6 
559185.933,4254289.216,-490.2 
559185.933,4254189.037,-488.9 
559185.933,4254088.859,-488.9 
559185.933,4253988.681,-485.3 
559185.933,4253888.503,-481.6 
559185.933,4253788.324,-478.1 
559185.933,4253688.146,-475.5 
559185.933,4253587.968,-471.9 
559185.933,4253487.790,-466.7 
559185.933,4253387.611,-459.7 
559185.933,4253287.433,-450.8 
559185.933,4253187.255,-439.6 
559185.933,4253087.077,-426.8 
559185.933,4252986.898,-414 
559185.933,4252886.720,-407 
559185.933,4252786.542,-414.3 
559185.933,4252686.364,-444 
559185.933,4252586.185,-471.6 
559185.933,4252486.007,-479.1 
559185.933,4252385.829,-477.3 
559185.933,4252285.651,-473.8 
559185.933,4252185.472,-468.8 
559185.933,4252085.294,-466.3 
559185.933,4251985.116,-467.2 
559185.933,4251884.938,-468.7 
559185.933,4251784.759,-470 
559185.933,4251684.581,-471.2 
559185.933,4251584.403,-472.3 
559185.933,4251484.225,-472.8 
559185.933,4251384.046,-472.8 
559185.933,4251283.868,-472.8 
559185.933,4251183.690,-472.6 
559185.933,4251083.512,-472.4 
559185.933,4250983.333,-472.4 
559185.933,4250883.155,-472.3 
559185.933,4250782.977,-472.1 
559185.933,4250682.799,-471.9 
559185.933,4250582.620,-471.8 
559185.933,4250482.442,-471.8 
559185.933,4250382.264,-471.7 
559185.933,4250282.086,-471.5 
559185.933,4250181.907,-471.5 
559185.933,4250081.729,-471.5 
559185.933,4249981.551,-471.5 
559185.933,4249881.373,-471 
559185.933,4249781.194,-470.9 
559185.933,4249681.016,-470.7 
559185.933,4249580.838,-470.7 
559185.933,4249480.660,-470.5 
559185.933,4249380.481,-470.4 
559185.933,4249280.303,-470.4 
559185.933,4249180.125,-470.3 
559185.933,4249079.947,-470 
559185.933,4248979.768,-469.7 
559185.933,4248879.590,-468.7 
559185.933,4248779.412,-467 
559185.933,4248679.234,-465.9 
559185.933,4248579.055,-465.4 
559185.933,4248478.877,-465 
559185.933,4248378.699,-464.3 
559185.933,4248278.520,-463.5 
559185.933,4248178.342,-462.9 
559185.933,4248078.164,-462.3 
559185.933,4247977.986,-461.5 
559185.933,4247877.807,-460.7 
559185.933,4247777.629,-459.8 
559185.933,4247677.451,-458.9 
559185.933,4247577.273,-458.3 
559185.933,4247477.094,-458.1 
559185.933,4247376.916,-457.9 
559185.933,4247276.738,-457.2 
559185.933,4247176.560,-456.5 
559185.933,4247076.381,-455.9 
559185.933,4246976.203,-455.3 
559185.933,4246876.025,-454.8 
559185.933,4246775.847,-453.9 
559185.933,4246675.668,-453.1 
559185.933,4246575.490,-452.5 
559185.933,4246475.312,-451.8 
559185.933,4246375.134,-451.4 
559185.933,4246274.955,-451 
559185.933,4246174.777,-450.5 
559185.933,4246074.599,-449.4 
559185.933,4245974.421,-448.5 
559185.933,4245874.242,-448 
559185.933,4245774.064,-447.6 
559185.933,4245673.886,-448 
559185.933,4245573.708,-448.9 
559185.933,4245473.529,-449.4 
559185.933,4245373.351,-448.7 
559185.933,4245273.173,-448.6 
559185.933,4245172.995,-449.7 
559185.933,4245072.816,-447.4 
559185.933,4244972.638,-437.4 
559185.933,4244872.460,-430.3 
559185.933,4244772.282,-422.4 
559185.933,4244672.103,-413.5 
559185.933,4244571.925,-406.9 
559185.933,4244471.747,-403.5 
559185.933,4244371.569,-404.1 
559185.933,4244271.390,-405.4 
559185.933,4244171.212,-405.2 
559185.933,4244071.034,-401.3 
559185.933,4243970.856,-396.9 
559185.933,4243870.677,-389 
559185.933,4243770.499,-373.9 
559185.933,4243670.321,-355.9 
559185.933,4243570.143,-337.8 
559185.933,4243469.964,-320.7 
559185.933,4243369.786,-308.9 
559185.933,4243269.608,-299.4 
559185.933,4243169.430,-293.4 
559185.933,4243069.251,-291.1 
559185.933,4242969.073,-291.2 
559185.933,4242868.895,-292.7 
559185.933,4242768.717,-294 
559185.933,4242668.538,-294.3 
559185.933,4242568.360,-292.9 
559185.933,4242468.182,-290.8 
559185.933,4242368.004,-287.3 
559185.933,4242267.825,-283.2 
559185.933,4242167.647,-278.4 
559185.933,4242067.469,-274.1 
559185.933,4241967.291,-268.8 
559185.933,4241867.112,-263.5 
559185.933,4241766.934,-258 
559185.933,4241666.756,-252.3 
559185.933,4241566.578,-247.5 
559185.933,4241466.399,-241.7 
559185.933,4241366.221,-235.7 
559185.933,4241266.043,-230.3 
559185.933,4241165.865,-227 
559185.933,4241065.686,-222.3 
559185.933,4240965.508,-217.3 
559185.933,4240865.330,-213.3 
559185.933,4240765.152,-209.4 
559185.933,4240664.973,-206.5 
559185.933,4240564.795,-203.4 
559185.933,4240464.617,-200 
559185.933,4240364.439,-197.9 
559185.933,4240264.260,-195.6 
559185.933,4240164.082,-193.2 
559185.933,4240063.904,-191 
559185.933,4239963.725,-188.5 
559185.933,4239863.547,-186.5 
559185.933,4239763.369,-184.6 
559185.933,4239663.191,-182.9 
559185.933,4239563.012,-181.5 
559185.933,4239462.834,-180.1 
559185.933,4239362.656,-179 
559185.933,4239262.478,-178.2 
559185.933,4239162.299,-178 
559185.933,4239062.121,-177.8 
559185.933,4238961.943,-177.6 
559185.933,4238861.765,-177.9 
559185.933,4238761.586,-178.2 
559185.933,4238661.408,-179 
559185.933,4238561.230,-180.1 
559185.933,4238461.052,-181.2 
559185.933,4238360.873,-182.8 
559185.933,4238260.695,-184.2 
559185.933,4238160.517,-185.9 
559185.933,4238060.339,-187.8 
559185.933,4237960.160,-189.3 
559185.933,4237859.982,-190.3 
559185.933,4237759.804,-191.8 
559185.933,4237659.626,-193.1 
559185.933,4237559.447,-195.1 
559185.933,4237459.269,-198.1 
559185.933,4237359.091,-201.8 
559185.933,4237258.913,-206.6 
559185.933,4237158.734,-211.9 
559185.933,4237058.556,-216.9 
559185.933,4236958.378,-222.6 
559185.933,4236858.200,-229.3 
559185.933,4236758.021,-235 
559185.933,4236657.843,-237.8 
559185.933,4236557.665,-239.3 
559185.933,4236457.487,-242.8 
559185.933,4236357.308,-249.7 
559185.933,4236257.130,-256.9 
559185.933,4236156.952,-262.4 
559185.933,4236056.774,-267.9 
559185.933,4235956.595,-273.4 
559185.933,4235856.417,-278.4 
559185.933,4235756.239,-283.8 
559185.933,4235656.061,-290 
559185.933,4235555.882,-287.1 
559185.933,4235455.704,-280 
559185.933,4235355.526,-282.1 
559185.933,4235255.348,-284.4 
559185.933,4235155.169,-286.4 
559185.933,4235054.991,-288 
559185.933,4234954.813,-289.1 
559185.933,4234854.635,-289.1 
559185.933,4234754.456,-287.4 
559185.933,4234654.278,-284.6 
559185.933,4234554.100,-277 
559185.933,4234453.922,-260.6 
559185.933,4234353.743,-238.1 
559185.933,4234253.565,-212.6 
559185.933,4234153.387,-183.5 
559185.933,4234053.209,-149.1 
559185.933,4233953.030,-125.5 
559286.212,4288450.000,-610.3 
559286.212,4288349.822,-605.9 
559286.212,4288249.643,-589 
559286.212,4288149.465,-560.1 
559286.212,4288049.287,-533.1 
559286.212,4287949.109,-514.4 
559286.212,4287848.930,-499 
559286.212,4287748.752,-487.1 
559286.212,4287648.574,-478.3 
559286.212,4287548.396,-470 
559286.212,4287448.217,-460.3 
559286.212,4287348.039,-448.4 
559286.212,4287247.861,-434.7 
559286.212,4287147.683,-420.7 
559286.212,4287047.504,-407.8 
559286.212,4286947.326,-395.8 
559286.212,4286847.148,-384.3 
559286.212,4286746.970,-373.6 
559286.212,4286646.791,-364.3 
559286.212,4286546.613,-357.1 
559286.212,4286446.435,-351.8 
559286.212,4286346.257,-349.1 
559286.212,4286246.078,-349.2 
559286.212,4286145.900,-351.5 
559286.212,4286045.722,-355.1 
559286.212,4285945.544,-359 
559286.212,4285845.365,-362.3 
559286.212,4285745.187,-364.5 
559286.212,4285645.009,-366.4 
559286.212,4285544.831,-368.7 
559286.212,4285444.652,-371.3 
559286.212,4285344.474,-374.4 
559286.212,4285244.296,-378.4 
559286.212,4285144.118,-386 
559286.212,4285043.939,-395.6 
559286.212,4284943.761,-401 
559286.212,4284843.583,-403.4 
559286.212,4284743.405,-405.6 
559286.212,4284643.226,-407.7 
559286.212,4284543.048,-411 
559286.212,4284442.870,-417.3 
559286.212,4284342.692,-426.2 
559286.212,4284242.513,-440.6 
559286.212,4284142.335,-447.3 
559286.212,4284042.157,-449 
559286.212,4283941.979,-451.9 
559286.212,4283841.800,-453.4 
559286.212,4283741.622,-451.9 
559286.212,4283641.444,-447.1 
559286.212,4283541.266,-445.5 
559286.212,4283441.087,-448.4 
559286.212,4283340.909,-452.6 
559286.212,4283240.731,-458 
559286.212,4283140.553,-466 
559286.212,4283040.374,-476.3 
559286.212,4282940.196,-487.8 
559286.212,4282840.018,-501.7 
559286.212,4282739.840,-518.6 
559286.212,4282639.661,-537.9 
559286.212,4282539.483,-557.7 
559286.212,4282439.305,-574.1 
559286.212,4282339.127,-588.7 
559286.212,4282238.948,-606.7 
559286.212,4281036.809,-629 
559286.212,4280936.631,-624.5 
559286.212,4280836.453,-621.9 
559286.212,4278131.640,-628.3 
559286.212,4278031.462,-626.4 
559286.212,4277931.283,-624.4 
559286.212,4277831.105,-623 
559286.212,4277730.927,-621.4 
559286.212,4277630.749,-620.6 
559286.212,4277530.570,-619.7 
559286.212,4277430.392,-619 
559286.212,4277330.214,-618.5 
559286.212,4277230.036,-619.4 
559286.212,4277129.857,-621.2 
559286.212,4277029.679,-621.9 
559286.212,4276929.501,-622.7 
559286.212,4276829.323,-622.8 
559286.212,4276729.144,-622.7 
559286.212,4276628.966,-621.7 
559286.212,4276528.788,-621.2 
559286.212,4276428.610,-620.3 
559286.212,4276328.431,-619.3 
559286.212,4276228.253,-619 
559286.212,4276128.075,-618.6 
559286.212,4276027.897,-618.8 
559286.212,4275927.718,-619.3 
559286.212,4275827.540,-620.3 
559286.212,4275727.362,-621.9 
559286.212,4275627.184,-623.8 
559286.212,4275527.005,-626 
559286.212,4275426.827,-628.2 
559286.212,4255391.176,-628.7 
559286.212,4255290.998,-622.7 
559286.212,4255190.820,-615 
559286.212,4255090.642,-607 
559286.212,4254990.463,-596.6 
559286.212,4254890.285,-584.5 
559286.212,4254790.107,-570.9 
559286.212,4254689.929,-553.5 
559286.212,4254589.750,-538.3 
559286.212,4254489.572,-523.8 
559286.212,4254389.394,-493.8 
559286.212,4254289.216,-469.3 
559286.212,4254189.037,-470.5 
559286.212,4254088.859,-474.7 
559286.212,4253988.681,-474.9 
559286.212,4253888.503,-472.5 
559286.212,4253788.324,-469.5 
559286.212,4253688.146,-465 
559286.212,4253587.968,-458.7 
559286.212,4253487.790,-450.2 
559286.212,4253387.611,-439.1 
559286.212,4253287.433,-425.9 
559286.212,4253187.255,-412.3 
559286.212,4253087.077,-401.1 
559286.212,4252986.898,-398 
559286.212,4252886.720,-409 
559286.212,4252786.542,-436.8 
559286.212,4252686.364,-461.7 
559286.212,4252586.185,-475.8 
559286.212,4252486.007,-475.7 
559286.212,4252385.829,-473.8 
559286.212,4252285.651,-469 
559286.212,4252185.472,-463.9 
559286.212,4252085.294,-462.7 
559286.212,4251985.116,-464.3 
559286.212,4251884.938,-466.6 
559286.212,4251784.759,-468.6 
559286.212,4251684.581,-470.2 
559286.212,4251584.403,-471.3 
559286.212,4251484.225,-472 
559286.212,4251384.046,-472.3 
559286.212,4251283.868,-472.3 
559286.212,4251183.690,-472.2 
559286.212,4251083.512,-472.1 
559286.212,4250983.333,-472.1 
559286.212,4250883.155,-471.9 
559286.212,4250782.977,-471.7 
559286.212,4250682.799,-471.6 
559286.212,4250582.620,-471.6 
559286.212,4250482.442,-471.6 
559286.212,4250382.264,-471.4 
559286.212,4250282.086,-471.3 
559286.212,4250181.907,-471.3 
559286.212,4250081.729,-471.3 
559286.212,4249981.551,-471.2 
559286.212,4249881.373,-471.1 
559286.212,4249781.194,-470.8 
559286.212,4249681.016,-470.5 
559286.212,4249580.838,-470.4 
559286.212,4249480.660,-470.3 
559286.212,4249380.481,-470.2 
559286.212,4249280.303,-470.2 
559286.212,4249180.125,-470.2 
559286.212,4249079.947,-470.2 
559286.212,4248979.768,-469.8 
559286.212,4248879.590,-468.8 
559286.212,4248779.412,-467.9 
559286.212,4248679.234,-467.3 
559286.212,4248579.055,-466.9 
559286.212,4248478.877,-466.5 
559286.212,4248378.699,-465.5 
559286.212,4248278.520,-464.5 
559286.212,4248178.342,-464 
559286.212,4248078.164,-463.6 
559286.212,4247977.986,-462.8 
559286.212,4247877.807,-462.1 
559286.212,4247777.629,-461.6 
559286.212,4247677.451,-460.9 
559286.212,4247577.273,-460.3 
559286.212,4247477.094,-460 
559286.212,4247376.916,-459.8 
559286.212,4247276.738,-459.3 
559286.212,4247176.560,-458.6 
559286.212,4247076.381,-458 
559286.212,4246976.203,-457.5 
559286.212,4246876.025,-456.8 
559286.212,4246775.847,-456.3 
559286.212,4246675.668,-455.5 
559286.212,4246575.490,-455.1 
559286.212,4246475.312,-454.4 
559286.212,4246375.134,-454 
559286.212,4246274.955,-453.6 
559286.212,4246174.777,-452.7 
559286.212,4246074.599,-452.1 
559286.212,4245974.421,-451.6 
559286.212,4245874.242,-451.6 
559286.212,4245774.064,-451.7 
559286.212,4245673.886,-452 
559286.212,4245573.708,-452.4 
559286.212,4245473.529,-452.7 
559286.212,4245373.351,-452.5 
559286.212,4245273.173,-451.9 
559286.212,4245172.995,-452.1 
559286.212,4245072.816,-448.1 
559286.212,4244972.638,-439.7 
559286.212,4244872.460,-434.3 
559286.212,4244772.282,-427.1 
559286.212,4244672.103,-416.6 
559286.212,4244571.925,-411.6 
559286.212,4244471.747,-412.3 
559286.212,4244371.569,-413.9 
559286.212,4244271.390,-413 
559286.212,4244171.212,-411.3 
559286.212,4244071.034,-407.8 
559286.212,4243970.856,-401.1 
559286.212,4243870.677,-384.8 
559286.212,4243770.499,-362.7 
559286.212,4243670.321,-346.1 
559286.212,4243570.143,-330.2 
559286.212,4243469.964,-317.5 
559286.212,4243369.786,-304.5 
559286.212,4243269.608,-298.3 
559286.212,4243169.430,-294.5 
559286.212,4243069.251,-293.7 
559286.212,4242969.073,-294.1 
559286.212,4242868.895,-296.7 
559286.212,4242768.717,-297.6 
559286.212,4242668.538,-297 
559286.212,4242568.360,-294.9 
559286.212,4242468.182,-292.1 
559286.212,4242368.004,-288.1 
559286.212,4242267.825,-283.6 
559286.212,4242167.647,-278.8 
559286.212,4242067.469,-274.3 
559286.212,4241967.291,-268.5 
559286.212,4241867.112,-263.1 
559286.212,4241766.934,-257.6 
559286.212,4241666.756,-251.6 
559286.212,4241566.578,-246.4 
559286.212,4241466.399,-240.3 
559286.212,4241366.221,-234.5 
559286.212,4241266.043,-229.2 
559286.212,4241165.865,-225.3 
559286.212,4241065.686,-220.8 
559286.212,4240965.508,-215.7 
559286.212,4240865.330,-212 
559286.212,4240765.152,-208.4 
559286.212,4240664.973,-205.2 
559286.212,4240564.795,-202.1 
559286.212,4240464.617,-198.9 
559286.212,4240364.439,-196.3 
559286.212,4240264.260,-193.8 
559286.212,4240164.082,-191.3 
559286.212,4240063.904,-189.2 
559286.212,4239963.725,-187 
559286.212,4239863.547,-185.2 
559286.212,4239763.369,-183.2 
559286.212,4239663.191,-181.7 
559286.212,4239563.012,-180.4 
559286.212,4239462.834,-179.4 
559286.212,4239362.656,-178.8 
559286.212,4239262.478,-178.4 
559286.212,4239162.299,-177.9 
559286.212,4239062.121,-177.2 
559286.212,4238961.943,-177 
559286.212,4238861.765,-177.2 
559286.212,4238761.586,-178.2 
559286.212,4238661.408,-179.5 
559286.212,4238561.230,-180.5 
559286.212,4238461.052,-181.6 
559286.212,4238360.873,-183.3 
559286.212,4238260.695,-184.9 
559286.212,4238160.517,-186.6 
559286.212,4238060.339,-188.6 
559286.212,4237960.160,-190.3 
559286.212,4237859.982,-191.8 
559286.212,4237759.804,-193.7 
559286.212,4237659.626,-195.3 
559286.212,4237559.447,-197.3 
559286.212,4237459.269,-200.4 
559286.212,4237359.091,-204.7 
559286.212,4237258.913,-209.6 
559286.212,4237158.734,-214.7 
559286.212,4237058.556,-219.9 
559286.212,4236958.378,-224.4 
559286.212,4236858.200,-227.9 
559286.212,4236758.021,-231.3 
559286.212,4236657.843,-235.2 
559286.212,4236557.665,-238.8 
559286.212,4236457.487,-244 
559286.212,4236357.308,-252.3 
559286.212,4236257.130,-259.8 
559286.212,4236156.952,-266.1 
559286.212,4236056.774,-271.7 
559286.212,4235956.595,-276.8 
559286.212,4235856.417,-281.5 
559286.212,4235756.239,-286.9 
559286.212,4235656.061,-293.2 
559286.212,4235555.882,-291.1 
559286.212,4235455.704,-285.4 
559286.212,4235355.526,-287.3 
559286.212,4235255.348,-287.8 
559286.212,4235155.169,-289 
559286.212,4235054.991,-290.4 
559286.212,4234954.813,-291.3 
559286.212,4234854.635,-290.7 
559286.212,4234754.456,-288.3 
559286.212,4234654.278,-284 
559286.212,4234554.100,-272.9 
559286.212,4234453.922,-252.5 
559286.212,4234353.743,-229.7 
559286.212,4234253.565,-206.5 
559286.212,4234153.387,-177.7 
559286.212,4234053.209,-160.7 
559386.490,4288249.643,-603.2 
559386.490,4288149.465,-578.8 
559386.490,4288049.287,-548.8 
559386.490,4287949.109,-531.1 
559386.490,4287848.930,-516 
559386.490,4287748.752,-499.1 
559386.490,4287648.574,-485 
559386.490,4287548.396,-473.5 
559386.490,4287448.217,-461.6 
559386.490,4287348.039,-448.6 
559386.490,4287247.861,-435.3 
559386.490,4287147.683,-423 
559386.490,4287047.504,-410.1 
559386.490,4286947.326,-396.6 
559386.490,4286847.148,-383.4 
559386.490,4286746.970,-371.1 
559386.490,4286646.791,-360.3 
559386.490,4286546.613,-351.3 
559386.490,4286446.435,-344.6 
559386.490,4286346.257,-340.8 
559386.490,4286246.078,-339.6 
559386.490,4286145.900,-340.2 
559386.490,4286045.722,-341.7 
559386.490,4285945.544,-343.3 
559386.490,4285845.365,-346 
559386.490,4285745.187,-350.7 
559386.490,4285645.009,-355.1 
559386.490,4285544.831,-357.6 
559386.490,4285444.652,-359.6 
559386.490,4285344.474,-361.9 
559386.490,4285244.296,-364.5 
559386.490,4285144.118,-367.9 
559386.490,4285043.939,-372.8 
559386.490,4284943.761,-377.5 
559386.490,4284843.583,-381.1 
559386.490,4284743.405,-383.8 
559386.490,4284643.226,-386.4 
559386.490,4284543.048,-389.1 
559386.490,4284442.870,-392.9 
559386.490,4284342.692,-398 
559386.490,4284242.513,-404.2 
559386.490,4284142.335,-410.6 
559386.490,4284042.157,-414.9 
559386.490,4283941.979,-417.4 
559386.490,4283841.800,-419.5 
559386.490,4283741.622,-422.1 
559386.490,4283641.444,-424.8 
559386.490,4283541.266,-428.1 
559386.490,4283441.087,-433.4 
559386.490,4283340.909,-440 
559386.490,4283240.731,-447.9 
559386.490,4283140.553,-457.2 
559386.490,4283040.374,-469.9 
559386.490,4282940.196,-486.5 
559386.490,4282840.018,-503.3 
559386.490,4282739.840,-519.5 
559386.490,4282639.661,-538.2 
559386.490,4282539.483,-555.4 
559386.490,4282439.305,-569.3 
559386.490,4282339.127,-581.6 
559386.490,4282238.948,-594.7 
559386.490,4282138.770,-612.3 
559386.490,4281136.988,-618.7 
559386.490,4281036.809,-610.6 
559386.490,4280936.631,-604.8 
559386.490,4280836.453,-610.6 
559386.490,4278231.818,-626.4 
559386.490,4278131.640,-624.7 
559386.490,4278031.462,-622 
559386.490,4277931.283,-620.1 
559386.490,4277831.105,-619.1 
559386.490,4277730.927,-618.1 
559386.490,4277630.749,-617.5 
559386.490,4277530.570,-617.2 
559386.490,4277430.392,-617.3 
559386.490,4277330.214,-618.4 
559386.490,4277230.036,-619.7 
559386.490,4277129.857,-620.6 
559386.490,4277029.679,-621.5 
559386.490,4276929.501,-621.3 
559386.490,4276829.323,-621 
559386.490,4276729.144,-620.5 
559386.490,4276628.966,-619.6 
559386.490,4276528.788,-618.9 
559386.490,4276428.610,-618 
559386.490,4276328.431,-616.7 
559386.490,4276228.253,-616.4 
559386.490,4276128.075,-615.8 
559386.490,4276027.897,-616 
559386.490,4275927.718,-616.3 
559386.490,4275827.540,-617.3 
559386.490,4275727.362,-618.7 
559386.490,4275627.184,-620.8 
559386.490,4275527.005,-623.2 
559386.490,4275426.827,-625.7 
559386.490,4275326.649,-628.4 
559386.490,4255892.068,-624.2 
559386.490,4255791.889,-622.4 
559386.490,4255691.711,-622.6 
559386.490,4255591.533,-622.5 
559386.490,4255491.355,-620.6 
559386.490,4255391.176,-620.6 
559386.490,4255290.998,-618.8 
559386.490,4255190.820,-609.8 
559386.490,4255090.642,-599.1 
559386.490,4254990.463,-589.5 
559386.490,4254890.285,-578.2 
559386.490,4254790.107,-566 
559386.490,4254689.929,-554.3 
559386.490,4254589.750,-538.8 
559386.490,4254489.572,-518.2 
559386.490,4254389.394,-491.8 
559386.490,4254289.216,-457.8 
559386.490,4254189.037,-455.4 
559386.490,4254088.859,-460.5 
559386.490,4253988.681,-462.9 
559386.490,4253888.503,-461.1 
559386.490,4253788.324,-456.3 
559386.490,4253688.146,-449.2 
559386.490,4253587.968,-439.1 
559386.490,4253487.790,-426.6 
559386.490,4253387.611,-412.9 
559386.490,4253287.433,-400.2 
559386.490,4253187.255,-393.9 
559386.490,4253087.077,-395 
559386.490,4252986.898,-407.7 
559386.490,4252886.720,-434.3 
559386.490,4252786.542,-456.6 
559386.490,4252686.364,-468.1 
559386.490,4252586.185,-472.8 
559386.490,4252486.007,-471.9 
559386.490,4252385.829,-470.6 
559386.490,4252285.651,-465.5 
559386.490,4252185.472,-460 
559386.490,4252085.294,-459.2 
559386.490,4251985.116,-461.3 
559386.490,4251884.938,-464 
559386.490,4251784.759,-466.4 
559386.490,4251684.581,-468.1 
559386.490,4251584.403,-469.6 
559386.490,4251484.225,-470.6 
559386.490,4251384.046,-471.2 
559386.490,4251283.868,-471.6 
559386.490,4251183.690,-471.6 
559386.490,4251083.512,-471.5 
559386.490,4250983.333,-471.5 
559386.490,4250883.155,-471.4 
559386.490,4250782.977,-471.2 
559386.490,4250682.799,-471.2 
559386.490,4250582.620,-471.1 
559386.490,4250482.442,-471 
559386.490,4250382.264,-470.9 
559386.490,4250282.086,-470.9 
559386.490,4250181.907,-471 
559386.490,4250081.729,-471 
559386.490,4249981.551,-471 
559386.490,4249881.373,-470.8 
559386.490,4249781.194,-470.7 
559386.490,4249681.016,-470.5 
559386.490,4249580.838,-470.4 
559386.490,4249480.660,-470.2 
559386.490,4249380.481,-470.1 
559386.490,4249280.303,-470.2 
559386.490,4249180.125,-470.1 
559386.490,4249079.947,-469.8 
559386.490,4248979.768,-469.3 
559386.490,4248879.590,-469.2 
559386.490,4248779.412,-469.2 
559386.490,4248679.234,-468.7 
559386.490,4248579.055,-468.2 
559386.490,4248478.877,-467.6 
559386.490,4248378.699,-466.4 
559386.490,4248278.520,-465.3 
559386.490,4248178.342,-464.8 
559386.490,4248078.164,-464.5 
559386.490,4247977.986,-463.9 
559386.490,4247877.807,-463.2 
559386.490,4247777.629,-462.7 
559386.490,4247677.451,-462.4 
559386.490,4247577.273,-461.8 
559386.490,4247477.094,-461.3 
559386.490,4247376.916,-461 
559386.490,4247276.738,-460.7 
559386.490,4247176.560,-460.2 
559386.490,4247076.381,-459.6 
559386.490,4246976.203,-459 
559386.490,4246876.025,-458.8 
559386.490,4246775.847,-458.5 
559386.490,4246675.668,-457.9 
559386.490,4246575.490,-457.5 
559386.490,4246475.312,-456.5 
559386.490,4246375.134,-455.8 
559386.490,4246274.955,-455.2 
559386.490,4246174.777,-454.7 
559386.490,4246074.599,-454.4 
559386.490,4245974.421,-453.8 
559386.490,4245874.242,-453.7 
559386.490,4245774.064,-453.3 
559386.490,4245673.886,-452.8 
559386.490,4245573.708,-452.8 
559386.490,4245473.529,-453 
559386.490,4245373.351,-453.5 
559386.490,4245273.173,-454.4 
559386.490,4245172.995,-454.9 
559386.490,4245072.816,-451.2 
559386.490,4244972.638,-442.9 
559386.490,4244872.460,-436.8 
559386.490,4244772.282,-429.2 
559386.490,4244672.103,-421.9 
559386.490,4244571.925,-419.5 
559386.490,4244471.747,-420.4 
559386.490,4244371.569,-419 
559386.490,4244271.390,-416.3 
559386.490,4244171.212,-413.8 
559386.490,4244071.034,-408.6 
559386.490,4243970.856,-395.3 
559386.490,4243870.677,-373.6 
559386.490,4243770.499,-353.8 
559386.490,4243670.321,-336.2 
559386.490,4243570.143,-318.6 
559386.490,4243469.964,-312.6 
559386.490,4243369.786,-302.3 
559386.490,4243269.608,-298.8 
559386.490,4243169.430,-297.3 
559386.490,4243069.251,-298.1 
559386.490,4242969.073,-300.8 
559386.490,4242868.895,-303.6 
559386.490,4242768.717,-303.1 
559386.490,4242668.538,-301.4 
559386.490,4242568.360,-298.3 
559386.490,4242468.182,-293.9 
559386.490,4242368.004,-288.8 
559386.490,4242267.825,-284 
559386.490,4242167.647,-279.1 
559386.490,4242067.469,-274.1 
559386.490,4241967.291,-268.1 
559386.490,4241867.112,-262.4 
559386.490,4241766.934,-256.8 
559386.490,4241666.756,-250.8 
559386.490,4241566.578,-244.6 
559386.490,4241466.399,-238.6 
559386.490,4241366.221,-233.1 
559386.490,4241266.043,-228.3 
559386.490,4241165.865,-223.6 
559386.490,4241065.686,-218.9 
559386.490,4240965.508,-214.7 
559386.490,4240865.330,-211 
559386.490,4240765.152,-207.3 
559386.490,4240664.973,-204.1 
559386.490,4240564.795,-201 
559386.490,4240464.617,-197.5 
559386.490,4240364.439,-195 
559386.490,4240264.260,-192.5 
559386.490,4240164.082,-190 
559386.490,4240063.904,-187.8 
559386.490,4239963.725,-185.5 
559386.490,4239863.547,-183.9 
559386.490,4239763.369,-181.9 
559386.490,4239663.191,-180.3 
559386.490,4239563.012,-179.2 
559386.490,4239462.834,-178.4 
559386.490,4239362.656,-177.7 
559386.490,4239262.478,-177.1 
559386.490,4239162.299,-176.9 
559386.490,4239062.121,-176.6 
559386.490,4238961.943,-176.6 
559386.490,4238861.765,-177.5 
559386.490,4238761.586,-178.3 
559386.490,4238661.408,-179.3 
559386.490,4238561.230,-180.7 
559386.490,4238461.052,-182.5 
559386.490,4238360.873,-184.3 
559386.490,4238260.695,-186 
559386.490,4238160.517,-187.9 
559386.490,4238060.339,-190 
559386.490,4237960.160,-191.7 
559386.490,4237859.982,-193.5 
559386.490,4237759.804,-195.9 
559386.490,4237659.626,-198.1 
559386.490,4237559.447,-200.4 
559386.490,4237459.269,-204.1 
559386.490,4237359.091,-207.8 
559386.490,4237258.913,-211 
559386.490,4237158.734,-214.5 
559386.490,4237058.556,-218.1 
559386.490,4236958.378,-222.2 
559386.490,4236858.200,-226.3 
559386.490,4236758.021,-230.4 
559386.490,4236657.843,-234.9 
559386.490,4236557.665,-239.9 
559386.490,4236457.487,-246 
559386.490,4236357.308,-254.9 
559386.490,4236257.130,-263.6 
559386.490,4236156.952,-270.2 
559386.490,4236056.774,-274.9 
559386.490,4235956.595,-279.6 
559386.490,4235856.417,-284.6 
559386.490,4235756.239,-290.4 
559386.490,4235656.061,-293.2 
559386.490,4235555.882,-291.7 
559386.490,4235455.704,-291.5 
559386.490,4235355.526,-290.2 
559386.490,4235255.348,-290.6 
559386.490,4235155.169,-291.7 
559386.490,4235054.991,-292.5 
559386.490,4234954.813,-292.7 
559386.490,4234854.635,-291.7 
559386.490,4234754.456,-288 
559386.490,4234654.278,-282.4 
559386.490,4234554.100,-271.6 
559386.490,4234453.922,-252.7 
559386.490,4234353.743,-230.6 
559386.490,4234253.565,-207.3 
559386.490,4234153.387,-177 
559386.490,4234053.209,-143.3 
559386.490,4233953.030,-123.7 
559486.769,4288249.643,-601.2 
559486.769,4288149.465,-587.6 
559486.769,4288049.287,-563.3 
559486.769,4287949.109,-544.7 
559486.769,4287848.930,-529.3 
559486.769,4287748.752,-509.6 
559486.769,4287648.574,-491.4 
559486.769,4287548.396,-477.8 
559486.769,4287448.217,-464.6 
559486.769,4287348.039,-453 
559486.769,4287247.861,-441.3 
559486.769,4287147.683,-428 
559486.769,4287047.504,-412.2 
559486.769,4286947.326,-394.8 
559486.769,4286847.148,-378 
559486.769,4286746.970,-363.4 
559486.769,4286646.791,-351.1 
559486.769,4286546.613,-340.9 
559486.769,4286446.435,-333.1 
559486.769,4286346.257,-328.1 
559486.769,4286246.078,-326 
559486.769,4286145.900,-325.7 
559486.769,4286045.722,-323.7 
559486.769,4285945.544,-311.9 
559486.769,4285845.365,-306.8 
559486.769,4285745.187,-316.8 
559486.769,4285645.009,-330.2 
559486.769,4285544.831,-340 
559486.769,4285444.652,-345 
559486.769,4285344.474,-348.3 
559486.769,4285244.296,-351.4 
559486.769,4285144.118,-354.7 
559486.769,4285043.939,-358.1 
559486.769,4284943.761,-361.4 
559486.769,4284843.583,-364.4 
559486.769,4284743.405,-367.8 
559486.769,4284643.226,-371.6 
559486.769,4284543.048,-376 
559486.769,4284442.870,-380.8 
559486.769,4284342.692,-385.5 
559486.769,4284242.513,-389.8 
559486.769,4284142.335,-393.5 
559486.769,4284042.157,-396.7 
559486.769,4283941.979,-399.4 
559486.769,4283841.800,-401.8 
559486.769,4283741.622,-404.6 
559486.769,4283641.444,-408.8 
559486.769,4283541.266,-414.4 
559486.769,4283441.087,-421.9 
559486.769,4283340.909,-430.2 
559486.769,4283240.731,-439.6 
559486.769,4283140.553,-452.8 
559486.769,4283040.374,-468.4 
559486.769,4282940.196,-484.5 
559486.769,4282840.018,-499.7 
559486.769,4282739.840,-516.2 
559486.769,4282639.661,-536.4 
559486.769,4282539.483,-553.3 
559486.769,4282439.305,-565.8 
559486.769,4282339.127,-575.2 
559486.769,4282238.948,-587.4 
559486.769,4282138.770,-603.7 
559486.769,4282038.592,-612.5 
559486.769,4281938.414,-617.7 
559486.769,4281838.235,-623.4 
559486.769,4281738.057,-625.7 
559486.769,4281637.879,-621.4 
559486.769,4281537.701,-616.5 
559486.769,4281437.522,-617.2 
559486.769,4281337.344,-620 
559486.769,4281237.166,-610 
559486.769,4281136.988,-595 
559486.769,4281036.809,-582.2 
559486.769,4280936.631,-589.4 
559486.769,4280836.453,-611.4 
559486.769,4279734.492,-617.8 
559486.769,4279634.314,-618.3 
559486.769,4279534.135,-621.4 
559486.769,4278432.175,-628.8 
559486.769,4278331.996,-626.1 
559486.769,4278231.818,-622.5 
559486.769,4278131.640,-620.1 
559486.769,4278031.462,-617.6 
559486.769,4277931.283,-616.4 
559486.769,4277831.105,-615.5 
559486.769,4277730.927,-615.1 
559486.769,4277630.749,-615.3 
559486.769,4277530.570,-615.7 
559486.769,4277430.392,-617.6 
559486.769,4277330.214,-618.7 
559486.769,4277230.036,-619.2 
559486.769,4277129.857,-619.9 
559486.769,4277029.679,-619.9 
559486.769,4276929.501,-619.5 
559486.769,4276829.323,-619 
559486.769,4276729.144,-618.1 
559486.769,4276628.966,-617.1 
559486.769,4276528.788,-616.4 
559486.769,4276428.610,-615.3 
559486.769,4276328.431,-614.2 
559486.769,4276228.253,-613.5 
559486.769,4276128.075,-612.9 
559486.769,4276027.897,-612.6 
559486.769,4275927.718,-613.6 
559486.769,4275827.540,-614.8 
559486.769,4275727.362,-616 
559486.769,4275627.184,-617.9 
559486.769,4275527.005,-620.7 
559486.769,4275426.827,-623.4 
559486.769,4275326.649,-626.2 
559486.769,4257394.742,-621.1 
559486.769,4257294.563,-609.4 
559486.769,4257194.385,-609.6 
559486.769,4257094.207,-616.1 
559486.769,4256192.602,-627.9 
559486.769,4256092.424,-621.3 
559486.769,4255992.246,-616.2 
559486.769,4255892.068,-614.2 
559486.769,4255791.889,-613 
559486.769,4255691.711,-612.7 
559486.769,4255591.533,-613.8 
559486.769,4255491.355,-613.1 
559486.769,4255391.176,-611.3 
559486.769,4255290.998,-608.6 
559486.769,4255190.820,-606.8 
559486.769,4255090.642,-596.4 
559486.769,4254990.463,-580.2 
559486.769,4254890.285,-566.6 
559486.769,4254790.107,-554 
559486.769,4254689.929,-542.3 
559486.769,4254589.750,-531.9 
559486.769,4254489.572,-516.2 
559486.769,4254389.394,-493.3 
559486.769,4254289.216,-465.8 
559486.769,4254189.037,-454.5 
559486.769,4254088.859,-450.7 
559486.769,4253988.681,-449.1 
559486.769,4253888.503,-444.7 
559486.769,4253788.324,-436.3 
559486.769,4253688.146,-426.1 
559486.769,4253587.968,-414.2 
559486.769,4253487.790,-402.6 
559486.769,4253387.611,-395.5 
559486.769,4253287.433,-394.6 
559486.769,4253187.255,-401.8 
559486.769,4253087.077,-418.9 
559486.769,4252986.898,-437.7 
559486.769,4252886.720,-451.5 
559486.769,4252786.542,-458.9 
559486.769,4252686.364,-465.3 
559486.769,4252586.185,-467.8 
559486.769,4252486.007,-468.1 
559486.769,4252385.829,-465.7 
559486.769,4252285.651,-461.2 
559486.769,4252185.472,-457 
559486.769,4252085.294,-456.7 
559486.769,4251985.116,-458.6 
559486.769,4251884.938,-460.8 
559486.769,4251784.759,-463.3 
559486.769,4251684.581,-465.5 
559486.769,4251584.403,-467.4 
559486.769,4251484.225,-468.6 
559486.769,4251384.046,-469.6 
559486.769,4251283.868,-470.4 
559486.769,4251183.690,-470.8 
559486.769,4251083.512,-471.2 
559486.769,4250983.333,-471.2 
559486.769,4250883.155,-471.1 
559486.769,4250782.977,-471.1 
559486.769,4250682.799,-471.1 
559486.769,4250582.620,-471 
559486.769,4250482.442,-470.8 
559486.769,4250382.264,-470.7 
559486.769,4250282.086,-470.8 
559486.769,4250181.907,-470.7 
559486.769,4250081.729,-470.7 
559486.769,4249981.551,-470.7 
559486.769,4249881.373,-470.7 
559486.769,4249781.194,-470.5 
559486.769,4249681.016,-470.3 
559486.769,4249580.838,-470.1 
559486.769,4249480.660,-469.9 
559486.769,4249380.481,-469.8 
559486.769,4249280.303,-469.7 
559486.769,4249180.125,-469.6 
559486.769,4249079.947,-469.5 
559486.769,4248979.768,-469.3 
559486.769,4248879.590,-469.3 
559486.769,4248779.412,-469.5 
559486.769,4248679.234,-469.3 
559486.769,4248579.055,-469 
559486.769,4248478.877,-468.3 
559486.769,4248378.699,-467.5 
559486.769,4248278.520,-466.3 
559486.769,4248178.342,-465.5 
559486.769,4248078.164,-465 
559486.769,4247977.986,-464.5 
559486.769,4247877.807,-464.1 
559486.769,4247777.629,-463.8 
559486.769,4247677.451,-463.5 
559486.769,4247577.273,-462.9 
559486.769,4247477.094,-462.3 
559486.769,4247376.916,-461.5 
559486.769,4247276.738,-461.2 
559486.769,4247176.560,-461.1 
559486.769,4247076.381,-460.9 
559486.769,4246976.203,-460.4 
559486.769,4246876.025,-460.3 
559486.769,4246775.847,-460.2 
559486.769,4246675.668,-459.8 
559486.769,4246575.490,-459.5 
559486.769,4246475.312,-458.6 
559486.769,4246375.134,-457.6 
559486.769,4246274.955,-457.2 
559486.769,4246174.777,-456.6 
559486.769,4246074.599,-456.3 
559486.769,4245974.421,-455.6 
559486.769,4245874.242,-455.2 
559486.769,4245774.064,-454.7 
559486.769,4245673.886,-453.6 
559486.769,4245573.708,-453.3 
559486.769,4245473.529,-453 
559486.769,4245373.351,-453.7 
559486.769,4245273.173,-455.3 
559486.769,4245172.995,-455.2 
559486.769,4245072.816,-452.1 
559486.769,4244972.638,-445.1 
559486.769,4244872.460,-438.1 
559486.769,4244772.282,-432.4 
559486.769,4244672.103,-428 
559486.769,4244571.925,-425.8 
559486.769,4244471.747,-424.4 
559486.769,4244371.569,-421.9 
559486.769,4244271.390,-417.7 
559486.769,4244171.212,-412.9 
559486.769,4244071.034,-403.7 
559486.769,4243970.856,-386.3 
559486.769,4243870.677,-363.1 
559486.769,4243770.499,-341 
559486.769,4243670.321,-322.6 
559486.769,4243570.143,-314.5 
559486.769,4243469.964,-309.4 
559486.769,4243369.786,-304.8 
559486.769,4243269.608,-305.3 
559486.769,4243169.430,-306.6 
559486.769,4243069.251,-308.8 
559486.769,4242969.073,-312.2 
559486.769,4242868.895,-311.8 
559486.769,4242768.717,-309.2 
559486.769,4242668.538,-305.8 
559486.769,4242568.360,-300.9 
559486.769,4242468.182,-295.7 
559486.769,4242368.004,-289.9 
559486.769,4242267.825,-284.4 
559486.769,4242167.647,-278.9 
559486.769,4242067.469,-273.2 
559486.769,4241967.291,-267.4 
559486.769,4241867.112,-261.6 
559486.769,4241766.934,-255.4 
559486.769,4241666.756,-248.9 
559486.769,4241566.578,-242.6 
559486.769,4241466.399,-236.7 
559486.769,4241366.221,-231.7 
559486.769,4241266.043,-227.2 
559486.769,4241165.865,-222.4 
559486.769,4241065.686,-218.1 
559486.769,4240965.508,-214 
559486.769,4240865.330,-210.1 
559486.769,4240765.152,-206.3 
559486.769,4240664.973,-202.9 
559486.769,4240564.795,-199.6 
559486.769,4240464.617,-196.6 
559486.769,4240364.439,-194.3 
559486.769,4240264.260,-191.6 
559486.769,4240164.082,-189.1 
559486.769,4240063.904,-186.6 
559486.769,4239963.725,-184.6 
559486.769,4239863.547,-182.7 
559486.769,4239763.369,-180.9 
559486.769,4239663.191,-179.6 
559486.769,4239563.012,-178.3 
559486.769,4239462.834,-177.3 
559486.769,4239362.656,-176.8 
559486.769,4239262.478,-176.6 
559486.769,4239162.299,-176.4 
559486.769,4239062.121,-176.5 
559486.769,4238961.943,-176.7 
559486.769,4238861.765,-177.8 
559486.769,4238761.586,-178.7 
559486.769,4238661.408,-179.7 
559486.769,4238561.230,-181.4 
559486.769,4238461.052,-183.3 
559486.769,4238360.873,-185.4 
559486.769,4238260.695,-187.4 
559486.769,4238160.517,-189.5 
559486.769,4238060.339,-191.6 
559486.769,4237960.160,-193.6 
559486.769,4237859.982,-195.3 
559486.769,4237759.804,-197.5 
559486.769,4237659.626,-199.9 
559486.769,4237559.447,-202.3 
559486.769,4237459.269,-205 
559486.769,4237359.091,-208 
559486.769,4237258.913,-211.1 
559486.769,4237158.734,-214.3 
559486.769,4237058.556,-217.8 
559486.769,4236958.378,-222.1 
559486.769,4236858.200,-227.2 
559486.769,4236758.021,-231.4 
559486.769,4236657.843,-236 
559486.769,4236557.665,-241.8 
559486.769,4236457.487,-248.5 
559486.769,4236357.308,-258.8 
559486.769,4236257.130,-268.5 
559486.769,4236156.952,-274.5 
559486.769,4236056.774,-278.7 
559486.769,4235956.595,-282.7 
559486.769,4235856.417,-288.4 
559486.769,4235756.239,-293.7 
559486.769,4235656.061,-295.5 
559486.769,4235555.882,-294.6 
559486.769,4235455.704,-294 
559486.769,4235355.526,-292.8 
559486.769,4235255.348,-292.8 
559486.769,4235155.169,-293.4 
559486.769,4235054.991,-294.3 
559486.769,4234954.813,-294.4 
559486.769,4234854.635,-292.7 
559486.769,4234754.456,-288.2 
559486.769,4234654.278,-279.5 
559486.769,4234554.100,-266.4 
559486.769,4234453.922,-248.4 
559486.769,4234353.743,-226.8 
559486.769,4234253.565,-202.5 
559486.769,4234153.387,-174.2 
559486.769,4234053.209,-142.8 
559486.769,4233953.030,-125 
559587.047,4288249.643,-605.1 
559587.047,4288149.465,-591.3 
559587.047,4288049.287,-570 
559587.047,4287949.109,-554.8 
559587.047,4287848.930,-539.5 
559587.047,4287748.752,-517.5 
559587.047,4287648.574,-496.9 
559587.047,4287548.396,-483.3 
559587.047,4287448.217,-471.9 
559587.047,4287348.039,-462.7 
559587.047,4287247.861,-451.4 
559587.047,4287147.683,-436.2 
559587.047,4287047.504,-416.8 
559587.047,4286947.326,-393.3 
559587.047,4286847.148,-370.6 
559587.047,4286746.970,-352.9 
559587.047,4286646.791,-339.3 
559587.047,4286546.613,-328.1 
559587.047,4286446.435,-319.1 
559587.047,4286346.257,-312.1 
559587.047,4286246.078,-307.1 
559587.047,4286145.900,-304.5 
559587.047,4286045.722,-297.9 
559587.047,4285945.544,-282.1 
559587.047,4285845.365,-275.1 
559587.047,4285745.187,-280.4 
559587.047,4285645.009,-289.2 
559587.047,4285544.831,-306.7 
559587.047,4285444.652,-324.2 
559587.047,4285344.474,-332.6 
559587.047,4285244.296,-336.6 
559587.047,4285144.118,-340.2 
559587.047,4285043.939,-343.5 
559587.047,4284943.761,-346 
559587.047,4284843.583,-347.8 
559587.047,4284743.405,-350.5 
559587.047,4284643.226,-354.1 
559587.047,4284543.048,-359.3 
559587.047,4284442.870,-366.4 
559587.047,4284342.692,-373.6 
559587.047,4284242.513,-378.6 
559587.047,4284142.335,-381.5 
559587.047,4284042.157,-383.9 
559587.047,4283941.979,-387.4 
559587.047,4283841.800,-391.2 
559587.047,4283741.622,-394.3 
559587.047,4283641.444,-398.7 
559587.047,4283541.266,-404.6 
559587.047,4283441.087,-412.3 
559587.047,4283340.909,-422.1 
559587.047,4283240.731,-434.7 
559587.047,4283140.553,-450.4 
559587.047,4283040.374,-465.7 
559587.047,4282940.196,-480 
559587.047,4282840.018,-495.1 
559587.047,4282739.840,-514.7 
559587.047,4282639.661,-535 
559587.047,4282539.483,-550.2 
559587.047,4282439.305,-561.4 
559587.047,4282339.127,-568.2 
559587.047,4282238.948,-582.6 
559587.047,4282138.770,-596.5 
559587.047,4282038.592,-601.4 
559587.047,4281938.414,-594.9 
559587.047,4281838.235,-597.4 
559587.047,4281738.057,-600.4 
559587.047,4281637.879,-592.6 
559587.047,4281537.701,-587.1 
559587.047,4281437.522,-587.3 
559587.047,4281337.344,-588.7 
559587.047,4281237.166,-577.4 
559587.047,4281136.988,-560.6 
559587.047,4281036.809,-560.8 
559587.047,4280936.631,-580.3 
559587.047,4280836.453,-607.1 
559587.047,4279834.670,-617.7 
559587.047,4279734.492,-611.2 
559587.047,4279634.314,-607.8 
559587.047,4279534.135,-611 
559587.047,4279433.957,-617.3 
559587.047,4279333.779,-623 
559587.047,4279233.601,-627.1 
559587.047,4279133.422,-627.5 
559587.047,4279033.244,-626 
559587.047,4278933.066,-626.9 
559587.047,4278532.353,-627.6 
559587.047,4278432.175,-624.5 
559587.047,4278331.996,-619.9 
559587.047,4278231.818,-617 
559587.047,4278131.640,-615.4 
559587.047,4278031.462,-613.9 
559587.047,4277931.283,-612.9 
559587.047,4277831.105,-612.6 
559587.047,4277730.927,-613.4 
559587.047,4277630.749,-614.9 
559587.047,4277530.570,-616.1 
559587.047,4277430.392,-617 
559587.047,4277330.214,-617.7 
559587.047,4277230.036,-617.9 
559587.047,4277129.857,-618.6 
559587.047,4277029.679,-618.1 
559587.047,4276929.501,-617.4 
559587.047,4276829.323,-616.5 
559587.047,4276729.144,-615.6 
559587.047,4276628.966,-614.4 
559587.047,4276528.788,-613.5 
559587.047,4276428.610,-612.6 
559587.047,4276328.431,-611.3 
559587.047,4276228.253,-610.3 
559587.047,4276128.075,-610 
559587.047,4276027.897,-609.9 
559587.047,4275927.718,-610.7 
559587.047,4275827.540,-612.4 
559587.047,4275727.362,-613.8 
559587.047,4275627.184,-615.6 
559587.047,4275527.005,-618 
559587.047,4275426.827,-620.8 
559587.047,4275326.649,-624.1 
559587.047,4275226.471,-626.8 
559587.047,4257394.742,-615.7 
559587.047,4257294.563,-603.1 
559587.047,4257194.385,-596.4 
559587.047,4257094.207,-606.5 
559587.047,4256994.029,-619.2 
559587.047,4256893.850,-619.2 
559587.047,4256793.672,-613 
559587.047,4256693.494,-604.6 
559587.047,4256593.316,-607.9 
559587.047,4256493.137,-615.9 
559587.047,4256392.959,-618.8 
559587.047,4256292.781,-617.8 
559587.047,4256192.602,-613.2 
559587.047,4256092.424,-608 
559587.047,4255992.246,-603.5 
559587.047,4255892.068,-601.3 
559587.047,4255791.889,-601.5 
559587.047,4255691.711,-600.9 
559587.047,4255591.533,-600.6 
559587.047,4255491.355,-601.1 
559587.047,4255391.176,-602 
559587.047,4255290.998,-597.8 
559587.047,4255190.820,-594.2 
559587.047,4255090.642,-591.6 
559587.047,4254990.463,-580.4 
559587.047,4254890.285,-561.4 
559587.047,4254790.107,-544.9 
559587.047,4254689.929,-532.2 
559587.047,4254589.750,-523.7 
559587.047,4254489.572,-516.7 
559587.047,4254389.394,-505.3 
559587.047,4254289.216,-486.8 
559587.047,4254189.037,-464.1 
559587.047,4254088.859,-448.8 
559587.047,4253988.681,-436.8 
559587.047,4253888.503,-426.5 
559587.047,4253788.324,-418.9 
559587.047,4253688.146,-406.7 
559587.047,4253587.968,-397 
559587.047,4253487.790,-394.2 
559587.047,4253387.611,-398.3 
559587.047,4253287.433,-409.7 
559587.047,4253187.255,-422.8 
559587.047,4253087.077,-435.2 
559587.047,4252986.898,-443.1 
559587.047,4252886.720,-449.3 
559587.047,4252786.542,-454.3 
559587.047,4252686.364,-458 
559587.047,4252586.185,-461 
559587.047,4252486.007,-461.5 
559587.047,4252385.829,-459.3 
559587.047,4252285.651,-456.1 
559587.047,4252185.472,-454.3 
559587.047,4252085.294,-454.4 
559587.047,4251985.116,-456 
559587.047,4251884.938,-458 
559587.047,4251784.759,-460.4 
559587.047,4251684.581,-462.7 
559587.047,4251584.403,-464.5 
559587.047,4251484.225,-466.2 
559587.047,4251384.046,-467.5 
559587.047,4251283.868,-468.6 
559587.047,4251183.690,-469.4 
559587.047,4251083.512,-470.2 
559587.047,4250983.333,-470.7 
559587.047,4250883.155,-470.9 
559587.047,4250782.977,-470.9 
559587.047,4250682.799,-471 
559587.047,4250582.620,-471 
559587.047,4250482.442,-470.8 
559587.047,4250382.264,-470.6 
559587.047,4250282.086,-470.5 
559587.047,4250181.907,-470.3 
559587.047,4250081.729,-470.3 
559587.047,4249981.551,-470.2 
559587.047,4249881.373,-470.2 
559587.047,4249781.194,-470 
559587.047,4249681.016,-469.8 
559587.047,4249580.838,-469.6 
559587.047,4249480.660,-469.5 
559587.047,4249380.481,-469.2 
559587.047,4249280.303,-469.2 
559587.047,4249180.125,-469.2 
559587.047,4249079.947,-469.3 
559587.047,4248979.768,-469.3 
559587.047,4248879.590,-469.1 
559587.047,4248779.412,-469.2 
559587.047,4248679.234,-469 
559587.047,4248579.055,-469.1 
559587.047,4248478.877,-468.8 
559587.047,4248378.699,-468 
559587.047,4248278.520,-466.8 
559587.047,4248178.342,-466.3 
559587.047,4248078.164,-465.9 
559587.047,4247977.986,-465 
559587.047,4247877.807,-464 
559587.047,4247777.629,-463.3 
559587.047,4247677.451,-463.2 
559587.047,4247577.273,-463.4 
559587.047,4247477.094,-463.6 
559587.047,4247376.916,-463.1 
559587.047,4247276.738,-462.5 
559587.047,4247176.560,-462.4 
559587.047,4247076.381,-462.2 
559587.047,4246976.203,-462.2 
559587.047,4246876.025,-461.9 
559587.047,4246775.847,-461.5 
559587.047,4246675.668,-461.5 
559587.047,4246575.490,-461.4 
559587.047,4246475.312,-460.6 
559587.047,4246375.134,-459.7 
559587.047,4246274.955,-459.9 
559587.047,4246174.777,-459.2 
559587.047,4246074.599,-458.7 
559587.047,4245974.421,-458 
559587.047,4245874.242,-457.9 
559587.047,4245774.064,-457.2 
559587.047,4245673.886,-455.8 
559587.047,4245573.708,-454.4 
559587.047,4245473.529,-453.3 
559587.047,4245373.351,-452.5 
559587.047,4245273.173,-453.1 
559587.047,4245172.995,-453.7 
559587.047,4245072.816,-452.6 
559587.047,4244972.638,-447.9 
559587.047,4244872.460,-442.7 
559587.047,4244772.282,-438.2 
559587.047,4244672.103,-433.2 
559587.047,4244571.925,-430.3 
559587.047,4244471.747,-427.5 
559587.047,4244371.569,-423.3 
559587.047,4244271.390,-416.7 
559587.047,4244171.212,-408.1 
559587.047,4244071.034,-394.8 
559587.047,4243970.856,-370.8 
559587.047,4243870.677,-343.9 
559587.047,4243770.499,-329.6 
559587.047,4243670.321,-323.1 
559587.047,4243570.143,-318.7 
559587.047,4243469.964,-315.2 
559587.047,4243369.786,-315.2 
559587.047,4243269.608,-315.8 
559587.047,4243169.430,-318.1 
559587.047,4243069.251,-322.2 
559587.047,4242969.073,-322 
559587.047,4242868.895,-318.9 
559587.047,4242768.717,-314.5 
559587.047,4242668.538,-309.3 
559587.047,4242568.360,-303.3 
559587.047,4242468.182,-297.2 
559587.047,4242368.004,-291 
559587.047,4242267.825,-284.9 
559587.047,4242167.647,-278.8 
559587.047,4242067.469,-272.6 
559587.047,4241967.291,-266.7 
559587.047,4241867.112,-260.6 
559587.047,4241766.934,-253.8 
559587.047,4241666.756,-247.2 
559587.047,4241566.578,-241.5 
559587.047,4241466.399,-236.1 
559587.047,4241366.221,-230.6 
559587.047,4241266.043,-226 
559587.047,4241165.865,-221.5 
559587.047,4241065.686,-217.1 
559587.047,4240965.508,-213 
559587.047,4240865.330,-209.1 
559587.047,4240765.152,-205.4 
559587.047,4240664.973,-202 
559587.047,4240564.795,-198.9 
559587.047,4240464.617,-196 
559587.047,4240364.439,-193.3 
559587.047,4240264.260,-190.6 
559587.047,4240164.082,-188.1 
559587.047,4240063.904,-185.7 
559587.047,4239963.725,-183.7 
559587.047,4239863.547,-181.7 
559587.047,4239763.369,-179.8 
559587.047,4239663.191,-178.7 
559587.047,4239563.012,-177.7 
559587.047,4239462.834,-177.2 
559587.047,4239362.656,-176.7 
559587.047,4239262.478,-176.6 
559587.047,4239162.299,-176.6 
559587.047,4239062.121,-176.6 
559587.047,4238961.943,-177.3 
559587.047,4238861.765,-178.3 
559587.047,4238761.586,-179.3 
559587.047,4238661.408,-180.8 
559587.047,4238561.230,-182.7 
559587.047,4238461.052,-184.9 
559587.047,4238360.873,-187 
