552685.754,4274199.286,-857 
552685.754,4273998.571,-862.1 
552685.754,4273797.857,-866.8 
552685.754,4273597.143,-869.3 
552685.754,4273396.429,-871.9 
552685.754,4273195.714,-873.4 
552685.754,4272995.000,-873.5 
552685.754,4272794.286,-872.5 
552685.754,4272593.571,-869.6 
552685.754,4272392.857,-868.7 
552685.754,4272192.143,-872 
552685.754,4271991.429,-872.3 
552685.754,4271790.714,-871.5 
552685.754,4271590.000,-870.3 
552685.754,4271389.286,-869.5 
552685.754,4271188.571,-868.4 
552685.754,4270987.857,-868.7 
552685.754,4270787.143,-867.9 
552685.754,4270586.429,-866.9 
552685.754,4270385.714,-865.1 
552685.754,4270185.000,-864.8 
552685.754,4269984.286,-864.3 
552685.754,4269783.571,-863.2 
552685.754,4269582.857,-890.5 
552685.754,4269382.143,-898.5 
552685.754,4269181.429,-901.6 
552685.754,4268980.714,-901.7 
552685.754,4268780.000,-874.4 
552685.754,4268579.286,-868.4 
552685.754,4268378.571,-867.3 
552685.754,4268177.857,-864.7 
552685.754,4267977.143,-864.5 
552685.754,4267776.429,-873.5 
552685.754,4267575.714,-902 
552685.754,4267375.000,-910.8 
552685.754,4267174.286,-884.2 
552685.754,4266973.571,-868.1 
552685.754,4266772.857,-865.6 
552685.754,4266572.143,-864 
552685.754,4266371.429,-862.8 
552685.754,4266170.714,-864.3 
552685.754,4265970.000,-863.7 
552685.754,4265769.286,-864.7 
552685.754,4265568.571,-864.3 
552685.754,4265367.857,-863.2 
552685.754,4265167.143,-877.6 
552685.754,4264966.429,-889.5 
552685.754,4264765.714,-904.1 
552685.754,4264565.000,-930.5 
552685.754,4264364.286,-919.4 
552685.754,4264163.571,-899.2 
552685.754,4263962.857,-884.9 
552685.754,4263762.143,-887.4 
552685.754,4263561.429,-872.7 
552685.754,4263360.714,-864.9 
552685.754,4263160.000,-863.7 
552685.754,4262959.286,-862.7 
552685.754,4262758.571,-862.2 
552685.754,4262557.857,-862.1 
552685.754,4262357.143,-864.1 
552685.754,4262156.429,-865.4 
552685.754,4261955.714,-865.1 
552685.754,4261755.000,-860.4 
552685.754,4261554.286,-857.5 
552685.754,4261353.571,-853.1 
552685.754,4261152.857,-850.4 
552685.754,4260952.143,-848.6 
552685.754,4260751.429,-846.8 
552685.754,4260550.714,-844.2 
552685.754,4260350.000,-841.6 
552685.754,4260149.286,-837 
552685.754,4259948.571,-833.2 
552685.754,4259747.857,-828.7 
552685.754,4259547.143,-824.6 
552685.754,4259346.429,-819.5 
552685.754,4259145.714,-816.6 
552685.754,4258945.000,-811.9 
552685.754,4258744.286,-807.9 
552685.754,4258543.571,-808.8 
552685.754,4258342.857,-838.9 
552685.754,4258142.143,-840.2 
552685.754,4257941.429,-831.7 
552685.754,4257740.714,-805 
552685.754,4257540.000,-782.6 
552685.754,4257339.286,-756.1 
552685.754,4257138.571,-732.9 
552685.754,4256937.857,-711.1 
552685.754,4256737.143,-681.3 
552685.754,4256536.429,-652.3 
552685.754,4256335.714,-625.7 
552685.754,4256135.000,-595.3 
552685.754,4255934.286,-573.6 
552685.754,4253927.143,-581.2 
552685.754,4253726.429,-581.1 
552685.754,4253525.714,-588.7 
552685.754,4253325.000,-606 
552685.754,4253124.286,-611.6 
552685.754,4252923.571,-597.9 
552685.754,4252722.857,-588.1 
552886.872,4288450.000,-1162.6 
552886.872,4288249.286,-1160.2 
552886.872,4288048.571,-1155.2 
552886.872,4287847.857,-1150.4 
552886.872,4287647.143,-1145.5 
552886.872,4287446.429,-1140 
552886.872,4287245.714,-1134.2 
552886.872,4287045.000,-1126.4 
552886.872,4286844.286,-1119.1 
552886.872,4286643.571,-1114.4 
552886.872,4286442.857,-1110.3 
552886.872,4286242.143,-1106.2 
552886.872,4286041.429,-1103 
552886.872,4285840.714,-1099 
552886.872,4285640.000,-1091.8 
552886.872,4285439.286,-1081.5 
552886.872,4285238.571,-1068.1 
552886.872,4285037.857,-1049.9 
552886.872,4284837.143,-1027.7 
552886.872,4284636.429,-999.1 
552886.872,4284435.714,-966 
552886.872,4284235.000,-934.5 
552886.872,4284034.286,-899.7 
552886.872,4283833.571,-873.6 
552886.872,4283632.857,-857.4 
552886.872,4283432.143,-841.6 
552886.872,4283231.429,-821.6 
552886.872,4283030.714,-792.7 
552886.872,4282830.000,-770.5 
552886.872,4282629.286,-757.6 
552886.872,4282428.571,-748.1 
552886.872,4282227.857,-739.7 
552886.872,4282027.143,-731.7 
552886.872,4281826.429,-723.7 
552886.872,4281625.714,-715.7 
552886.872,4281425.000,-709 
552886.872,4281224.286,-704.3 
552886.872,4281023.571,-702.3 
552886.872,4280822.857,-701.5 
552886.872,4280622.143,-701.3 
552886.872,4280421.429,-701.6 
552886.872,4280220.714,-701.8 
552886.872,4280020.000,-702.1 
552886.872,4279819.286,-703.9 
552886.872,4279618.571,-706 
552886.872,4279417.857,-708.4 
552886.872,4279217.143,-710.7 
552886.872,4279016.429,-712.3 
552886.872,4278815.714,-713.1 
552886.872,4278615.000,-713.4 
552886.872,4278414.286,-712.8 
552886.872,4278213.571,-712.4 
552886.872,4278012.857,-710.8 
552886.872,4277812.143,-710.7 
552886.872,4277611.429,-710.8 
552886.872,4277410.714,-714.3 
552886.872,4277210.000,-723 
552886.872,4277009.286,-730.9 
552886.872,4276808.571,-739.7 
552886.872,4276607.857,-749.8 
552886.872,4276407.143,-757.1 
552886.872,4276206.429,-776.5 
552886.872,4276005.714,-794.6 
552886.872,4275805.000,-803.1 
552886.872,4275604.286,-810.6 
552886.872,4275403.571,-819.6 
552886.872,4275202.857,-826.3 
552886.872,4275002.143,-832.7 
552886.872,4274801.429,-839.3 
552886.872,4274600.714,-844.6 
552886.872,4274400.000,-850.3 
552886.872,4274199.286,-855.2 
552886.872,4273998.571,-860.6 
552886.872,4273797.857,-864.3 
552886.872,4273597.143,-865.9 
552886.872,4273396.429,-862 
552886.872,4273195.714,-858.9 
552886.872,4272995.000,-858.4 
552886.872,4272794.286,-859.3 
552886.872,4272593.571,-860.5 
552886.872,4272392.857,-863.9 
552886.872,4272192.143,-868.2 
552886.872,4271991.429,-869 
552886.872,4271790.714,-867.1 
552886.872,4271590.000,-866 
552886.872,4271389.286,-865.1 
552886.872,4271188.571,-863.6 
552886.872,4270987.857,-864.2 
552886.872,4270787.143,-864.4 
552886.872,4270586.429,-863 
552886.872,4270385.714,-860.9 
552886.872,4270185.000,-859.7 
552886.872,4269984.286,-858.2 
552886.872,4269783.571,-868.1 
552886.872,4269582.857,-888.3 
552886.872,4269382.143,-895.5 
552886.872,4269181.429,-899.3 
552886.872,4268980.714,-892.5 
552886.872,4268780.000,-875.6 
552886.872,4268579.286,-864.8 
552886.872,4268378.571,-862.8 
552886.872,4268177.857,-862.4 
552886.872,4267977.143,-861.6 
552886.872,4267776.429,-871.2 
552886.872,4267575.714,-896.9 
552886.872,4267375.000,-906.2 
552886.872,4267174.286,-885.9 
552886.872,4266973.571,-865.3 
552886.872,4266772.857,-862.4 
552886.872,4266572.143,-859.6 
552886.872,4266371.429,-858.4 
552886.872,4266170.714,-860 
552886.872,4265970.000,-859.2 
552886.872,4265769.286,-859.2 
552886.872,4265568.571,-856.3 
552886.872,4265367.857,-858.4 
552886.872,4265167.143,-875.2 
552886.872,4264966.429,-883.2 
552886.872,4264765.714,-901.1 
552886.872,4264565.000,-929.1 
552886.872,4264364.286,-915.1 
552886.872,4264163.571,-880.7 
552886.872,4263962.857,-870.7 
552886.872,4263762.143,-865.2 
552886.872,4263561.429,-859 
552886.872,4263360.714,-860.9 
552886.872,4263160.000,-861 
552886.872,4262959.286,-859.1 
552886.872,4262758.571,-856.7 
552886.872,4262557.857,-857.2 
552886.872,4262357.143,-859.9 
552886.872,4262156.429,-861 
552886.872,4261955.714,-862.3 
552886.872,4261755.000,-857.3 
552886.872,4261554.286,-852 
552886.872,4261353.571,-849.2 
552886.872,4261152.857,-847.4 
552886.872,4260952.143,-845.8 
552886.872,4260751.429,-842.3 
552886.872,4260550.714,-841.2 
552886.872,4260350.000,-839.5 
552886.872,4260149.286,-835.8 
552886.872,4259948.571,-832.4 
552886.872,4259747.857,-826.8 
552886.872,4259547.143,-820.7 
552886.872,4259346.429,-815.5 
552886.872,4259145.714,-812.6 
552886.872,4258945.000,-808 
552886.872,4258744.286,-803.7 
552886.872,4258543.571,-801.3 
552886.872,4258342.857,-814 
552886.872,4258142.143,-835.8 
552886.872,4257941.429,-831.6 
552886.872,4257740.714,-819.4 
552886.872,4257540.000,-791.5 
552886.872,4257339.286,-775.9 
552886.872,4257138.571,-752.6 
552886.872,4256937.857,-724.1 
552886.872,4256737.143,-691.7 
552886.872,4256536.429,-652.3 
552886.872,4256335.714,-623.7 
552886.872,4256135.000,-595.7 
552886.872,4255934.286,-572.7 
552886.872,4254127.857,-582.6 
552886.872,4253927.143,-589.5 
552886.872,4253726.429,-599.3 
552886.872,4253525.714,-615.8 
552886.872,4253325.000,-616.3 
552886.872,4253124.286,-602.8 
552886.872,4252923.571,-587.3 
553087.989,4288450.000,-1156.8 
553087.989,4288249.286,-1154.5 
553087.989,4288048.571,-1149.4 
553087.989,4287847.857,-1143.7 
553087.989,4287647.143,-1138.4 
553087.989,4287446.429,-1134 
553087.989,4287245.714,-1129.3 
553087.989,4287045.000,-1122.6 
553087.989,4286844.286,-1114.7 
553087.989,4286643.571,-1109.3 
553087.989,4286442.857,-1105.7 
553087.989,4286242.143,-1102.4 
553087.989,4286041.429,-1100.9 
553087.989,4285840.714,-1094.2 
553087.989,4285640.000,-1077.4 
553087.989,4285439.286,-1058.7 
553087.989,4285238.571,-1042.7 
553087.989,4285037.857,-1023.5 
553087.989,4284837.143,-999.6 
553087.989,4284636.429,-975.9 
553087.989,4284435.714,-949.4 
553087.989,4284235.000,-921.1 
553087.989,4284034.286,-880.7 
553087.989,4283833.571,-847.1 
553087.989,4283632.857,-826.2 
553087.989,4283432.143,-810.3 
553087.989,4283231.429,-791.5 
553087.989,4283030.714,-773.4 
553087.989,4282830.000,-761.9 
553087.989,4282629.286,-752 
553087.989,4282428.571,-742.3 
553087.989,4282227.857,-734.3 
553087.989,4282027.143,-726.1 
553087.989,4281826.429,-717.3 
553087.989,4281625.714,-709.2 
553087.989,4281425.000,-702.8 
553087.989,4281224.286,-699.3 
553087.989,4281023.571,-698.2 
553087.989,4280822.857,-698.5 
553087.989,4280622.143,-699.7 
553087.989,4280421.429,-701.4 
553087.989,4280220.714,-702.4 
553087.989,4280020.000,-704 
553087.989,4279819.286,-705.8 
553087.989,4279618.571,-707.4 
553087.989,4279417.857,-710.3 
553087.989,4279217.143,-712.9 
553087.989,4279016.429,-714.2 
553087.989,4278815.714,-715 
553087.989,4278615.000,-715.3 
553087.989,4278414.286,-715.1 
553087.989,4278213.571,-714.7 
553087.989,4278012.857,-714.3 
553087.989,4277812.143,-713.4 
553087.989,4277611.429,-713.6 
553087.989,4277410.714,-713.5 
553087.989,4277210.000,-719.2 
553087.989,4277009.286,-730.4 
553087.989,4276808.571,-737.1 
553087.989,4276607.857,-743.6 
553087.989,4276407.143,-751.8 
553087.989,4276206.429,-777.7 
553087.989,4276005.714,-793.7 
553087.989,4275805.000,-801.4 
553087.989,4275604.286,-810.9 
553087.989,4275403.571,-819.3 
553087.989,4275202.857,-824.6 
553087.989,4275002.143,-830.8 
553087.989,4274801.429,-835.1 
553087.989,4274600.714,-841 
553087.989,4274400.000,-846.3 
553087.989,4274199.286,-851 
553087.989,4273998.571,-850 
553087.989,4273797.857,-845.8 
553087.989,4273597.143,-844.9 
553087.989,4273396.429,-843.8 
553087.989,4273195.714,-842.1 
553087.989,4272995.000,-846.2 
553087.989,4272794.286,-852 
553087.989,4272593.571,-856.3 
553087.989,4272392.857,-861.2 
553087.989,4272192.143,-864.8 
553087.989,4271991.429,-865.1 
553087.989,4271790.714,-863.6 
553087.989,4271590.000,-861.9 
553087.989,4271389.286,-861 
553087.989,4271188.571,-859.7 
553087.989,4270987.857,-860.1 
553087.989,4270787.143,-860.6 
553087.989,4270586.429,-859.5 
553087.989,4270385.714,-857.9 
553087.989,4270185.000,-855.8 
553087.989,4269984.286,-862 
553087.989,4269783.571,-872.6 
553087.989,4269582.857,-884.9 
553087.989,4269382.143,-896.1 
553087.989,4269181.429,-896.6 
553087.989,4268980.714,-885.7 
553087.989,4268780.000,-880.1 
553087.989,4268579.286,-861.4 
553087.989,4268378.571,-858.5 
553087.989,4268177.857,-858.3 
553087.989,4267977.143,-856.3 
553087.989,4267776.429,-862.1 
553087.989,4267575.714,-886.6 
553087.989,4267375.000,-897.4 
553087.989,4267174.286,-892.7 
553087.989,4266973.571,-863.2 
553087.989,4266772.857,-858.1 
553087.989,4266572.143,-856.3 
553087.989,4266371.429,-855 
553087.989,4266170.714,-855 
553087.989,4265970.000,-855.6 
553087.989,4265769.286,-852.4 
553087.989,4265568.571,-851.5 
553087.989,4265367.857,-863.9 
553087.989,4265167.143,-870 
553087.989,4264966.429,-879.9 
553087.989,4264765.714,-898.5 
553087.989,4264565.000,-925 
553087.989,4264364.286,-914 
553087.989,4264163.571,-866.2 
553087.989,4263962.857,-862.1 
553087.989,4263762.143,-854.4 
553087.989,4263561.429,-855.8 
553087.989,4263360.714,-857.8 
553087.989,4263160.000,-855.7 
553087.989,4262959.286,-855 
553087.989,4262758.571,-852.9 
553087.989,4262557.857,-853.9 
553087.989,4262357.143,-853.3 
553087.989,4262156.429,-854.6 
553087.989,4261955.714,-857.6 
553087.989,4261755.000,-856.2 
553087.989,4261554.286,-849.7 
553087.989,4261353.571,-846.4 
553087.989,4261152.857,-844.1 
553087.989,4260952.143,-842.4 
553087.989,4260751.429,-840.1 
553087.989,4260550.714,-838.8 
553087.989,4260350.000,-837.4 
553087.989,4260149.286,-834.9 
553087.989,4259948.571,-833.4 
553087.989,4259747.857,-824.6 
553087.989,4259547.143,-818.4 
553087.989,4259346.429,-813.8 
553087.989,4259145.714,-810.7 
553087.989,4258945.000,-805 
553087.989,4258744.286,-800 
553087.989,4258543.571,-795.5 
553087.989,4258342.857,-796.8 
553087.989,4258142.143,-827.8 
553087.989,4257941.429,-828.2 
553087.989,4257740.714,-825.1 
553087.989,4257540.000,-802.4 
553087.989,4257339.286,-785.7 
553087.989,4257138.571,-763.1 
553087.989,4256937.857,-731.7 
553087.989,4256737.143,-697.4 
553087.989,4256536.429,-652.2 
553087.989,4256335.714,-626.4 
553087.989,4256135.000,-600.9 
553087.989,4255934.286,-577.4 
553087.989,4254328.571,-582.4 
553087.989,4254127.857,-592.6 
553087.989,4253927.143,-606.3 
553087.989,4253726.429,-620.7 
553087.989,4253525.714,-626.6 
553087.989,4253325.000,-611.3 
553087.989,4253124.286,-588.9 
553087.989,4252923.571,-577 
553289.106,4288450.000,-1151.1 
553289.106,4288249.286,-1148.9 
553289.106,4288048.571,-1144.2 
553289.106,4287847.857,-1137.8 
553289.106,4287647.143,-1131.5 
553289.106,4287446.429,-1126.8 
553289.106,4287245.714,-1123.3 
553289.106,4287045.000,-1118.3 
553289.106,4286844.286,-1110.5 
553289.106,4286643.571,-1106.3 
553289.106,4286442.857,-1104.9 
553289.106,4286242.143,-1102.6 
553289.106,4286041.429,-1090.8 
553289.106,4285840.714,-1075.2 
553289.106,4285640.000,-1056.9 
553289.106,4285439.286,-1034.6 
553289.106,4285238.571,-1012.7 
553289.106,4285037.857,-992.2 
553289.106,4284837.143,-970 
553289.106,4284636.429,-946 
553289.106,4284435.714,-924.7 
553289.106,4284235.000,-893.3 
553289.106,4284034.286,-852.8 
553289.106,4283833.571,-823.3 
553289.106,4283632.857,-804 
553289.106,4283432.143,-786.2 
553289.106,4283231.429,-772.2 
553289.106,4283030.714,-763.3 
553289.106,4282830.000,-754.3 
553289.106,4282629.286,-744.5 
553289.106,4282428.571,-735.2 
553289.106,4282227.857,-727.6 
553289.106,4282027.143,-719.4 
553289.106,4281826.429,-710.2 
553289.106,4281625.714,-703 
553289.106,4281425.000,-697.7 
553289.106,4281224.286,-695.5 
553289.106,4281023.571,-695.7 
553289.106,4280822.857,-697 
553289.106,4280622.143,-700.1 
553289.106,4280421.429,-703 
553289.106,4280220.714,-704.8 
553289.106,4280020.000,-706.7 
553289.106,4279819.286,-707.8 
553289.106,4279618.571,-708.9 
553289.106,4279417.857,-711.6 
553289.106,4279217.143,-714 
553289.106,4279016.429,-715.3 
553289.106,4278815.714,-715.9 
553289.106,4278615.000,-717.3 
553289.106,4278414.286,-717.8 
553289.106,4278213.571,-717.1 
553289.106,4278012.857,-714.2 
553289.106,4277812.143,-712.9 
553289.106,4277611.429,-712.7 
553289.106,4277410.714,-712.9 
553289.106,4277210.000,-716.5 
553289.106,4277009.286,-726.5 
553289.106,4276808.571,-733.9 
553289.106,4276607.857,-740.9 
553289.106,4276407.143,-747 
553289.106,4276206.429,-775.8 
553289.106,4276005.714,-792.8 
553289.106,4275805.000,-801.4 
553289.106,4275604.286,-810.3 
553289.106,4275403.571,-816.5 
553289.106,4275202.857,-820.6 
553289.106,4275002.143,-826.6 
553289.106,4274801.429,-831.7 
553289.106,4274600.714,-834.4 
553289.106,4274400.000,-828.5 
553289.106,4274199.286,-830 
553289.106,4273998.571,-832.2 
553289.106,4273797.857,-828.7 
553289.106,4273597.143,-830.2 
553289.106,4273396.429,-832.7 
553289.106,4273195.714,-835.4 
553289.106,4272995.000,-840.9 
553289.106,4272794.286,-848.1 
553289.106,4272593.571,-852.3 
553289.106,4272392.857,-858.3 
553289.106,4272192.143,-862 
553289.106,4271991.429,-862.4 
553289.106,4271790.714,-860.9 
553289.106,4271590.000,-859.3 
553289.106,4271389.286,-858.2 
553289.106,4271188.571,-857 
553289.106,4270987.857,-856.9 
553289.106,4270787.143,-858.1 
553289.106,4270586.429,-856.9 
553289.106,4270385.714,-855 
553289.106,4270185.000,-852.8 
553289.106,4269984.286,-862.4 
553289.106,4269783.571,-879.8 
553289.106,4269582.857,-891.3 
553289.106,4269382.143,-896.1 
553289.106,4269181.429,-889.4 
553289.106,4268980.714,-883.2 
553289.106,4268780.000,-874.7 
553289.106,4268579.286,-856.4 
553289.106,4268378.571,-854 
553289.106,4268177.857,-853.2 
553289.106,4267977.143,-853.1 
553289.106,4267776.429,-853.9 
553289.106,4267575.714,-862.4 
553289.106,4267375.000,-890.7 
553289.106,4267174.286,-892.4 
553289.106,4266973.571,-858.7 
553289.106,4266772.857,-852.7 
553289.106,4266572.143,-852 
553289.106,4266371.429,-851.2 
553289.106,4266170.714,-849.7 
553289.106,4265970.000,-850.8 
553289.106,4265769.286,-845.6 
553289.106,4265568.571,-858.1 
553289.106,4265367.857,-867.2 
553289.106,4265167.143,-867.5 
553289.106,4264966.429,-879 
553289.106,4264765.714,-892 
553289.106,4264565.000,-923.1 
553289.106,4264364.286,-913.1 
553289.106,4264163.571,-875.7 
553289.106,4263962.857,-852.6 
553289.106,4263762.143,-851.3 
553289.106,4263561.429,-852.6 
553289.106,4263360.714,-853.5 
553289.106,4263160.000,-852.5 
553289.106,4262959.286,-851.3 
553289.106,4262758.571,-849.5 
553289.106,4262557.857,-849.3 
553289.106,4262357.143,-848.4 
553289.106,4262156.429,-849.5 
553289.106,4261955.714,-850.8 
553289.106,4261755.000,-853.6 
553289.106,4261554.286,-847.9 
553289.106,4261353.571,-842.8 
553289.106,4261152.857,-842 
553289.106,4260952.143,-839.5 
553289.106,4260751.429,-837.3 
553289.106,4260550.714,-836.2 
553289.106,4260350.000,-833.6 
553289.106,4260149.286,-831.6 
553289.106,4259948.571,-828.7 
553289.106,4259747.857,-821.9 
553289.106,4259547.143,-817.7 
553289.106,4259346.429,-814.2 
553289.106,4259145.714,-809.7 
553289.106,4258945.000,-803.6 
553289.106,4258744.286,-799.2 
553289.106,4258543.571,-793.3 
553289.106,4258342.857,-790 
553289.106,4258142.143,-804.9 
553289.106,4257941.429,-825.5 
553289.106,4257740.714,-823.2 
553289.106,4257540.000,-811 
553289.106,4257339.286,-789.1 
553289.106,4257138.571,-766.8 
553289.106,4256937.857,-734.7 
553289.106,4256737.143,-697.5 
553289.106,4256536.429,-659.1 
553289.106,4256335.714,-634.5 
553289.106,4256135.000,-609.2 
553289.106,4255934.286,-586.3 
553289.106,4254529.286,-575.6 
553289.106,4254328.571,-589.5 
553289.106,4254127.857,-605.9 
553289.106,4253927.143,-625.7 
553289.106,4253726.429,-635.1 
553289.106,4253525.714,-621.6 
553289.106,4253325.000,-598.7 
553289.106,4253124.286,-583.1 
553289.106,4252923.571,-572 
553490.223,4288450.000,-1147.7 
553490.223,4288249.286,-1143.7 
553490.223,4288048.571,-1137.8 
553490.223,4287847.857,-1132.5 
553490.223,4287647.143,-1126.1 
553490.223,4287446.429,-1120.3 
553490.223,4287245.714,-1116.4 
553490.223,4287045.000,-1112.7 
553490.223,4286844.286,-1107.1 
553490.223,4286643.571,-1103 
553490.223,4286442.857,-1104.9 
553490.223,4286242.143,-1098.7 
553490.223,4286041.429,-1072.1 
553490.223,4285840.714,-1042.8 
553490.223,4285640.000,-1026.3 
553490.223,4285439.286,-1008.8 
553490.223,4285238.571,-984.9 
553490.223,4285037.857,-962.9 
553490.223,4284837.143,-941.8 
553490.223,4284636.429,-918.9 
553490.223,4284435.714,-890.7 
553490.223,4284235.000,-856.9 
553490.223,4284034.286,-827.5 
553490.223,4283833.571,-805.3 
553490.223,4283632.857,-785.2 
553490.223,4283432.143,-770.5 
553490.223,4283231.429,-762.2 
553490.223,4283030.714,-754.4 
553490.223,4282830.000,-745.3 
553490.223,4282629.286,-736.3 
553490.223,4282428.571,-728.3 
553490.223,4282227.857,-720.7 
553490.223,4282027.143,-712 
553490.223,4281826.429,-703.5 
553490.223,4281625.714,-697 
553490.223,4281425.000,-693.3 
553490.223,4281224.286,-692.8 
553490.223,4281023.571,-694.3 
553490.223,4280822.857,-697 
553490.223,4280622.143,-701.5 
553490.223,4280421.429,-704.8 
553490.223,4280220.714,-706.6 
553490.223,4280020.000,-708.4 
553490.223,4279819.286,-708.8 
553490.223,4279618.571,-710.5 
553490.223,4279417.857,-713.4 
553490.223,4279217.143,-715.6 
553490.223,4279016.429,-717.6 
553490.223,4278815.714,-719 
553490.223,4278615.000,-719.3 
553490.223,4278414.286,-720.6 
553490.223,4278213.571,-719.7 
553490.223,4278012.857,-715 
553490.223,4277812.143,-713.4 
553490.223,4277611.429,-710.9 
553490.223,4277410.714,-712.4 
553490.223,4277210.000,-716.1 
553490.223,4277009.286,-722.9 
553490.223,4276808.571,-730.8 
553490.223,4276607.857,-738.8 
553490.223,4276407.143,-745.6 
553490.223,4276206.429,-774 
553490.223,4276005.714,-791 
553490.223,4275805.000,-799 
553490.223,4275604.286,-806.1 
553490.223,4275403.571,-811.4 
553490.223,4275202.857,-815.9 
553490.223,4275002.143,-822.5 
553490.223,4274801.429,-825.7 
553490.223,4274600.714,-816.1 
553490.223,4274400.000,-812 
553490.223,4274199.286,-816.7 
553490.223,4273998.571,-818.6 
553490.223,4273797.857,-822.1 
553490.223,4273597.143,-825.6 
553490.223,4273396.429,-829.1 
553490.223,4273195.714,-835.1 
553490.223,4272995.000,-840.7 
553490.223,4272794.286,-845 
553490.223,4272593.571,-850.3 
553490.223,4272392.857,-857.1 
553490.223,4272192.143,-860 
553490.223,4271991.429,-860.1 
553490.223,4271790.714,-859.2 
553490.223,4271590.000,-857.7 
553490.223,4271389.286,-855.7 
553490.223,4271188.571,-854 
553490.223,4270987.857,-854.2 
553490.223,4270787.143,-855.5 
553490.223,4270586.429,-853.9 
553490.223,4270385.714,-850.9 
553490.223,4270185.000,-856.8 
553490.223,4269984.286,-868.1 
553490.223,4269783.571,-887.2 
553490.223,4269582.857,-893.6 
553490.223,4269382.143,-891.8 
553490.223,4269181.429,-883.2 
553490.223,4268980.714,-875.8 
553490.223,4268780.000,-858 
553490.223,4268579.286,-850.1 
553490.223,4268378.571,-848.2 
553490.223,4268177.857,-847 
553490.223,4267977.143,-849.7 
553490.223,4267776.429,-848.5 
553490.223,4267575.714,-847 
553490.223,4267375.000,-880.3 
553490.223,4267174.286,-889.2 
553490.223,4266973.571,-863.1 
553490.223,4266772.857,-848.5 
553490.223,4266572.143,-847.6 
553490.223,4266371.429,-846.1 
553490.223,4266170.714,-843.8 
553490.223,4265970.000,-843.3 
553490.223,4265769.286,-852.9 
553490.223,4265568.571,-863.5 
553490.223,4265367.857,-864.2 
553490.223,4265167.143,-865.4 
553490.223,4264966.429,-877.7 
553490.223,4264765.714,-883.5 
553490.223,4264565.000,-921.3 
553490.223,4264364.286,-914.3 
553490.223,4264163.571,-892.1 
553490.223,4263962.857,-866.3 
553490.223,4263762.143,-848.6 
553490.223,4263561.429,-849 
553490.223,4263360.714,-855.6 
553490.223,4263160.000,-852.4 
553490.223,4262959.286,-846.9 
553490.223,4262758.571,-846.4 
553490.223,4262557.857,-845.4 
553490.223,4262357.143,-845.2 
553490.223,4262156.429,-845 
553490.223,4261955.714,-845.4 
553490.223,4261755.000,-850.1 
553490.223,4261554.286,-844.5 
553490.223,4261353.571,-841 
553490.223,4261152.857,-838.1 
553490.223,4260952.143,-836.3 
553490.223,4260751.429,-835.5 
553490.223,4260550.714,-833.1 
553490.223,4260350.000,-831.2 
553490.223,4260149.286,-829.2 
553490.223,4259948.571,-825.4 
553490.223,4259747.857,-821.4 
553490.223,4259547.143,-817.3 
553490.223,4259346.429,-815.1 
553490.223,4259145.714,-811 
553490.223,4258945.000,-805.1 
553490.223,4258744.286,-799.7 
553490.223,4258543.571,-794.2 
553490.223,4258342.857,-789 
553490.223,4258142.143,-788.9 
553490.223,4257941.429,-819.6 
553490.223,4257740.714,-819.9 
553490.223,4257540.000,-815.7 
553490.223,4257339.286,-801.9 
553490.223,4257138.571,-774.5 
553490.223,4256937.857,-744.8 
553490.223,4256737.143,-710.4 
553490.223,4256536.429,-671.5 
553490.223,4256335.714,-645.4 
553490.223,4256135.000,-621.5 
553490.223,4255934.286,-599 
553490.223,4255733.571,-583.2 
553490.223,4254730.000,-572.6 
553490.223,4254529.286,-584.7 
553490.223,4254328.571,-602.1 
553490.223,4254127.857,-623.9 
553490.223,4253927.143,-640.3 
553490.223,4253726.429,-637.1 
553490.223,4253525.714,-612.8 
553490.223,4253325.000,-594.5 
553490.223,4253124.286,-582.2 
553490.223,4252923.571,-571.8 
553691.341,4288450.000,-1145.7 
553691.341,4288249.286,-1141 
553691.341,4288048.571,-1132.4 
553691.341,4287847.857,-1127.4 
553691.341,4287647.143,-1120.6 
553691.341,4287446.429,-1112.9 
553691.341,4287245.714,-1109.3 
553691.341,4287045.000,-1106.6 
553691.341,4286844.286,-1100.6 
553691.341,4286643.571,-1098.4 
553691.341,4286442.857,-1089.2 
553691.341,4286242.143,-1066.4 
553691.341,4286041.429,-1034.7 
553691.341,4285840.714,-1001.2 
553691.341,4285640.000,-985.9 
553691.341,4285439.286,-974.6 
553691.341,4285238.571,-953.4 
553691.341,4285037.857,-932.6 
553691.341,4284837.143,-912 
553691.341,4284636.429,-888.2 
553691.341,4284435.714,-859.7 
553691.341,4284235.000,-828.2 
553691.341,4284034.286,-803.6 
553691.341,4283833.571,-785.4 
553691.341,4283632.857,-769.4 
553691.341,4283432.143,-759.2 
553691.341,4283231.429,-752.2 
553691.341,4283030.714,-744.1 
553691.341,4282830.000,-736.1 
553691.341,4282629.286,-728.6 
553691.341,4282428.571,-720.9 
553691.341,4282227.857,-713 
553691.341,4282027.143,-704.8 
553691.341,4281826.429,-697.3 
553691.341,4281625.714,-692.2 
553691.341,4281425.000,-690.3 
553691.341,4281224.286,-691.3 
553691.341,4281023.571,-693.8 
553691.341,4280822.857,-698.1 
553691.341,4280622.143,-702.7 
553691.341,4280421.429,-705.6 
553691.341,4280220.714,-708.2 
553691.341,4280020.000,-710.1 
553691.341,4279819.286,-711.3 
553691.341,4279618.571,-713.1 
553691.341,4279417.857,-715 
553691.341,4279217.143,-717.2 
553691.341,4279016.429,-719.1 
553691.341,4278815.714,-720.4 
553691.341,4278615.000,-720.8 
553691.341,4278414.286,-721.5 
553691.341,4278213.571,-719.4 
553691.341,4278012.857,-715.3 
553691.341,4277812.143,-713 
553691.341,4277611.429,-710.9 
553691.341,4277410.714,-711.3 
553691.341,4277210.000,-713.7 
553691.341,4277009.286,-719.9 
553691.341,4276808.571,-728.5 
553691.341,4276607.857,-736.8 
553691.341,4276407.143,-744.4 
553691.341,4276206.429,-767.5 
553691.341,4276005.714,-785.5 
553691.341,4275805.000,-793.9 
553691.341,4275604.286,-800.9 
553691.341,4275403.571,-805.3 
553691.341,4275202.857,-810.1 
553691.341,4275002.143,-813.4 
553691.341,4274801.429,-809.1 
553691.341,4274600.714,-801.9 
553691.341,4274400.000,-802.1 
553691.341,4274199.286,-805.6 
553691.341,4273998.571,-809.9 
553691.341,4273797.857,-815.7 
553691.341,4273597.143,-822.2 
553691.341,4273396.429,-828.3 
553691.341,4273195.714,-834.3 
553691.341,4272995.000,-840.5 
553691.341,4272794.286,-844.8 
553691.341,4272593.571,-851.8 
553691.341,4272392.857,-856.7 
553691.341,4272192.143,-856.7 
553691.341,4271991.429,-856.7 
553691.341,4271790.714,-855.4 
553691.341,4271590.000,-853.5 
553691.341,4271389.286,-852.4 
553691.341,4271188.571,-851.3 
553691.341,4270987.857,-851.2 
553691.341,4270787.143,-851.7 
553691.341,4270586.429,-851.1 
553691.341,4270385.714,-846.6 
553691.341,4270185.000,-862.2 
553691.341,4269984.286,-871.6 
553691.341,4269783.571,-887.1 
553691.341,4269582.857,-891.2 
553691.341,4269382.143,-889.3 
553691.341,4269181.429,-870.2 
553691.341,4268980.714,-854.3 
553691.341,4268780.000,-846.7 
553691.341,4268579.286,-845.8 
553691.341,4268378.571,-843.6 
553691.341,4268177.857,-841.8 
553691.341,4267977.143,-844.1 
553691.341,4267776.429,-844.2 
553691.341,4267575.714,-843.7 
553691.341,4267375.000,-875.4 
553691.341,4267174.286,-886.1 
553691.341,4266973.571,-868.5 
553691.341,4266772.857,-846.8 
553691.341,4266572.143,-843.5 
553691.341,4266371.429,-840.9 
553691.341,4266170.714,-839.2 
553691.341,4265970.000,-838 
553691.341,4265769.286,-855.6 
553691.341,4265568.571,-864.1 
553691.341,4265367.857,-864 
553691.341,4265167.143,-868.4 
553691.341,4264966.429,-873.4 
553691.341,4264765.714,-881.2 
553691.341,4264565.000,-917.8 
553691.341,4264364.286,-916.6 
553691.341,4264163.571,-890.2 
553691.341,4263962.857,-875.7 
553691.341,4263762.143,-866.1 
553691.341,4263561.429,-859.2 
553691.341,4263360.714,-860.6 
553691.341,4263160.000,-859.4 
553691.341,4262959.286,-849 
553691.341,4262758.571,-842.1 
553691.341,4262557.857,-841.7 
553691.341,4262357.143,-840.9 
553691.341,4262156.429,-841.6 
553691.341,4261955.714,-841.3 
553691.341,4261755.000,-843.2 
553691.341,4261554.286,-840.6 
553691.341,4261353.571,-836.8 
553691.341,4261152.857,-834.6 
553691.341,4260952.143,-832.7 
553691.341,4260751.429,-832.6 
553691.341,4260550.714,-830.7 
553691.341,4260350.000,-828.5 
553691.341,4260149.286,-826.6 
553691.341,4259948.571,-823.8 
553691.341,4259747.857,-820 
553691.341,4259547.143,-817 
553691.341,4259346.429,-814.7 
553691.341,4259145.714,-811.5 
553691.341,4258945.000,-807.1 
553691.341,4258744.286,-800.4 
553691.341,4258543.571,-796.1 
553691.341,4258342.857,-790.3 
553691.341,4258142.143,-783.2 
553691.341,4257941.429,-792.7 
553691.341,4257740.714,-816.8 
553691.341,4257540.000,-815.2 
553691.341,4257339.286,-808.9 
553691.341,4257138.571,-780.5 
553691.341,4256937.857,-754.7 
553691.341,4256737.143,-728.1 
553691.341,4256536.429,-696.3 
553691.341,4256335.714,-659.2 
553691.341,4256135.000,-638.5 
553691.341,4255934.286,-615.7 
553691.341,4255733.571,-592.9 
553691.341,4255532.857,-579.8 
553691.341,4254930.714,-572.6 
553691.341,4254730.000,-584.7 
553691.341,4254529.286,-600.3 
553691.341,4254328.571,-622.4 
553691.341,4254127.857,-642.6 
553691.341,4253927.143,-643.2 
553691.341,4253726.429,-625 
553691.341,4253525.714,-607.5 
553691.341,4253325.000,-597.3 
553691.341,4253124.286,-583.5 
553691.341,4252923.571,-571.9 
553892.458,4288450.000,-1142.5 
553892.458,4288249.286,-1139.7 
553892.458,4288048.571,-1131 
553892.458,4287847.857,-1121.4 
553892.458,4287647.143,-1111.8 
553892.458,4287446.429,-1104.2 
553892.458,4287245.714,-1102.8 
553892.458,4287045.000,-1103.2 
553892.458,4286844.286,-1099.4 
553892.458,4286643.571,-1081.6 
553892.458,4286442.857,-1054.3 
553892.458,4286242.143,-1028.2 
553892.458,4286041.429,-999.1 
553892.458,4285840.714,-968.3 
553892.458,4285640.000,-946.6 
553892.458,4285439.286,-931.1 
553892.458,4285238.571,-913.5 
553892.458,4285037.857,-897.6 
553892.458,4284837.143,-878.5 
553892.458,4284636.429,-856.7 
553892.458,4284435.714,-830 
553892.458,4284235.000,-803.1 
553892.458,4284034.286,-786.3 
553892.458,4283833.571,-774 
553892.458,4283632.857,-758.4 
553892.458,4283432.143,-747.9 
553892.458,4283231.429,-741.4 
553892.458,4283030.714,-734.7 
553892.458,4282830.000,-727.7 
553892.458,4282629.286,-720.6 
553892.458,4282428.571,-713 
553892.458,4282227.857,-705.3 
553892.458,4282027.143,-697.8 
553892.458,4281826.429,-692.5 
553892.458,4281625.714,-689.4 
553892.458,4281425.000,-688.7 
553892.458,4281224.286,-690.8 
553892.458,4281023.571,-694.2 
553892.458,4280822.857,-699.3 
553892.458,4280622.143,-704 
553892.458,4280421.429,-707.5 
553892.458,4280220.714,-710.4 
553892.458,4280020.000,-711.7 
553892.458,4279819.286,-712.9 
553892.458,4279618.571,-714.6 
553892.458,4279417.857,-717.2 
553892.458,4279217.143,-718.4 
553892.458,4279016.429,-717.7 
553892.458,4278815.714,-718.4 
553892.458,4278615.000,-718.1 
553892.458,4278414.286,-718.1 
553892.458,4278213.571,-715.9 
553892.458,4278012.857,-713.4 
553892.458,4277812.143,-709.6 
553892.458,4277611.429,-707.2 
553892.458,4277410.714,-707.7 
553892.458,4277210.000,-709.5 
553892.458,4277009.286,-716.8 
553892.458,4276808.571,-725.2 
553892.458,4276607.857,-734 
553892.458,4276407.143,-742.1 
553892.458,4276206.429,-753.5 
553892.458,4276005.714,-765.3 
553892.458,4275805.000,-785.3 
553892.458,4275604.286,-796.5 
553892.458,4275403.571,-799.2 
553892.458,4275202.857,-800.6 
553892.458,4275002.143,-800 
553892.458,4274801.429,-791.5 
553892.458,4274600.714,-790.4 
553892.458,4274400.000,-793.8 
553892.458,4274199.286,-798.3 
553892.458,4273998.571,-803.9 
553892.458,4273797.857,-810.1 
553892.458,4273597.143,-818.2 
553892.458,4273396.429,-824.9 
553892.458,4273195.714,-830.4 
553892.458,4272995.000,-833.5 
553892.458,4272794.286,-832.9 
553892.458,4272593.571,-840.3 
553892.458,4272392.857,-845.9 
553892.458,4272192.143,-846.1 
553892.458,4271991.429,-846.3 
553892.458,4271790.714,-845.1 
553892.458,4271590.000,-845.3 
553892.458,4271389.286,-848.8 
553892.458,4271188.571,-848 
553892.458,4270987.857,-847.9 
553892.458,4270787.143,-848.9 
553892.458,4270586.429,-848.5 
553892.458,4270385.714,-844.9 
553892.458,4270185.000,-864.6 
553892.458,4269984.286,-872.5 
553892.458,4269783.571,-884.5 
553892.458,4269582.857,-887.4 
553892.458,4269382.143,-887.7 
553892.458,4269181.429,-878 
553892.458,4268980.714,-848.2 
553892.458,4268780.000,-842.8 
553892.458,4268579.286,-841.6 
553892.458,4268378.571,-839.5 
553892.458,4268177.857,-837.7 
553892.458,4267977.143,-840 
553892.458,4267776.429,-839.4 
553892.458,4267575.714,-839.1 
553892.458,4267375.000,-858.9 
553892.458,4267174.286,-880 
553892.458,4266973.571,-871.5 
553892.458,4266772.857,-853.3 
553892.458,4266572.143,-840.6 
553892.458,4266371.429,-836.6 
553892.458,4266170.714,-834.8 
553892.458,4265970.000,-832.8 
553892.458,4265769.286,-840.7 
553892.458,4265568.571,-863.4 
553892.458,4265367.857,-865.1 
553892.458,4265167.143,-870.2 
553892.458,4264966.429,-876.8 
553892.458,4264765.714,-884 
553892.458,4264565.000,-906 
553892.458,4264364.286,-915.8 
553892.458,4264163.571,-882 
553892.458,4263962.857,-876.9 
553892.458,4263762.143,-872.5 
553892.458,4263561.429,-861.3 
553892.458,4263360.714,-861 
553892.458,4263160.000,-863 
553892.458,4262959.286,-859.4 
553892.458,4262758.571,-838.4 
553892.458,4262557.857,-837.8 
553892.458,4262357.143,-838.7 
553892.458,4262156.429,-838.5 
553892.458,4261955.714,-837.2 
553892.458,4261755.000,-836.6 
553892.458,4261554.286,-835.9 
553892.458,4261353.571,-832.2 
553892.458,4261152.857,-831.1 
553892.458,4260952.143,-829.4 
553892.458,4260751.429,-829.1 
553892.458,4260550.714,-828.3 
553892.458,4260350.000,-825.2 
553892.458,4260149.286,-822.3 
553892.458,4259948.571,-821.2 
553892.458,4259747.857,-817.7 
553892.458,4259547.143,-815.9 
553892.458,4259346.429,-812.2 
553892.458,4259145.714,-809.7 
553892.458,4258945.000,-806.2 
553892.458,4258744.286,-802.3 
553892.458,4258543.571,-796.8 
553892.458,4258342.857,-789.5 
553892.458,4258142.143,-782.4 
553892.458,4257941.429,-776.9 
553892.458,4257740.714,-799.9 
553892.458,4257540.000,-812.8 
553892.458,4257339.286,-808.3 
553892.458,4257138.571,-795.3 
553892.458,4256937.857,-774.6 
553892.458,4256737.143,-751 
553892.458,4256536.429,-723.4 
553892.458,4256335.714,-677.1 
553892.458,4256135.000,-657.7 
553892.458,4255934.286,-636.6 
553892.458,4255733.571,-610.9 
553892.458,4255532.857,-589.7 
553892.458,4255332.143,-580.6 
553892.458,4255131.429,-578 
553892.458,4254930.714,-583.5 
553892.458,4254730.000,-596.8 
553892.458,4254529.286,-615.9 
553892.458,4254328.571,-638.2 
553892.458,4254127.857,-655.2 
553892.458,4253927.143,-638.7 
553892.458,4253726.429,-618.6 
553892.458,4253525.714,-608 
553892.458,4253325.000,-598.7 
553892.458,4253124.286,-584.3 
553892.458,4252923.571,-572.3 
554093.575,4288450.000,-1136.2 
554093.575,4288249.286,-1135 
554093.575,4288048.571,-1129.4 
554093.575,4287847.857,-1120.1 
554093.575,4287647.143,-1110.9 
554093.575,4287446.429,-1104.2 
554093.575,4287245.714,-1102.2 
554093.575,4287045.000,-1101.8 
554093.575,4286844.286,-1091.8 
554093.575,4286643.571,-1057.7 
554093.575,4286442.857,-1011.3 
554093.575,4286242.143,-976.1 
554093.575,4286041.429,-954.5 
554093.575,4285840.714,-934.8 
554093.575,4285640.000,-908.7 
554093.575,4285439.286,-884.6 
554093.575,4285238.571,-870.8 
554093.575,4285037.857,-859.3 
554093.575,4284837.143,-842.4 
554093.575,4284636.429,-824.1 
554093.575,4284435.714,-799.4 
554093.575,4284235.000,-780.1 
554093.575,4284034.286,-771.2 
554093.575,4283833.571,-761.6 
554093.575,4283632.857,-747 
554093.575,4283432.143,-737 
554093.575,4283231.429,-731.6 
554093.575,4283030.714,-725.7 
554093.575,4282830.000,-719.4 
554093.575,4282629.286,-712.5 
554093.575,4282428.571,-705.5 
554093.575,4282227.857,-698.6 
554093.575,4282027.143,-692.4 
554093.575,4281826.429,-689.4 
554093.575,4281625.714,-688.2 
554093.575,4281425.000,-688.7 
554093.575,4281224.286,-691.6 
554093.575,4281023.571,-694.8 
554093.575,4280822.857,-699.7 
554093.575,4280622.143,-705 
554093.575,4280421.429,-708.4 
554093.575,4280220.714,-710.9 
554093.575,4280020.000,-713 
554093.575,4279819.286,-713.9 
554093.575,4279618.571,-713.2 
554093.575,4279417.857,-715.5 
554093.575,4279217.143,-714.6 
554093.575,4279016.429,-714.5 
554093.575,4278815.714,-716.2 
554093.575,4278615.000,-716.3 
554093.575,4278414.286,-714.8 
554093.575,4278213.571,-713.2 
554093.575,4278012.857,-710.9 
554093.575,4277812.143,-706.8 
554093.575,4277611.429,-705 
554093.575,4277410.714,-705 
554093.575,4277210.000,-707.4 
554093.575,4277009.286,-713.6 
554093.575,4276808.571,-722.3 
554093.575,4276607.857,-731.4 
554093.575,4276407.143,-740 
554093.575,4276206.429,-748 
554093.575,4276005.714,-755.5 
554093.575,4275805.000,-767.4 
554093.575,4275604.286,-783 
554093.575,4275403.571,-779.8 
554093.575,4275202.857,-775.8 
554093.575,4275002.143,-777.3 
554093.575,4274801.429,-777.9 
554093.575,4274600.714,-781.8 
554093.575,4274400.000,-788.1 
554093.575,4274199.286,-794.6 
554093.575,4273998.571,-800.1 
554093.575,4273797.857,-806.3 
554093.575,4273597.143,-813.6 
554093.575,4273396.429,-815.5 
554093.575,4273195.714,-820.3 
554093.575,4272995.000,-826.1 
554093.575,4272794.286,-829.6 
554093.575,4272593.571,-834.8 
554093.575,4272392.857,-838.6 
554093.575,4272192.143,-839.1 
554093.575,4271991.429,-839 
554093.575,4271790.714,-838.4 
554093.575,4271590.000,-839.3 
554093.575,4271389.286,-844.9 
554093.575,4271188.571,-844.3 
554093.575,4270987.857,-844.5 
554093.575,4270787.143,-845.3 
554093.575,4270586.429,-844.1 
554093.575,4270385.714,-847.2 
554093.575,4270185.000,-863.4 
554093.575,4269984.286,-871.9 
554093.575,4269783.571,-879.6 
554093.575,4269582.857,-882.7 
554093.575,4269382.143,-884.4 
554093.575,4269181.429,-883.6 
554093.575,4268980.714,-845.6 
554093.575,4268780.000,-838.4 
554093.575,4268579.286,-836.4 
554093.575,4268378.571,-836.1 
554093.575,4268177.857,-835.1 
554093.575,4267977.143,-836.5 
554093.575,4267776.429,-835.5 
554093.575,4267575.714,-835.3 
554093.575,4267375.000,-839.4 
554093.575,4267174.286,-865.7 
554093.575,4266973.571,-875.2 
554093.575,4266772.857,-864.7 
554093.575,4266572.143,-856.9 
554093.575,4266371.429,-848.9 
554093.575,4266170.714,-830.8 
554093.575,4265970.000,-827.1 
554093.575,4265769.286,-828.7 
554093.575,4265568.571,-836.8 
554093.575,4265367.857,-834.4 
554093.575,4265167.143,-836.2 
554093.575,4264966.429,-872.3 
554093.575,4264765.714,-882.6 
554093.575,4264565.000,-895 
554093.575,4264364.286,-912.3 
554093.575,4264163.571,-886.1 
554093.575,4263962.857,-875.2 
554093.575,4263762.143,-863.8 
554093.575,4263561.429,-859.9 
554093.575,4263360.714,-860.8 
554093.575,4263160.000,-863 
554093.575,4262959.286,-859.8 
554093.575,4262758.571,-834.1 
554093.575,4262557.857,-833.4 
554093.575,4262357.143,-834 
554093.575,4262156.429,-833.5 
554093.575,4261955.714,-834.1 
554093.575,4261755.000,-832.1 
554093.575,4261554.286,-830.5 
554093.575,4261353.571,-828 
554093.575,4261152.857,-827.9 
554093.575,4260952.143,-827.1 
554093.575,4260751.429,-825.9 
554093.575,4260550.714,-823.5 
554093.575,4260350.000,-821.2 
554093.575,4260149.286,-818.7 
554093.575,4259948.571,-817.5 
554093.575,4259747.857,-815.7 
554093.575,4259547.143,-814.5 
554093.575,4259346.429,-810.5 
554093.575,4259145.714,-808.3 
554093.575,4258945.000,-802.4 
554093.575,4258744.286,-800.5 
554093.575,4258543.571,-794.9 
554093.575,4258342.857,-788.5 
554093.575,4258142.143,-781.8 
554093.575,4257941.429,-774.7 
554093.575,4257740.714,-777.8 
554093.575,4257540.000,-807.9 
554093.575,4257339.286,-806.7 
554093.575,4257138.571,-801.7 
554093.575,4256937.857,-787.6 
554093.575,4256737.143,-767.7 
554093.575,4256536.429,-745.4 
554093.575,4256335.714,-712.7 
554093.575,4256135.000,-674.8 
554093.575,4255934.286,-654.1 
554093.575,4255733.571,-630.1 
554093.575,4255532.857,-606.4 
554093.575,4255332.143,-592.8 
554093.575,4255131.429,-590.1 
554093.575,4254930.714,-596.9 
554093.575,4254730.000,-608.3 
554093.575,4254529.286,-632.2 
554093.575,4254328.571,-655 
554093.575,4254127.857,-661.4 
554093.575,4253927.143,-633.1 
554093.575,4253726.429,-621.5 
554093.575,4253525.714,-611.6 
554093.575,4253325.000,-599.7 
554093.575,4253124.286,-585.8 
554093.575,4252923.571,-573.7 
554294.693,4288450.000,-1123.5 
554294.693,4288249.286,-1124.3 
554294.693,4288048.571,-1123.9 
554294.693,4287847.857,-1120.4 
554294.693,4287647.143,-1117.5 
554294.693,4287446.429,-1112.9 
554294.693,4287245.714,-1099.6 
554294.693,4287045.000,-1082.7 
554294.693,4286844.286,-1061.8 
554294.693,4286643.571,-1031.9 
554294.693,4286442.857,-990.4 
554294.693,4286242.143,-941.6 
554294.693,4286041.429,-903.7 
554294.693,4285840.714,-885 
554294.693,4285640.000,-864.1 
554294.693,4285439.286,-831.5 
554294.693,4285238.571,-817.5 
554294.693,4285037.857,-816.3 
554294.693,4284837.143,-808.5 
554294.693,4284636.429,-790.5 
554294.693,4284435.714,-770.9 
554294.693,4284235.000,-760.6 
554294.693,4284034.286,-754.5 
554294.693,4283833.571,-745 
554294.693,4283632.857,-733.9 
554294.693,4283432.143,-726.7 
554294.693,4283231.429,-721.5 
554294.693,4283030.714,-716.9 
554294.693,4282830.000,-712 
554294.693,4282629.286,-705.9 
554294.693,4282428.571,-700.3 
554294.693,4282227.857,-694.4 
554294.693,4282027.143,-689.9 
554294.693,4281826.429,-687.7 
554294.693,4281625.714,-687.7 
554294.693,4281425.000,-689.2 
554294.693,4281224.286,-691.8 
554294.693,4281023.571,-694.2 
554294.693,4280822.857,-698.8 
554294.693,4280622.143,-703.1 
554294.693,4280421.429,-706.6 
554294.693,4280220.714,-709.2 
554294.693,4280020.000,-709.6 
554294.693,4279819.286,-710.3 
554294.693,4279618.571,-710.5 
554294.693,4279417.857,-710.3 
554294.693,4279217.143,-711.7 
554294.693,4279016.429,-712.3 
554294.693,4278815.714,-711.7 
554294.693,4278615.000,-712.3 
554294.693,4278414.286,-712.5 
554294.693,4278213.571,-711.3 
554294.693,4278012.857,-709.4 
554294.693,4277812.143,-705.7 
554294.693,4277611.429,-704 
554294.693,4277410.714,-704 
554294.693,4277210.000,-705.6 
554294.693,4277009.286,-711.1 
554294.693,4276808.571,-719.9 
554294.693,4276607.857,-729.6 
554294.693,4276407.143,-737.8 
554294.693,4276206.429,-746.1 
554294.693,4276005.714,-752.4 
554294.693,4275805.000,-757 
554294.693,4275604.286,-762.1 
554294.693,4275403.571,-760.9 
554294.693,4275202.857,-761.8 
554294.693,4275002.143,-765.5 
554294.693,4274801.429,-770.9 
554294.693,4274600.714,-777.4 
554294.693,4274400.000,-783.9 
554294.693,4274199.286,-794.9 
554294.693,4273998.571,-802 
554294.693,4273797.857,-805.1 
554294.693,4273597.143,-809.9 
554294.693,4273396.429,-815.8 
554294.693,4273195.714,-820.2 
554294.693,4272995.000,-824.7 
554294.693,4272794.286,-829.3 
554294.693,4272593.571,-832.6 
554294.693,4272392.857,-835.2 
554294.693,4272192.143,-835.9 
554294.693,4271991.429,-834.9 
554294.693,4271790.714,-834.7 
554294.693,4271590.000,-834.3 
554294.693,4271389.286,-836.7 
554294.693,4271188.571,-837.9 
554294.693,4270987.857,-839.2 
554294.693,4270787.143,-840.8 
554294.693,4270586.429,-839.5 
554294.693,4270385.714,-841.8 
554294.693,4270185.000,-860.9 
554294.693,4269984.286,-867.7 
554294.693,4269783.571,-875.5 
554294.693,4269582.857,-879.2 
554294.693,4269382.143,-881.6 
554294.693,4269181.429,-878.5 
554294.693,4268980.714,-852.6 
554294.693,4268780.000,-836 
554294.693,4268579.286,-832.3 
554294.693,4268378.571,-832.7 
554294.693,4268177.857,-832.4 
554294.693,4267977.143,-832.6 
554294.693,4267776.429,-832.8 
554294.693,4267575.714,-832 
554294.693,4267375.000,-831.7 
554294.693,4267174.286,-840.9 
554294.693,4266973.571,-859.9 
554294.693,4266772.857,-855 
554294.693,4266572.143,-854.1 
554294.693,4266371.429,-859 
554294.693,4266170.714,-831.5 
554294.693,4265970.000,-823.6 
554294.693,4265769.286,-822.6 
554294.693,4265568.571,-824.6 
554294.693,4265367.857,-820.1 
554294.693,4265167.143,-819.6 
554294.693,4264966.429,-848.1 
554294.693,4264765.714,-876 
554294.693,4264565.000,-889.8 
554294.693,4264364.286,-907 
554294.693,4264163.571,-901.1 
554294.693,4263962.857,-855.3 
554294.693,4263762.143,-853.7 
554294.693,4263561.429,-855.6 
554294.693,4263360.714,-858.9 
554294.693,4263160.000,-862.5 
554294.693,4262959.286,-837.9 
554294.693,4262758.571,-829.5 
554294.693,4262557.857,-829 
554294.693,4262357.143,-828.9 
554294.693,4262156.429,-830 
554294.693,4261955.714,-829.8 
554294.693,4261755.000,-826.5 
554294.693,4261554.286,-825.2 
554294.693,4261353.571,-824.2 
554294.693,4261152.857,-824 
554294.693,4260952.143,-823.8 
554294.693,4260751.429,-821.1 
554294.693,4260550.714,-818.5 
554294.693,4260350.000,-819.1 
554294.693,4260149.286,-815.8 
554294.693,4259948.571,-815.7 
554294.693,4259747.857,-813.8 
554294.693,4259547.143,-810.2 
554294.693,4259346.429,-807.2 
554294.693,4259145.714,-805.6 
554294.693,4258945.000,-799.5 
554294.693,4258744.286,-797.8 
554294.693,4258543.571,-791.5 
554294.693,4258342.857,-785.4 
554294.693,4258142.143,-780.8 
554294.693,4257941.429,-774.4 
554294.693,4257740.714,-769.1 
554294.693,4257540.000,-783.7 
554294.693,4257339.286,-799.5 
554294.693,4257138.571,-802.8 
554294.693,4256937.857,-795.8 
554294.693,4256737.143,-779.5 
554294.693,4256536.429,-759.6 
554294.693,4256335.714,-735.8 
554294.693,4256135.000,-694 
554294.693,4255934.286,-669.8 
554294.693,4255733.571,-644 
554294.693,4255532.857,-622.4 
554294.693,4255332.143,-609.1 
554294.693,4255131.429,-606 
554294.693,4254930.714,-611.6 
554294.693,4254730.000,-624.4 
554294.693,4254529.286,-650.2 
554294.693,4254328.571,-666 
554294.693,4254127.857,-662.4 
554294.693,4253927.143,-633.1 
554294.693,4253726.429,-625 
554294.693,4253525.714,-615.5 
554294.693,4253325.000,-604.5 
554294.693,4253124.286,-590.3 
554294.693,4252923.571,-577.2 
554495.810,4288450.000,-1106.4 
554495.810,4288249.286,-1110.5 
554495.810,4288048.571,-1116.9 
554495.810,4287847.857,-1119.6 
554495.810,4287647.143,-1120.4 
554495.810,4287446.429,-1110.8 
554495.810,4287245.714,-1086.1 
554495.810,4287045.000,-1055.7 
554495.810,4286844.286,-1027.5 
