578945.410,4267781.612,-53.7 
578945.410,4267731.567,-58.4 
578945.410,4267681.523,-63 
578945.410,4267631.478,-67.2 
578945.410,4267581.434,-71.2 
578945.410,4267531.389,-74.7 
578945.410,4267481.345,-77.8 
578945.410,4267431.300,-80.6 
578945.410,4267381.256,-82.8 
578945.410,4267331.211,-84.8 
578945.410,4267281.167,-86.3 
578945.410,4267231.122,-87.7 
578945.410,4267181.077,-88.8 
578945.410,4267131.033,-89.4 
578945.410,4267080.988,-89.5 
578945.410,4267030.944,-90.2 
578945.410,4266980.899,-91.2 
578945.410,4266930.855,-92 
578945.410,4266880.810,-92.9 
578945.410,4266830.766,-93.6 
578945.410,4266780.721,-94.6 
578945.410,4266730.677,-95.7 
578945.410,4266680.632,-96.1 
578945.410,4266630.588,-96.7 
578945.410,4266580.543,-97.1 
578945.410,4266530.499,-97.3 
578945.410,4266480.454,-97.6 
578945.410,4266430.410,-98.2 
578945.410,4266380.365,-98.7 
578945.410,4266330.321,-98.8 
578945.410,4266280.276,-98.7 
578945.410,4266230.232,-98.6 
578945.410,4266180.187,-98.7 
578945.410,4266130.142,-99 
578945.410,4266080.098,-99.4 
578945.410,4266030.053,-99.3 
578945.410,4265980.009,-99.6 
578945.410,4265929.964,-99.1 
578945.410,4265879.920,-99 
578945.410,4265829.875,-98.7 
578945.410,4265779.831,-98.9 
578945.410,4265729.786,-99.2 
578945.410,4265679.742,-99 
578945.410,4265629.697,-99.2 
578945.410,4265579.653,-99.1 
578945.410,4265529.608,-98.4 
578945.410,4265479.564,-97.9 
578945.410,4265429.519,-98.8 
578945.410,4265379.475,-98.4 
578945.410,4265329.430,-97.9 
578945.410,4265279.386,-97.9 
578945.410,4265229.341,-98.7 
578945.410,4265179.297,-98.9 
578945.410,4265129.252,-98.9 
578945.410,4265079.207,-98.8 
578945.410,4265029.163,-98 
578945.410,4264979.118,-97.5 
578945.410,4264929.074,-97.4 
578945.410,4264879.029,-97.6 
578945.410,4264828.985,-97.8 
578945.410,4264778.940,-97.4 
578945.410,4264728.896,-97.2 
578945.410,4264678.851,-96.9 
578945.410,4264628.807,-96.6 
578945.410,4264578.762,-96.1 
578945.410,4264528.718,-95.8 
578945.410,4264478.673,-95.6 
578945.410,4264428.629,-94.4 
578945.410,4264378.584,-94.5 
578945.410,4264328.540,-94.8 
578945.410,4264278.495,-94.9 
578945.410,4264228.451,-94.6 
578945.410,4264178.406,-94.2 
578945.410,4264128.362,-94 
578945.410,4264078.317,-94.6 
578945.410,4264028.272,-93.7 
578945.410,4263978.228,-93.8 
578945.410,4263928.183,-93.9 
578945.410,4263878.139,-93.2 
578945.410,4263828.094,-92.4 
578945.410,4263778.050,-92.2 
578945.410,4263728.005,-92 
578945.410,4263677.961,-92.1 
578945.410,4263627.916,-92.2 
578945.410,4263577.872,-91.9 
578945.410,4263527.827,-91.5 
578945.410,4263477.783,-91.6 
578945.410,4263427.738,-92.3 
578945.410,4263377.694,-91 
578945.410,4263327.649,-91 
578945.410,4263277.605,-92 
578945.410,4263227.560,-92.5 
578945.410,4263177.516,-92.1 
578945.410,4263127.471,-92.5 
578945.410,4263077.427,-93 
578945.410,4263027.382,-93.8 
578945.410,4262977.337,-93.2 
578945.410,4262927.293,-91.5 
578945.410,4262877.248,-89.6 
578945.410,4262827.204,-88.8 
578945.410,4262777.159,-88.4 
578945.410,4262727.115,-87.6 
578945.410,4262677.070,-87 
578945.410,4262627.026,-87 
578945.410,4262576.981,-87.9 
578945.410,4262526.937,-88 
578945.410,4262476.892,-87.3 
578945.410,4262426.848,-86.4 
578945.410,4262376.803,-84.9 
578945.410,4262326.759,-84.4 
578945.410,4262276.714,-84.3 
578945.410,4262226.670,-83.3 
578945.410,4262176.625,-82.4 
578945.410,4262126.581,-82.4 
578945.410,4262076.536,-82.5 
578945.410,4262026.492,-82.2 
578945.410,4261976.447,-81.7 
578945.410,4261926.402,-81.4 
578945.410,4261876.358,-81.4 
578945.410,4261826.313,-81.2 
578945.410,4261776.269,-80.8 
578945.410,4261726.224,-79.9 
578945.410,4261676.180,-79.7 
578945.410,4261626.135,-80.4 
578945.410,4261576.091,-80.3 
578945.410,4261526.046,-79.9 
578945.410,4261476.002,-80.4 
578945.410,4261425.957,-80.3 
578945.410,4261375.913,-79.6 
578945.410,4261325.868,-78.6 
578945.410,4261275.824,-78.1 
578945.410,4261225.779,-78 
578945.410,4261175.735,-77.9 
578945.410,4261125.690,-77.3 
578945.410,4261075.646,-76.9 
578945.410,4261025.601,-77 
578945.410,4260975.557,-76.4 
578945.410,4260925.512,-76.5 
578945.410,4260875.467,-75.7 
578945.410,4260825.423,-74.9 
578945.410,4260775.378,-74.6 
578945.410,4260725.334,-74.4 
578945.410,4260675.289,-73.9 
578945.410,4260625.245,-73.7 
578945.410,4260575.200,-72.9 
578945.410,4260525.156,-73.3 
578945.410,4260475.111,-73.1 
578945.410,4260425.067,-73.5 
578945.410,4260375.022,-73.2 
578945.410,4260324.978,-72.7 
578945.410,4260274.933,-72 
578945.410,4260224.889,-71.6 
578945.410,4260174.844,-70.5 
578945.410,4260124.800,-69.1 
578945.410,4260074.755,-69.5 
578945.410,4260024.711,-70 
578945.410,4259974.666,-68.3 
578945.410,4259924.622,-66.1 
578945.410,4259874.577,-66.8 
578945.410,4259824.533,-66.7 
578945.410,4259774.488,-65.7 
578945.410,4259724.443,-65.1 
578945.410,4259674.399,-64.8 
578945.410,4259624.354,-64.3 
578945.410,4259574.310,-63.1 
578945.410,4259524.265,-62.6 
578945.410,4259474.221,-63.8 
578945.410,4259424.176,-63.3 
578945.410,4259374.132,-62.4 
578945.410,4259324.087,-61.3 
578945.410,4259274.043,-59.2 
578945.410,4259223.998,-59.7 
578945.410,4259173.954,-59.1 
578945.410,4259123.909,-60 
578945.410,4259073.865,-60 
578945.410,4259023.820,-59.6 
578945.410,4258973.776,-58.9 
578945.410,4258923.731,-58.6 
578945.410,4258873.687,-58.4 
578945.410,4258823.642,-58 
578945.410,4258773.598,-56.2 
578945.410,4258723.553,-53.5 
578945.410,4258673.508,-51.3 
578945.410,4258623.464,-45.8 
578945.410,4258573.419,-38.3 
578945.410,4258523.375,-32.6 
578945.410,4258473.330,-32.4 
578945.410,4258423.286,-33 
578945.410,4258373.241,-30 
578945.410,4258323.197,-23.8 
578945.410,4258273.152,-19 
578945.410,4258223.108,-14.1 
578945.410,4258173.063,-11.2 
578945.410,4258123.019,-9.5 
578945.410,4258072.974,-8.2 
578945.410,4258022.930,-7.3 
578945.410,4257972.885,-6.5 
578945.410,4257922.841,-6 
578945.410,4257872.796,-6.3 
578945.410,4257822.752,-6.3 
578945.410,4257772.707,-6.4 
578945.410,4257722.663,-6.1 
578945.410,4257672.618,-6 
578945.410,4257622.573,-6.4 
578945.410,4257572.529,-6.6 
578945.410,4257522.484,-6.7 
578945.410,4257472.440,-6.9 
578945.410,4257422.395,-7.3 
578945.410,4257372.351,-7.6 
578945.410,4257322.306,-7.8 
578945.410,4257272.262,-8 
578945.410,4255820.971,-14.1 
578945.410,4255770.926,-14.6 
578945.410,4255720.882,-15.1 
578945.410,4255670.837,-14.7 
578945.410,4255620.793,-11.1 
578945.410,4255570.748,-12.7 
578945.410,4255520.703,-14 
578945.410,4255470.659,-16.5 
578945.410,4255420.614,-12.6 
578945.410,4255370.570,-11.1 
578945.410,4255320.525,-12.4 
578945.410,4255270.481,-13.2 
578945.410,4255220.436,-12.4 
578945.410,4255170.392,-12.4 
578945.410,4255120.347,-12.9 
578945.410,4255070.303,-13.8 
578995.480,4285447.329,-174 
578995.480,4285397.284,-164.8 
578995.480,4285347.240,-157 
578995.480,4285297.195,-152.5 
578995.480,4285247.150,-149.9 
578995.480,4285197.106,-148.2 
578995.480,4285147.061,-147.3 
578995.480,4285097.017,-147.1 
578995.480,4285046.972,-147.3 
578995.480,4284996.928,-147 
578995.480,4284946.883,-145.1 
578995.480,4284896.839,-140.3 
578995.480,4284846.794,-130.7 
578995.480,4284796.750,-119.2 
578995.480,4284746.705,-107.3 
578995.480,4284696.661,-97.6 
578995.480,4284646.616,-95.2 
578995.480,4284596.572,-95.5 
578995.480,4284546.527,-89.6 
578995.480,4284496.483,-84.7 
578995.480,4284446.438,-82.9 
578995.480,4284396.394,-83.9 
578995.480,4284346.349,-86.9 
578995.480,4284296.305,-89.5 
578995.480,4284246.260,-90.8 
578995.480,4284196.215,-90.9 
578995.480,4284146.171,-90.8 
578995.480,4284096.126,-90.6 
578995.480,4284046.082,-90.4 
578995.480,4283996.037,-90 
578995.480,4283945.993,-89.2 
578995.480,4283895.948,-88.2 
578995.480,4283845.904,-87.1 
578995.480,4283795.859,-85.8 
578995.480,4283745.815,-84.4 
578995.480,4283695.770,-83 
578995.480,4283645.726,-81.3 
578995.480,4283595.681,-79.7 
578995.480,4283545.637,-78.5 
578995.480,4283495.592,-77.4 
578995.480,4283445.548,-76.4 
578995.480,4283395.503,-75 
578995.480,4283345.459,-72.7 
578995.480,4283295.414,-69.3 
578995.480,4283245.370,-65.3 
578995.480,4283195.325,-61.1 
578995.480,4283145.280,-57.6 
578995.480,4283095.236,-54.9 
578995.480,4283045.191,-52.9 
578995.480,4282995.147,-51.7 
578995.480,4282945.102,-51.6 
578995.480,4282895.058,-51.8 
578995.480,4282845.013,-51.9 
578995.480,4282794.969,-51.9 
578995.480,4282744.924,-51.9 
578995.480,4282694.880,-52 
578995.480,4268432.191,-20.9 
578995.480,4268382.146,-20.9 
578995.480,4268332.102,-20.9 
578995.480,4268282.057,-20.9 
578995.480,4268232.012,-20.9 
578995.480,4268181.968,-20.9 
578995.480,4268131.923,-20.3 
578995.480,4268081.879,-20.4 
578995.480,4268031.834,-19.7 
578995.480,4267981.790,-19.8 
578995.480,4267931.745,-21.5 
578995.480,4267881.701,-29.6 
578995.480,4267831.656,-40.1 
578995.480,4267781.612,-47.1 
578995.480,4267731.567,-53.6 
578995.480,4267681.523,-58.7 
578995.480,4267631.478,-63.9 
578995.480,4267581.434,-68.7 
578995.480,4267531.389,-72.5 
578995.480,4267481.345,-76.2 
578995.480,4267431.300,-79.1 
578995.480,4267381.256,-81.6 
578995.480,4267331.211,-83.6 
578995.480,4267281.167,-85.1 
578995.480,4267231.122,-86.4 
578995.480,4267181.077,-87.2 
578995.480,4267131.033,-87.6 
578995.480,4267080.988,-87.6 
578995.480,4267030.944,-88.4 
578995.480,4266980.899,-89.5 
578995.480,4266930.855,-90.6 
578995.480,4266880.810,-91.6 
578995.480,4266830.766,-92.3 
578995.480,4266780.721,-93.3 
578995.480,4266730.677,-94.6 
578995.480,4266680.632,-95.2 
578995.480,4266630.588,-95.8 
578995.480,4266580.543,-96.2 
578995.480,4266530.499,-96.4 
578995.480,4266480.454,-96.9 
578995.480,4266430.410,-97.5 
578995.480,4266380.365,-97.9 
578995.480,4266330.321,-98.1 
578995.480,4266280.276,-98 
578995.480,4266230.232,-98 
578995.480,4266180.187,-97.7 
578995.480,4266130.142,-97.9 
578995.480,4266080.098,-97.7 
578995.480,4266030.053,-98.1 
578995.480,4265980.009,-98.5 
578995.480,4265929.964,-98.3 
578995.480,4265879.920,-98.3 
578995.480,4265829.875,-97.9 
578995.480,4265779.831,-98 
578995.480,4265729.786,-98.2 
578995.480,4265679.742,-98.2 
578995.480,4265629.697,-98.2 
578995.480,4265579.653,-98.1 
578995.480,4265529.608,-97.9 
578995.480,4265479.564,-97.5 
578995.480,4265429.519,-98 
578995.480,4265379.475,-97.4 
578995.480,4265329.430,-97.8 
578995.480,4265279.386,-97 
578995.480,4265229.341,-97.7 
578995.480,4265179.297,-98.1 
578995.480,4265129.252,-97.9 
578995.480,4265079.207,-98 
578995.480,4265029.163,-97.1 
578995.480,4264979.118,-96.5 
578995.480,4264929.074,-96.1 
578995.480,4264879.029,-96 
578995.480,4264828.985,-96.6 
578995.480,4264778.940,-96.3 
578995.480,4264728.896,-96 
578995.480,4264678.851,-95.6 
578995.480,4264628.807,-95.3 
578995.480,4264578.762,-94.9 
578995.480,4264528.718,-94.7 
578995.480,4264478.673,-94.5 
578995.480,4264428.629,-93.2 
578995.480,4264378.584,-93.1 
578995.480,4264328.540,-93.5 
578995.480,4264278.495,-93.6 
578995.480,4264228.451,-93.1 
578995.480,4264178.406,-93.1 
578995.480,4264128.362,-92.9 
578995.480,4264078.317,-93.6 
578995.480,4264028.272,-92.7 
578995.480,4263978.228,-92.4 
578995.480,4263928.183,-92.3 
578995.480,4263878.139,-91.6 
578995.480,4263828.094,-90.5 
578995.480,4263778.050,-90.5 
578995.480,4263728.005,-90.5 
578995.480,4263677.961,-90.4 
578995.480,4263627.916,-90.5 
578995.480,4263577.872,-90.1 
578995.480,4263527.827,-89.7 
578995.480,4263477.783,-89.8 
578995.480,4263427.738,-90.4 
578995.480,4263377.694,-89 
578995.480,4263327.649,-89 
578995.480,4263277.605,-89.9 
578995.480,4263227.560,-90.5 
578995.480,4263177.516,-90.1 
578995.480,4263127.471,-90.1 
578995.480,4263077.427,-90.5 
578995.480,4263027.382,-90.6 
578995.480,4262977.337,-90.3 
578995.480,4262927.293,-89.3 
578995.480,4262877.248,-87.5 
578995.480,4262827.204,-85.7 
578995.480,4262777.159,-85 
578995.480,4262727.115,-84.5 
578995.480,4262677.070,-84.5 
578995.480,4262627.026,-84 
578995.480,4262576.981,-84.6 
578995.480,4262526.937,-84.6 
578995.480,4262476.892,-84.3 
578995.480,4262426.848,-83.2 
578995.480,4262376.803,-82.2 
578995.480,4262326.759,-81.5 
578995.480,4262276.714,-81.4 
578995.480,4262226.670,-81.1 
578995.480,4262176.625,-80.7 
578995.480,4262126.581,-80.5 
578995.480,4262076.536,-80.5 
578995.480,4262026.492,-80.2 
578995.480,4261976.447,-79.8 
578995.480,4261926.402,-79.4 
578995.480,4261876.358,-79.4 
578995.480,4261826.313,-78.9 
578995.480,4261776.269,-78.5 
578995.480,4261726.224,-77.8 
578995.480,4261676.180,-78.3 
578995.480,4261626.135,-78.4 
578995.480,4261576.091,-78.2 
578995.480,4261526.046,-77.8 
578995.480,4261476.002,-78.3 
578995.480,4261425.957,-78.5 
578995.480,4261375.913,-77.8 
578995.480,4261325.868,-77.1 
578995.480,4261275.824,-76.5 
578995.480,4261225.779,-76.2 
578995.480,4261175.735,-76.3 
578995.480,4261125.690,-75.4 
578995.480,4261075.646,-74.7 
578995.480,4261025.601,-75 
578995.480,4260975.557,-74.8 
578995.480,4260925.512,-74.7 
578995.480,4260875.467,-73.6 
578995.480,4260825.423,-72.9 
578995.480,4260775.378,-72.5 
578995.480,4260725.334,-72.3 
578995.480,4260675.289,-70.9 
578995.480,4260625.245,-70.8 
578995.480,4260575.200,-69.8 
578995.480,4260525.156,-70.3 
578995.480,4260475.111,-70 
578995.480,4260425.067,-70.5 
578995.480,4260375.022,-70.5 
578995.480,4260324.978,-70 
578995.480,4260274.933,-69.3 
578995.480,4260224.889,-68.7 
578995.480,4260174.844,-67.8 
578995.480,4260124.800,-67.1 
578995.480,4260074.755,-67.3 
578995.480,4260024.711,-67.2 
578995.480,4259974.666,-65.4 
578995.480,4259924.622,-62.7 
578995.480,4259874.577,-63.7 
578995.480,4259824.533,-63.6 
578995.480,4259774.488,-62.9 
578995.480,4259724.443,-62.9 
578995.480,4259674.399,-62.7 
578995.480,4259624.354,-62.2 
578995.480,4259574.310,-61.1 
578995.480,4259524.265,-60.2 
578995.480,4259474.221,-60.6 
578995.480,4259424.176,-59 
578995.480,4259374.132,-59.1 
578995.480,4259324.087,-57.8 
578995.480,4259274.043,-57.1 
578995.480,4259223.998,-57 
578995.480,4259173.954,-55.9 
578995.480,4259123.909,-55.6 
578995.480,4259073.865,-56.1 
578995.480,4259023.820,-55.7 
578995.480,4258973.776,-55 
578995.480,4258923.731,-55.1 
578995.480,4258873.687,-55.5 
578995.480,4258823.642,-54.1 
578995.480,4258773.598,-50.8 
578995.480,4258723.553,-43.9 
578995.480,4258673.508,-37.9 
578995.480,4258623.464,-27.8 
578995.480,4258573.419,-19.7 
578995.480,4258523.375,-15.5 
578995.480,4258473.330,-14.7 
578995.480,4258423.286,-14.8 
578995.480,4258373.241,-13.6 
578995.480,4258323.197,-11.2 
578995.480,4258273.152,-9.7 
578995.480,4258223.108,-8.4 
578995.480,4258173.063,-7.4 
578995.480,4258123.019,-6.5 
578995.480,4258072.974,-6 
578995.480,4258022.930,-5.8 
578995.480,4257972.885,-5.9 
578995.480,4257922.841,-6.2 
578995.480,4257872.796,-6.7 
578995.480,4257822.752,-6.6 
578995.480,4257772.707,-6.4 
578995.480,4257722.663,-6.1 
578995.480,4257672.618,-5.9 
578995.480,4257622.573,-6.2 
578995.480,4257572.529,-6.2 
578995.480,4257522.484,-6.4 
578995.480,4257472.440,-6.7 
578995.480,4257422.395,-7 
578995.480,4257372.351,-7.3 
578995.480,4257322.306,-7.8 
578995.480,4257272.262,-7.8 
578995.480,4255820.971,-10.9 
578995.480,4255770.926,-12.5 
578995.480,4255720.882,-13.1 
578995.480,4255670.837,-10.8 
578995.480,4255620.793,-7.6 
578995.480,4255570.748,-9.5 
578995.480,4255520.703,-11.2 
578995.480,4255470.659,-11.1 
578995.480,4255420.614,-6.7 
578995.480,4255370.570,-7.5 
578995.480,4255320.525,-8.9 
578995.480,4255270.481,-10 
578995.480,4255220.436,-11.9 
578995.480,4255170.392,-11.9 
578995.480,4255120.347,-11.9 
578995.480,4255070.303,-11.9 
579045.549,4285497.373,-176 
579045.549,4285447.329,-171.4 
579045.549,4285397.284,-161.9 
579045.549,4285347.240,-155.6 
579045.549,4285297.195,-151.7 
579045.549,4285247.150,-149.2 
579045.549,4285197.106,-147.8 
579045.549,4285147.061,-147.2 
579045.549,4285097.017,-147.1 
579045.549,4285046.972,-147 
579045.549,4284996.928,-146.3 
579045.549,4284946.883,-143.4 
579045.549,4284896.839,-136.9 
579045.549,4284846.794,-124.2 
579045.549,4284796.750,-112.5 
579045.549,4284746.705,-101.7 
579045.549,4284696.661,-96.8 
579045.549,4284646.616,-96.9 
579045.549,4284596.572,-93.5 
579045.549,4284546.527,-87.3 
579045.549,4284496.483,-83.8 
579045.549,4284446.438,-82.1 
579045.549,4284396.394,-84.3 
579045.549,4284346.349,-87.7 
579045.549,4284296.305,-89.8 
579045.549,4284246.260,-90.9 
579045.549,4284196.215,-90.9 
579045.549,4284146.171,-90.7 
579045.549,4284096.126,-90.5 
579045.549,4284046.082,-90.1 
579045.549,4283996.037,-89.5 
579045.549,4283945.993,-88.6 
579045.549,4283895.948,-87.7 
579045.549,4283845.904,-86.7 
579045.549,4283795.859,-85.6 
579045.549,4283745.815,-84.4 
579045.549,4283695.770,-83 
579045.549,4283645.726,-81.4 
579045.549,4283595.681,-80 
579045.549,4283545.637,-78.7 
579045.549,4283495.592,-77.5 
579045.549,4283445.548,-76.3 
579045.549,4283395.503,-74.8 
579045.549,4283345.459,-72.9 
579045.549,4283295.414,-70.1 
579045.549,4283245.370,-66.3 
579045.549,4283195.325,-62.1 
579045.549,4283145.280,-58.2 
579045.549,4283095.236,-55 
579045.549,4283045.191,-52.4 
579045.549,4282995.147,-51.1 
579045.549,4282945.102,-51.1 
579045.549,4282895.058,-51.2 
579045.549,4282845.013,-51.3 
579045.549,4282794.969,-51.4 
579045.549,4282744.924,-51.4 
579045.549,4282694.880,-51.6 
579045.549,4268432.191,-20.9 
579045.549,4268382.146,-20.9 
579045.549,4268332.102,-20.9 
579045.549,4268282.057,-20.9 
579045.549,4268232.012,-20.9 
579045.549,4268181.968,-20.9 
579045.549,4268131.923,-20.4 
579045.549,4268081.879,-20.4 
579045.549,4268031.834,-19.8 
579045.549,4267981.790,-20.2 
579045.549,4267931.745,-19.9 
579045.549,4267881.701,-20.9 
579045.549,4267831.656,-27.7 
579045.549,4267781.612,-36.4 
579045.549,4267731.567,-45.8 
579045.549,4267681.523,-52.2 
579045.549,4267631.478,-59.8 
579045.549,4267581.434,-65 
579045.549,4267531.389,-69.9 
579045.549,4267481.345,-74.3 
579045.549,4267431.300,-77.5 
579045.549,4267381.256,-80.2 
579045.549,4267331.211,-82.3 
579045.549,4267281.167,-84 
579045.549,4267231.122,-85.1 
579045.549,4267181.077,-85.4 
579045.549,4267131.033,-85.7 
579045.549,4267080.988,-85.9 
579045.549,4267030.944,-87 
579045.549,4266980.899,-88.1 
579045.549,4266930.855,-89.4 
579045.549,4266880.810,-90.7 
579045.549,4266830.766,-91.6 
579045.549,4266780.721,-92.4 
579045.549,4266730.677,-93.6 
579045.549,4266680.632,-94.3 
579045.549,4266630.588,-94.8 
579045.549,4266580.543,-95.2 
579045.549,4266530.499,-95.5 
579045.549,4266480.454,-96.1 
579045.549,4266430.410,-96.7 
579045.549,4266380.365,-97 
579045.549,4266330.321,-97.2 
579045.549,4266280.276,-97.3 
579045.549,4266230.232,-97.2 
579045.549,4266180.187,-96.8 
579045.549,4266130.142,-96.7 
579045.549,4266080.098,-96 
579045.549,4266030.053,-97 
579045.549,4265980.009,-97.3 
579045.549,4265929.964,-97.5 
579045.549,4265879.920,-97.8 
579045.549,4265829.875,-97.8 
579045.549,4265779.831,-97.4 
579045.549,4265729.786,-97.3 
579045.549,4265679.742,-97.2 
579045.549,4265629.697,-97.3 
579045.549,4265579.653,-97.5 
579045.549,4265529.608,-97.8 
579045.549,4265479.564,-97.4 
579045.549,4265429.519,-97.1 
579045.549,4265379.475,-96.6 
579045.549,4265329.430,-97.5 
579045.549,4265279.386,-97.2 
579045.549,4265229.341,-97.2 
579045.549,4265179.297,-97.3 
579045.549,4265129.252,-97.2 
579045.549,4265079.207,-97 
579045.549,4265029.163,-96.6 
579045.549,4264979.118,-96 
579045.549,4264929.074,-94.8 
579045.549,4264879.029,-94.9 
579045.549,4264828.985,-95.1 
579045.549,4264778.940,-94.9 
579045.549,4264728.896,-94.6 
579045.549,4264678.851,-94.3 
579045.549,4264628.807,-94 
579045.549,4264578.762,-93.7 
579045.549,4264528.718,-93.4 
579045.549,4264478.673,-93 
579045.549,4264428.629,-93.1 
579045.549,4264378.584,-92.9 
579045.549,4264328.540,-92.6 
579045.549,4264278.495,-92.5 
579045.549,4264228.451,-91.4 
579045.549,4264178.406,-91.7 
579045.549,4264128.362,-91.7 
579045.549,4264078.317,-92.3 
579045.549,4264028.272,-92 
579045.549,4263978.228,-91 
579045.549,4263928.183,-90.5 
579045.549,4263878.139,-90 
579045.549,4263828.094,-88.9 
579045.549,4263778.050,-88.8 
579045.549,4263728.005,-88.5 
579045.549,4263677.961,-88.4 
579045.549,4263627.916,-88.5 
579045.549,4263577.872,-88.3 
579045.549,4263527.827,-87.8 
579045.549,4263477.783,-87.9 
579045.549,4263427.738,-88.4 
579045.549,4263377.694,-87.2 
579045.549,4263327.649,-87 
579045.549,4263277.605,-87.7 
579045.549,4263227.560,-88.2 
579045.549,4263177.516,-87.6 
579045.549,4263127.471,-87.4 
579045.549,4263077.427,-87.7 
579045.549,4263027.382,-87.9 
579045.549,4262977.337,-87.8 
579045.549,4262927.293,-87.5 
579045.549,4262877.248,-85.5 
579045.549,4262827.204,-83.3 
579045.549,4262777.159,-82.1 
579045.549,4262727.115,-81.5 
579045.549,4262677.070,-81.4 
579045.549,4262627.026,-81.2 
579045.549,4262576.981,-81.3 
579045.549,4262526.937,-81.2 
579045.549,4262476.892,-81.3 
579045.549,4262426.848,-80.4 
579045.549,4262376.803,-79.9 
579045.549,4262326.759,-79 
579045.549,4262276.714,-78.7 
579045.549,4262226.670,-78.7 
579045.549,4262176.625,-78.8 
579045.549,4262126.581,-78.1 
579045.549,4262076.536,-78.2 
579045.549,4262026.492,-77.9 
579045.549,4261976.447,-77.7 
579045.549,4261926.402,-77.6 
579045.549,4261876.358,-77.5 
579045.549,4261826.313,-77 
579045.549,4261776.269,-76.6 
579045.549,4261726.224,-76.4 
579045.549,4261676.180,-76.5 
579045.549,4261626.135,-76.2 
579045.549,4261576.091,-76.2 
579045.549,4261526.046,-76 
579045.549,4261476.002,-76 
579045.549,4261425.957,-76.4 
579045.549,4261375.913,-75.4 
579045.549,4261325.868,-75.1 
579045.549,4261275.824,-74.5 
579045.549,4261225.779,-74.2 
579045.549,4261175.735,-74.5 
579045.549,4261125.690,-73.8 
579045.549,4261075.646,-72.7 
579045.549,4261025.601,-73.1 
579045.549,4260975.557,-73.2 
579045.549,4260925.512,-72.6 
579045.549,4260875.467,-71.9 
579045.549,4260825.423,-71.1 
579045.549,4260775.378,-70.6 
579045.549,4260725.334,-70.4 
579045.549,4260675.289,-68.2 
579045.549,4260625.245,-68.3 
579045.549,4260575.200,-67.3 
579045.549,4260525.156,-67.1 
579045.549,4260475.111,-67.2 
579045.549,4260425.067,-67.3 
579045.549,4260375.022,-67.3 
579045.549,4260324.978,-66.7 
579045.549,4260274.933,-65.6 
579045.549,4260224.889,-65.2 
579045.549,4260174.844,-65.2 
579045.549,4260124.800,-65.2 
579045.549,4260074.755,-64.7 
579045.549,4260024.711,-64.2 
579045.549,4259974.666,-62.4 
579045.549,4259924.622,-59.2 
579045.549,4259874.577,-59.6 
579045.549,4259824.533,-59.9 
579045.549,4259774.488,-59.9 
579045.549,4259724.443,-60 
579045.549,4259674.399,-59.7 
579045.549,4259624.354,-59.8 
579045.549,4259574.310,-58.8 
579045.549,4259524.265,-57.4 
579045.549,4259474.221,-56.5 
579045.549,4259424.176,-54.6 
579045.549,4259374.132,-53.5 
579045.549,4259324.087,-53 
579045.549,4259274.043,-53.1 
579045.549,4259223.998,-54.2 
579045.549,4259173.954,-52 
579045.549,4259123.909,-51 
579045.549,4259073.865,-51.4 
579045.549,4259023.820,-50.7 
579045.549,4258973.776,-50.3 
579045.549,4258923.731,-50.6 
579045.549,4258873.687,-51 
579045.549,4258823.642,-48.6 
579045.549,4258773.598,-38.7 
579045.549,4258723.553,-26.8 
579045.549,4258673.508,-19.9 
579045.549,4258623.464,-13.7 
579045.549,4258573.419,-11.7 
579045.549,4258523.375,-10.6 
579045.549,4258473.330,-9.6 
579045.549,4258423.286,-8.5 
579045.549,4258373.241,-7.6 
579045.549,4258323.197,-6.6 
579045.549,4258273.152,-6.2 
579045.549,4258223.108,-5.8 
579045.549,4258173.063,-5.7 
579045.549,4258123.019,-5.9 
579045.549,4258072.974,-6.1 
579045.549,4258022.930,-6.1 
579045.549,4257972.885,-6.2 
579045.549,4257922.841,-6.8 
579045.549,4257872.796,-6.8 
579045.549,4257822.752,-6.6 
579045.549,4257772.707,-6.4 
579045.549,4257722.663,-6.2 
579045.549,4257672.618,-6 
579045.549,4257622.573,-6.2 
579045.549,4257572.529,-6.2 
579045.549,4257522.484,-6.3 
579045.549,4257472.440,-6.6 
579045.549,4257422.395,-6.8 
579045.549,4257372.351,-7.1 
579045.549,4257322.306,-7.8 
579045.549,4257272.262,-7.8 
579045.549,4255820.971,-9.5 
579045.549,4255770.926,-10.5 
579045.549,4255720.882,-9.4 
579045.549,4255670.837,-6.6 
579045.549,4255620.793,-6.7 
579045.549,4255570.748,-7.3 
579045.549,4255520.703,-8.6 
579045.549,4255470.659,-7 
579045.549,4255420.614,-4.5 
579045.549,4255370.570,-7.5 
579045.549,4255320.525,-7.5 
579045.549,4255270.481,-7.7 
579045.549,4255220.436,-11.9 
579045.549,4255170.392,-11.9 
579045.549,4255120.347,-11.9 
579045.549,4255070.303,-11.9 
579095.619,4285497.373,-175.5 
579095.619,4285447.329,-167.4 
579095.619,4285397.284,-159.5 
579095.619,4285347.240,-154.5 
579095.619,4285297.195,-151.1 
579095.619,4285247.150,-148.7 
579095.619,4285197.106,-147.6 
579095.619,4285147.061,-147 
579095.619,4285097.017,-147 
579095.619,4285046.972,-146.8 
579095.619,4284996.928,-145.5 
579095.619,4284946.883,-141.9 
579095.619,4284896.839,-135.1 
579095.619,4284846.794,-122.6 
579095.619,4284796.750,-109.3 
579095.619,4284746.705,-100 
579095.619,4284696.661,-97.9 
579095.619,4284646.616,-96.2 
579095.619,4284596.572,-90.4 
579095.619,4284546.527,-85.4 
579095.619,4284496.483,-82.8 
579095.619,4284446.438,-82.1 
579095.619,4284396.394,-84.8 
579095.619,4284346.349,-88.4 
579095.619,4284296.305,-90.3 
579095.619,4284246.260,-90.9 
579095.619,4284196.215,-90.8 
579095.619,4284146.171,-90.5 
579095.619,4284096.126,-90.2 
579095.619,4284046.082,-89.7 
579095.619,4283996.037,-89 
579095.619,4283945.993,-88.1 
579095.619,4283895.948,-87.2 
579095.619,4283845.904,-86.4 
579095.619,4283795.859,-85.4 
579095.619,4283745.815,-84.2 
579095.619,4283695.770,-82.8 
579095.619,4283645.726,-81.3 
579095.619,4283595.681,-80.1 
579095.619,4283545.637,-78.8 
579095.619,4283495.592,-77.5 
579095.619,4283445.548,-76.2 
579095.619,4283395.503,-74.6 
579095.619,4283345.459,-72.7 
579095.619,4283295.414,-70.1 
579095.619,4283245.370,-66.8 
579095.619,4283195.325,-62.8 
579095.619,4283145.280,-58.5 
579095.619,4283095.236,-54.8 
579095.619,4283045.191,-51.9 
579095.619,4282995.147,-50.6 
579095.619,4282945.102,-50.7 
579095.619,4282895.058,-50.9 
579095.619,4282845.013,-50.9 
579095.619,4282794.969,-50.9 
579095.619,4282744.924,-51 
579095.619,4282694.880,-51.3 
579095.619,4268232.012,-20.9 
579095.619,4268181.968,-20.9 
579095.619,4268131.923,-21 
579095.619,4268081.879,-21.2 
579095.619,4268031.834,-19.9 
579095.619,4267981.790,-19.8 
579095.619,4267931.745,-20.1 
579095.619,4267881.701,-19.6 
579095.619,4267831.656,-19.2 
579095.619,4267781.612,-24.7 
579095.619,4267731.567,-35.2 
579095.619,4267681.523,-45 
579095.619,4267631.478,-54.5 
579095.619,4267581.434,-60.2 
579095.619,4267531.389,-66.9 
579095.619,4267481.345,-72.1 
579095.619,4267431.300,-75.9 
579095.619,4267381.256,-78.8 
579095.619,4267331.211,-81 
579095.619,4267281.167,-82.8 
579095.619,4267231.122,-83.6 
579095.619,4267181.077,-83.7 
579095.619,4267131.033,-84 
579095.619,4267080.988,-84.7 
579095.619,4267030.944,-85.9 
579095.619,4266980.899,-87.2 
579095.619,4266930.855,-88.5 
579095.619,4266880.810,-89.8 
579095.619,4266830.766,-90.9 
579095.619,4266780.721,-91.9 
579095.619,4266730.677,-92.9 
579095.619,4266680.632,-93.4 
579095.619,4266630.588,-93.8 
579095.619,4266580.543,-94.3 
579095.619,4266530.499,-94.7 
579095.619,4266480.454,-95.3 
579095.619,4266430.410,-95.8 
579095.619,4266380.365,-96.2 
579095.619,4266330.321,-96.3 
579095.619,4266280.276,-96.4 
579095.619,4266230.232,-96.3 
579095.619,4266180.187,-96.1 
579095.619,4266130.142,-95.8 
579095.619,4266080.098,-95.9 
579095.619,4266030.053,-96.2 
579095.619,4265980.009,-95.6 
579095.619,4265929.964,-96.2 
579095.619,4265879.920,-96.6 
579095.619,4265829.875,-97.1 
579095.619,4265779.831,-96.6 
579095.619,4265729.786,-96.5 
579095.619,4265679.742,-96.3 
579095.619,4265629.697,-96.6 
579095.619,4265579.653,-96.9 
579095.619,4265529.608,-97.3 
579095.619,4265479.564,-96.9 
579095.619,4265429.519,-96.4 
579095.619,4265379.475,-96.4 
579095.619,4265329.430,-96.6 
579095.619,4265279.386,-96.9 
579095.619,4265229.341,-96.6 
579095.619,4265179.297,-96.5 
579095.619,4265129.252,-96.5 
579095.619,4265079.207,-96 
579095.619,4265029.163,-95.9 
579095.619,4264979.118,-95.2 
579095.619,4264929.074,-94.4 
579095.619,4264879.029,-94.2 
579095.619,4264828.985,-94 
579095.619,4264778.940,-93.7 
579095.619,4264728.896,-93.4 
579095.619,4264678.851,-93.3 
579095.619,4264628.807,-92.7 
579095.619,4264578.762,-92.6 
579095.619,4264528.718,-91.9 
579095.619,4264478.673,-91.8 
579095.619,4264428.629,-91.8 
579095.619,4264378.584,-91.2 
579095.619,4264328.540,-91.7 
579095.619,4264278.495,-91.2 
579095.619,4264228.451,-90.2 
579095.619,4264178.406,-90 
579095.619,4264128.362,-90.2 
579095.619,4264078.317,-90.7 
579095.619,4264028.272,-91 
579095.619,4263978.228,-89.5 
579095.619,4263928.183,-89 
579095.619,4263878.139,-88.5 
579095.619,4263828.094,-88.2 
579095.619,4263778.050,-87.5 
579095.619,4263728.005,-86.4 
579095.619,4263677.961,-86.4 
579095.619,4263627.916,-86.6 
579095.619,4263577.872,-86.5 
579095.619,4263527.827,-86.1 
579095.619,4263477.783,-86 
579095.619,4263427.738,-86.3 
579095.619,4263377.694,-85.8 
579095.619,4263327.649,-85.3 
579095.619,4263277.605,-85.6 
579095.619,4263227.560,-85.8 
579095.619,4263177.516,-85.1 
579095.619,4263127.471,-84.7 
579095.619,4263077.427,-84.9 
579095.619,4263027.382,-85.3 
579095.619,4262977.337,-85.2 
579095.619,4262927.293,-85.9 
579095.619,4262877.248,-83.5 
579095.619,4262827.204,-81.1 
579095.619,4262777.159,-79.4 
579095.619,4262727.115,-78.8 
579095.619,4262677.070,-78.6 
579095.619,4262627.026,-78.4 
579095.619,4262576.981,-78.1 
579095.619,4262526.937,-77.7 
579095.619,4262476.892,-78.2 
579095.619,4262426.848,-77.4 
579095.619,4262376.803,-77 
579095.619,4262326.759,-76.7 
579095.619,4262276.714,-76 
579095.619,4262226.670,-75.9 
579095.619,4262176.625,-76.2 
579095.619,4262126.581,-75.7 
579095.619,4262076.536,-75.8 
579095.619,4262026.492,-75.3 
579095.619,4261976.447,-74.8 
579095.619,4261926.402,-75.2 
579095.619,4261876.358,-75.3 
579095.619,4261826.313,-75.3 
579095.619,4261776.269,-75.1 
579095.619,4261726.224,-75 
579095.619,4261676.180,-74.4 
579095.619,4261626.135,-73.8 
579095.619,4261576.091,-74.3 
579095.619,4261526.046,-74.1 
579095.619,4261476.002,-73.7 
579095.619,4261425.957,-74.1 
579095.619,4261375.913,-73.5 
579095.619,4261325.868,-73.1 
579095.619,4261275.824,-72.5 
579095.619,4261225.779,-72.5 
579095.619,4261175.735,-72.6 
579095.619,4261125.690,-72.3 
579095.619,4261075.646,-71 
579095.619,4261025.601,-71.2 
579095.619,4260975.557,-71.3 
579095.619,4260925.512,-70.1 
579095.619,4260875.467,-70.1 
579095.619,4260825.423,-69.3 
579095.619,4260775.378,-69 
579095.619,4260725.334,-68.1 
579095.619,4260675.289,-66.8 
579095.619,4260625.245,-66.3 
579095.619,4260575.200,-65.2 
579095.619,4260525.156,-64.3 
579095.619,4260475.111,-64 
579095.619,4260425.067,-64.1 
579095.619,4260375.022,-64 
579095.619,4260324.978,-63.6 
579095.619,4260274.933,-62.3 
579095.619,4260224.889,-61.1 
579095.619,4260174.844,-61.4 
579095.619,4260124.800,-61.7 
579095.619,4260074.755,-61.1 
579095.619,4260024.711,-60.9 
579095.619,4259974.666,-59.3 
579095.619,4259924.622,-56.2 
579095.619,4259874.577,-55 
579095.619,4259824.533,-55.5 
579095.619,4259774.488,-55.6 
579095.619,4259724.443,-56.2 
579095.619,4259674.399,-55.9 
579095.619,4259624.354,-55.5 
579095.619,4259574.310,-55.2 
579095.619,4259524.265,-53.9 
579095.619,4259474.221,-52.4 
579095.619,4259424.176,-50.2 
579095.619,4259374.132,-47.1 
579095.619,4259324.087,-47.4 
579095.619,4259274.043,-48.9 
579095.619,4259223.998,-50.8 
579095.619,4259173.954,-47.9 
579095.619,4259123.909,-46.3 
579095.619,4259073.865,-46.1 
579095.619,4259023.820,-44.6 
579095.619,4258973.776,-44.3 
579095.619,4258923.731,-42.5 
579095.619,4258873.687,-40.4 
579095.619,4258823.642,-34.2 
579095.619,4258773.598,-21 
579095.619,4258723.553,-13.2 
579095.619,4258673.508,-11.1 
579095.619,4258623.464,-9.5 
579095.619,4258573.419,-8.3 
579095.619,4258523.375,-7.3 
579095.619,4258473.330,-6.3 
579095.619,4258423.286,-5.4 
579095.619,4258373.241,-4.8 
579095.619,4258323.197,-4.4 
579095.619,4258273.152,-4.9 
579095.619,4258223.108,-5.2 
579095.619,4258173.063,-5.5 
579095.619,4258123.019,-6 
579095.619,4258072.974,-6.3 
579095.619,4258022.930,-6.2 
579095.619,4257972.885,-6.1 
579095.619,4257922.841,-7.2 
579095.619,4257872.796,-6.9 
579095.619,4257822.752,-6.6 
579095.619,4257772.707,-6.4 
579095.619,4257722.663,-6.2 
579095.619,4257672.618,-6.2 
579095.619,4255820.971,-8.2 
579095.619,4255770.926,-8.5 
579095.619,4255720.882,-6.3 
579095.619,4255670.837,-6.4 
579095.619,4255620.793,-6.5 
579095.619,4255570.748,-6.4 
579095.619,4255520.703,-7 
579095.619,4255470.659,-6.4 
579095.619,4255420.614,-5.9 
579095.619,4255370.570,-7.6 
579095.619,4255320.525,-7.5 
579095.619,4255270.481,-7.5 
579145.688,4285547.418,-176.9 
579145.688,4285497.373,-172.5 
579145.688,4285447.329,-163.5 
579145.688,4285397.284,-157.1 
579145.688,4285347.240,-153.2 
579145.688,4285297.195,-150.2 
579145.688,4285247.150,-148.3 
579145.688,4285197.106,-147.2 
579145.688,4285147.061,-146.8 
579145.688,4285097.017,-146.8 
579145.688,4285046.972,-146.4 
579145.688,4284996.928,-144.7 
579145.688,4284946.883,-140.9 
579145.688,4284896.839,-134.3 
579145.688,4284846.794,-119.7 
579145.688,4284796.750,-104.3 
579145.688,4284746.705,-98.3 
579145.688,4284696.661,-98.7 
579145.688,4284646.616,-94.8 
579145.688,4284596.572,-88.4 
579145.688,4284546.527,-84.5 
579145.688,4284496.483,-81.8 
579145.688,4284446.438,-82.6 
579145.688,4284396.394,-85.8 
579145.688,4284346.349,-88.8 
579145.688,4284296.305,-90.4 
579145.688,4284246.260,-90.5 
579145.688,4284196.215,-90.3 
579145.688,4284146.171,-90.1 
579145.688,4284096.126,-89.7 
579145.688,4284046.082,-89.1 
579145.688,4283996.037,-88.4 
579145.688,4283945.993,-87.6 
579145.688,4283895.948,-86.9 
579145.688,4283845.904,-86 
579145.688,4283795.859,-85.1 
579145.688,4283745.815,-83.9 
579145.688,4283695.770,-82.6 
579145.688,4283645.726,-81.3 
579145.688,4283595.681,-80.1 
579145.688,4283545.637,-78.8 
579145.688,4283495.592,-77.5 
579145.688,4283445.548,-76 
579145.688,4283395.503,-74.4 
579145.688,4283345.459,-72.3 
579145.688,4283295.414,-69.8 
579145.688,4283245.370,-66.8 
579145.688,4283195.325,-62.9 
579145.688,4283145.280,-58.5 
579145.688,4283095.236,-54.5 
579145.688,4283045.191,-51.2 
579145.688,4282995.147,-50 
579145.688,4282945.102,-50.2 
579145.688,4282895.058,-50.5 
579145.688,4282845.013,-50.5 
579145.688,4282794.969,-50.5 
579145.688,4282744.924,-50.6 
579145.688,4282694.880,-50.8 
579145.688,4268232.012,-20.9 
579145.688,4268181.968,-20.9 
579145.688,4268131.923,-20.8 
579145.688,4268081.879,-20.7 
579145.688,4268031.834,-19.9 
579145.688,4267981.790,-19.7 
579145.688,4267931.745,-19.5 
579145.688,4267881.701,-18.3 
579145.688,4267831.656,-17.5 
579145.688,4267781.612,-18.1 
579145.688,4267731.567,-25.3 
579145.688,4267681.523,-36.9 
579145.688,4267631.478,-47.5 
579145.688,4267581.434,-55.7 
579145.688,4267531.389,-63.4 
579145.688,4267481.345,-69.1 
579145.688,4267431.300,-74.3 
579145.688,4267381.256,-77.4 
579145.688,4267331.211,-79.6 
579145.688,4267281.167,-81.2 
579145.688,4267231.122,-82 
579145.688,4267181.077,-82.3 
579145.688,4267131.033,-82.8 
579145.688,4267080.988,-83.8 
579145.688,4267030.944,-85 
579145.688,4266980.899,-86.3 
579145.688,4266930.855,-87.8 
579145.688,4266880.810,-88.9 
579145.688,4266830.766,-89.8 
579145.688,4266780.721,-90.5 
579145.688,4266730.677,-91.5 
579145.688,4266680.632,-92.3 
579145.688,4266630.588,-92.7 
579145.688,4266580.543,-93.1 
579145.688,4266530.499,-93.7 
579145.688,4266480.454,-94.2 
579145.688,4266430.410,-94.8 
579145.688,4266380.365,-95.4 
579145.688,4266330.321,-95.4 
579145.688,4266280.276,-95.4 
579145.688,4266230.232,-95.3 
579145.688,4266180.187,-95.4 
579145.688,4266130.142,-95.3 
579145.688,4266080.098,-95.3 
579145.688,4266030.053,-95.1 
579145.688,4265980.009,-93.8 
579145.688,4265929.964,-94.7 
579145.688,4265879.920,-95.4 
579145.688,4265829.875,-96.4 
579145.688,4265779.831,-95.9 
579145.688,4265729.786,-95.6 
579145.688,4265679.742,-95.4 
579145.688,4265629.697,-95.7 
579145.688,4265579.653,-96 
579145.688,4265529.608,-96.4 
579145.688,4265479.564,-96.2 
579145.688,4265429.519,-96.1 
579145.688,4265379.475,-95.9 
579145.688,4265329.430,-95.1 
579145.688,4265279.386,-96.1 
579145.688,4265229.341,-95.9 
579145.688,4265179.297,-95.4 
579145.688,4265129.252,-95.6 
579145.688,4265079.207,-95.1 
579145.688,4265029.163,-95 
579145.688,4264979.118,-94 
579145.688,4264929.074,-94 
579145.688,4264879.029,-93.7 
579145.688,4264828.985,-93.3 
579145.688,4264778.940,-92.6 
579145.688,4264728.896,-91.8 
579145.688,4264678.851,-92.3 
579145.688,4264628.807,-91.8 
579145.688,4264578.762,-91.5 
579145.688,4264528.718,-90.6 
579145.688,4264478.673,-90.9 
579145.688,4264428.629,-90.5 
579145.688,4264378.584,-89.4 
579145.688,4264328.540,-90.5 
579145.688,4264278.495,-89.8 
579145.688,4264228.451,-88.8 
579145.688,4264178.406,-88.9 
579145.688,4264128.362,-88.7 
579145.688,4264078.317,-88.7 
579145.688,4264028.272,-89 
579145.688,4263978.228,-88.2 
579145.688,4263928.183,-87.6 
579145.688,4263878.139,-87.1 
579145.688,4263828.094,-86.7 
579145.688,4263778.050,-85.8 
579145.688,4263728.005,-84.5 
579145.688,4263677.961,-84.4 
579145.688,4263627.916,-84.6 
579145.688,4263577.872,-84.6 
579145.688,4263527.827,-84.3 
579145.688,4263477.783,-84.4 
579145.688,4263427.738,-84.6 
579145.688,4263377.694,-84.4 
579145.688,4263327.649,-83.7 
579145.688,4263277.605,-83.5 
579145.688,4263227.560,-83.6 
579145.688,4263177.516,-82.7 
579145.688,4263127.471,-82.2 
579145.688,4263077.427,-82 
579145.688,4263027.382,-82.3 
579145.688,4262977.337,-81.9 
579145.688,4262927.293,-83.3 
579145.688,4262877.248,-82.1 
579145.688,4262827.204,-78.9 
579145.688,4262777.159,-76.7 
579145.688,4262727.115,-75.8 
579145.688,4262677.070,-75.6 
579145.688,4262627.026,-75.5 
579145.688,4262576.981,-75 
579145.688,4262526.937,-74.6 
579145.688,4262476.892,-74.8 
579145.688,4262426.848,-74 
579145.688,4262376.803,-73.6 
579145.688,4262326.759,-73.4 
579145.688,4262276.714,-73 
579145.688,4262226.670,-72.9 
579145.688,4262176.625,-73.2 
579145.688,4262126.581,-73 
579145.688,4262076.536,-73.1 
579145.688,4262026.492,-72.8 
579145.688,4261976.447,-72.7 
579145.688,4261926.402,-72.9 
579145.688,4261876.358,-73.2 
579145.688,4261826.313,-73.4 
579145.688,4261776.269,-73.4 
579145.688,4261726.224,-73 
579145.688,4261676.180,-72.4 
579145.688,4261626.135,-71.7 
579145.688,4261576.091,-71.8 
579145.688,4261526.046,-71.9 
579145.688,4261476.002,-71.6 
579145.688,4261425.957,-71.2 
579145.688,4261375.913,-70.8 
579145.688,4261325.868,-70.7 
579145.688,4261275.824,-70.2 
579145.688,4261225.779,-70.4 
579145.688,4261175.735,-70.7 
579145.688,4261125.690,-70.3 
579145.688,4261075.646,-69.1 
579145.688,4261025.601,-69 
579145.688,4260975.557,-68.7 
579145.688,4260925.512,-67.1 
579145.688,4260875.467,-67.5 
579145.688,4260825.423,-66.7 
579145.688,4260775.378,-66.3 
579145.688,4260725.334,-65.4 
579145.688,4260675.289,-64.9 
579145.688,4260625.245,-64 
579145.688,4260575.200,-63 
579145.688,4260525.156,-60.8 
579145.688,4260475.111,-60 
579145.688,4260425.067,-60.5 
579145.688,4260375.022,-60.4 
579145.688,4260324.978,-59.9 
579145.688,4260274.933,-58.7 
579145.688,4260224.889,-57 
579145.688,4260174.844,-56 
579145.688,4260124.800,-56.6 
579145.688,4260074.755,-56.8 
579145.688,4260024.711,-57.4 
579145.688,4259974.666,-55.2 
579145.688,4259924.622,-53.2 
579145.688,4259874.577,-50.7 
579145.688,4259824.533,-50.1 
579145.688,4259774.488,-50.3 
579145.688,4259724.443,-51.4 
579145.688,4259674.399,-51.2 
579145.688,4259624.354,-49.6 
579145.688,4259574.310,-49.1 
579145.688,4259524.265,-49 
579145.688,4259474.221,-48.2 
579145.688,4259424.176,-45.4 
579145.688,4259374.132,-42.2 
579145.688,4259324.087,-42.2 
579145.688,4259274.043,-43.6 
579145.688,4259223.998,-45.3 
579145.688,4259173.954,-43.2 
579145.688,4259123.909,-39 
579145.688,4259073.865,-35.3 
579145.688,4259023.820,-31.3 
579145.688,4258973.776,-29.9 
579145.688,4258923.731,-27 
579145.688,4258873.687,-23.1 
579145.688,4258823.642,-16.7 
579145.688,4258773.598,-11.1 
579145.688,4258723.553,-9.1 
579145.688,4258673.508,-7.6 
579145.688,4258623.464,-6.2 
579145.688,4258573.419,-5.3 
579145.688,4258523.375,-4.6 
579145.688,4258473.330,-3.9 
579145.688,4258423.286,-4.1 
579145.688,4258373.241,-4.3 
579145.688,4258323.197,-4.6 
579145.688,4258273.152,-5 
579145.688,4258223.108,-4.9 
579145.688,4258173.063,-5.2 
579145.688,4258123.019,-8.4 
579145.688,4258072.974,-8.3 
579145.688,4258022.930,-7.7 
579145.688,4257972.885,-7.1 
579145.688,4257922.841,-7.2 
579145.688,4257872.796,-6.9 
579145.688,4257822.752,-6.7 
579145.688,4257772.707,-6.4 
579145.688,4257722.663,-6.2 
579145.688,4257672.618,-6.2 
579145.688,4255820.971,-7.1 
579145.688,4255770.926,-7.1 
579145.688,4255720.882,-6.5 
579145.688,4255670.837,-6.4 
579145.688,4255620.793,-6.4 
579145.688,4255570.748,-6.3 
579145.688,4255520.703,-6.5 
579145.688,4255470.659,-6.8 
579145.688,4255420.614,-7.3 
579145.688,4255370.570,-7.7 
579145.688,4255320.525,-9.3 
579145.688,4255270.481,-9.2 
579195.758,4285547.418,-175.2 
579195.758,4285497.373,-169.9 
579195.758,4285447.329,-161.2 
579195.758,4285397.284,-155.4 
579195.758,4285347.240,-152 
579195.758,4285297.195,-149.6 
579195.758,4285247.150,-147.9 
579195.758,4285197.106,-146.9 
579195.758,4285147.061,-146.5 
579195.758,4285097.017,-146.3 
579195.758,4285046.972,-145.9 
579195.758,4284996.928,-143.7 
579195.758,4284946.883,-139.5 
579195.758,4284896.839,-132.4 
579195.758,4284846.794,-115.5 
579195.758,4284796.750,-100.1 
579195.758,4284746.705,-97.3 
579195.758,4284696.661,-98.9 
579195.758,4284646.616,-94.8 
579195.758,4284596.572,-87.9 
579195.758,4284546.527,-83.8 
579195.758,4284496.483,-80.9 
579195.758,4284446.438,-83.1 
579195.758,4284396.394,-86.8 
579195.758,4284346.349,-88.9 
579195.758,4284296.305,-90 
579195.758,4284246.260,-89.9 
579195.758,4284196.215,-89.7 
579195.758,4284146.171,-89.5 
579195.758,4284096.126,-89.1 
579195.758,4284046.082,-88.5 
579195.758,4283996.037,-87.7 
579195.758,4283945.993,-87.1 
579195.758,4283895.948,-86.5 
579195.758,4283845.904,-85.7 
579195.758,4283795.859,-84.7 
579195.758,4283745.815,-83.6 
579195.758,4283695.770,-82.3 
579195.758,4283645.726,-81.1 
579195.758,4283595.681,-80 
579195.758,4283545.637,-78.8 
579195.758,4283495.592,-77.4 
579195.758,4283445.548,-75.9 
579195.758,4283395.503,-74.2 
579195.758,4283345.459,-71.9 
579195.758,4283295.414,-69.5 
579195.758,4283245.370,-66.5 
579195.758,4283195.325,-62.5 
579195.758,4283145.280,-58.1 
579195.758,4283095.236,-53.9 
579195.758,4283045.191,-50.3 
579195.758,4282995.147,-49.3 
579195.758,4282945.102,-49.6 
579195.758,4282895.058,-49.9 
579195.758,4282845.013,-50.2 
579195.758,4282794.969,-50.4 
579195.758,4282744.924,-50.4 
579195.758,4282694.880,-50.4 
579195.758,4268232.012,-20.9 
579195.758,4268181.968,-20.9 
579195.758,4268131.923,-20.7 
579195.758,4268081.879,-20.4 
579195.758,4268031.834,-20.1 
579195.758,4267981.790,-19.8 
579195.758,4267931.745,-19.5 
579195.758,4267881.701,-17.9 
579195.758,4267831.656,-16.8 
579195.758,4267781.612,-16.4 
579195.758,4267731.567,-18.3 
579195.758,4267681.523,-27.8 
579195.758,4267631.478,-40 
579195.758,4267581.434,-50.8 
579195.758,4267531.389,-58.2 
579195.758,4267481.345,-65.3 
579195.758,4267431.300,-71.6 
579195.758,4267381.256,-75.5 
579195.758,4267331.211,-77.9 
579195.758,4267281.167,-79.3 
579195.758,4267231.122,-80.1 
579195.758,4267181.077,-80.7 
579195.758,4267131.033,-81.7 
579195.758,4267080.988,-82.7 
579195.758,4267030.944,-84 
579195.758,4266980.899,-85.3 
579195.758,4266930.855,-86.7 
579195.758,4266880.810,-87.8 
579195.758,4266830.766,-88.5 
579195.758,4266780.721,-88.9 
579195.758,4266730.677,-90.1 
579195.758,4266680.632,-91 
579195.758,4266630.588,-91.5 
579195.758,4266580.543,-91.8 
579195.758,4266530.499,-92.5 
579195.758,4266480.454,-93.1 
579195.758,4266430.410,-93.6 
579195.758,4266380.365,-94.4 
579195.758,4266330.321,-94.4 
579195.758,4266280.276,-94.4 
579195.758,4266230.232,-94.5 
579195.758,4266180.187,-94.8 
579195.758,4266130.142,-94.6 
579195.758,4266080.098,-94.2 
579195.758,4266030.053,-94 
579195.758,4265980.009,-93.1 
579195.758,4265929.964,-93.9 
579195.758,4265879.920,-95.2 
579195.758,4265829.875,-95.8 
579195.758,4265779.831,-95.1 
579195.758,4265729.786,-94.6 
579195.758,4265679.742,-94.5 
579195.758,4265629.697,-94.7 
579195.758,4265579.653,-95 
579195.758,4265529.608,-95 
579195.758,4265479.564,-95.1 
579195.758,4265429.519,-95 
579195.758,4265379.475,-94.9 
579195.758,4265329.430,-94.4 
579195.758,4265279.386,-95.1 
579195.758,4265229.341,-94.9 
579195.758,4265179.297,-94.5 
579195.758,4265129.252,-94.6 
579195.758,4265079.207,-94.2 
579195.758,4265029.163,-93.9 
579195.758,4264979.118,-93 
579195.758,4264929.074,-92.9 
579195.758,4264879.029,-92.7 
579195.758,4264828.985,-92.3 
579195.758,4264778.940,-91.5 
579195.758,4264728.896,-90.3 
579195.758,4264678.851,-91 
579195.758,4264628.807,-90.9 
579195.758,4264578.762,-90.2 
579195.758,4264528.718,-89.8 
579195.758,4264478.673,-89.7 
579195.758,4264428.629,-89.4 
579195.758,4264378.584,-88.8 
579195.758,4264328.540,-89.2 
579195.758,4264278.495,-88.7 
579195.758,4264228.451,-87.2 
579195.758,4264178.406,-87.4 
579195.758,4264128.362,-86.6 
579195.758,4264078.317,-87 
579195.758,4264028.272,-87.3 
579195.758,4263978.228,-86.9 
579195.758,4263928.183,-86.2 
579195.758,4263878.139,-85.3 
579195.758,4263828.094,-84.5 
579195.758,4263778.050,-84.2 
579195.758,4263728.005,-83.4 
579195.758,4263677.961,-82.9 
579195.758,4263627.916,-82.7 
579195.758,4263577.872,-82.9 
579195.758,4263527.827,-82.9 
579195.758,4263477.783,-82.8 
579195.758,4263427.738,-82.9 
579195.758,4263377.694,-82.4 
579195.758,4263327.649,-81.3 
579195.758,4263277.605,-81.1 
579195.758,4263227.560,-81.1 
579195.758,4263177.516,-80.4 
579195.758,4263127.471,-79.8 
579195.758,4263077.427,-79.2 
579195.758,4263027.382,-79.5 
579195.758,4262977.337,-79.2 
579195.758,4262927.293,-79.7 
579195.758,4262877.248,-80.2 
579195.758,4262827.204,-77.2 
579195.758,4262777.159,-74.4 
579195.758,4262727.115,-73.2 
579195.758,4262677.070,-72.4 
579195.758,4262627.026,-72.7 
579195.758,4262576.981,-72.1 
579195.758,4262526.937,-71.6 
579195.758,4262476.892,-71.1 
579195.758,4262426.848,-70.2 
579195.758,4262376.803,-69.9 
579195.758,4262326.759,-69.8 
