432913.846,4218611.224,-664.987
432913.846,4218511.224,-658.388
432913.846,4218411.224,-659.639
432913.846,4218311.224,-655.730
432913.846,4218211.224,-651.842
432913.846,4218111.224,-642.627
432913.846,4218011.224,-638.882
432913.846,4217911.224,-632.498
432913.846,4217811.224,-624.047
432913.846,4217711.224,-615.007
432913.846,4217611.224,-607.574
432913.846,4217511.224,-600.129
432913.846,4217411.224,-592.416
432913.846,4217311.224,-582.251
432913.846,4217211.224,-572.891
432913.846,4217111.224,-559.326
432913.846,4217011.224,-545.542
432913.846,4216911.224,-532.081
432913.846,4216811.224,-515.079
432913.846,4216711.224,-490.679
432913.846,4216611.224,-469.266
432913.846,4216511.224,-447.905
432913.846,4216411.224,-418.831
432913.846,4216311.224,-396.580
432913.846,4216211.224,-387.584
432913.846,4216111.224,-381.339
432913.846,4216011.224,-371.030
432913.846,4215911.224,-354.821
432913.846,4215811.224,-333.069
432913.846,4215711.224,-309.920
432913.846,4215611.224,-293.859
432913.846,4215511.224,-292.247
432913.846,4215411.224,-287.319
432913.846,4215311.224,-273.388
432913.846,4215211.224,-266.757
432913.846,4215111.224,-237.779
432913.846,4215011.224,-227.003
432913.846,4214911.224,-208.097
432913.846,4214811.224,-176.140
432913.846,4214711.224,-148.042
432913.846,4214611.224,-143.113
432913.846,4214511.224,-138.986
432913.846,4214411.224,-136.598
432913.846,4214311.224,-134.071
432913.846,4214211.224,-132.902
432913.846,4214111.224,-132.675
432913.846,4214011.224,-131.782
432913.846,4213911.224,-130.484
432913.846,4213811.224,-128.745
432913.846,4213711.224,-127.006
432913.846,4213611.224,-124.669
432913.846,4213511.224,-123.505
432913.846,4213411.224,-123.044
432913.846,4213311.224,-121.448
432913.846,4213211.224,-120.294
433013.846,4218811.224,-666.550
433013.846,4218711.224,-661.123
433013.846,4218611.224,-664.632
433013.846,4218511.224,-656.877
433013.846,4218411.224,-647.509
433013.846,4218311.224,-650.639
433013.846,4218211.224,-644.542
433013.846,4218111.224,-639.821
433013.846,4218011.224,-633.289
433013.846,4217911.224,-627.745
433013.846,4217811.224,-621.290
433013.846,4217711.224,-612.881
433013.846,4217611.224,-605.454
433013.846,4217511.224,-597.946
433013.846,4217411.224,-590.729
433013.846,4217311.224,-581.803
433013.846,4217211.224,-570.380
433013.846,4217111.224,-560.514
433013.846,4217011.224,-552.714
433013.846,4216911.224,-542.020
433013.846,4216811.224,-521.221
433013.846,4216711.224,-504.053
433013.846,4216611.224,-485.560
433013.846,4216511.224,-464.275
433013.846,4216411.224,-448.001
433013.846,4216311.224,-431.195
433013.846,4216211.224,-427.686
433013.846,4216111.224,-407.583
433013.846,4216011.224,-400.738
433013.846,4215911.224,-378.427
433013.846,4215811.224,-351.023
433013.846,4215711.224,-330.675
433013.846,4215611.224,-315.165
433013.846,4215511.224,-285.743
433013.846,4215411.224,-266.595
433013.846,4215311.224,-249.939
433013.846,4215211.224,-243.686
433013.846,4215111.224,-220.326
433013.846,4215011.224,-202.718
433013.846,4214911.224,-189.962
433013.846,4214811.224,-162.339
433013.846,4214711.224,-146.917
433013.846,4214611.224,-142.063
433013.846,4214511.224,-138.436
433013.846,4214411.224,-136.107
433013.846,4214311.224,-133.554
433013.846,4214211.224,-132.840
433013.846,4214111.224,-132.610
433013.846,4214011.224,-131.611
433013.846,4213911.224,-130.373
433013.846,4213811.224,-128.499
433013.846,4213711.224,-126.723
433013.846,4213611.224,-124.542
433013.846,4213511.224,-123.667
433013.846,4213411.224,-122.465
433013.846,4213311.224,-121.283
433113.846,4218711.224,-664.121
433113.846,4218611.224,-654.686
433113.846,4218511.224,-645.308
433113.846,4218411.224,-637.868
433113.846,4218311.224,-635.476
433113.846,4218211.224,-637.759
433113.846,4218111.224,-632.333
433113.846,4218011.224,-627.028
433113.846,4217911.224,-621.410
433113.846,4217811.224,-614.788
433113.846,4217711.224,-608.460
433113.846,4217611.224,-601.223
433113.846,4217511.224,-595.596
433113.846,4217411.224,-591.214
433113.846,4217311.224,-579.967
433113.846,4217211.224,-570.743
433113.846,4217111.224,-559.940
433113.846,4217011.224,-550.352
433113.846,4216911.224,-544.516
433113.846,4216811.224,-533.974
433113.846,4216711.224,-520.222
433113.846,4216611.224,-498.362
433113.846,4216511.224,-482.025
433113.846,4216411.224,-472.352
433113.846,4216311.224,-462.550
433113.846,4216211.224,-451.830
433113.846,4216111.224,-442.592
433113.846,4216011.224,-422.309
433113.846,4215911.224,-399.536
433113.846,4215811.224,-378.770
433113.846,4215711.224,-352.697
433113.846,4215611.224,-323.201
433113.846,4215511.224,-288.798
433113.846,4215411.224,-259.278
433113.846,4215311.224,-235.077
433113.846,4215211.224,-219.745
433113.846,4215111.224,-204.239
433113.846,4215011.224,-195.970
433113.846,4214911.224,-179.405
433113.846,4214811.224,-152.756
433113.846,4214711.224,-145.976
433113.846,4214611.224,-141.921
433113.846,4214511.224,-138.568
433113.846,4214411.224,-136.010
433113.846,4214311.224,-133.152
433113.846,4214211.224,-132.517
433113.846,4214111.224,-132.235
433113.846,4214011.224,-131.271
433113.846,4213911.224,-130.194
433113.846,4213811.224,-128.430
433113.846,4213711.224,-126.655
433113.846,4213611.224,-124.547
433113.846,4213511.224,-123.272
433113.846,4213411.224,-122.468
433113.846,4213311.224,-121.040
433213.846,4218611.224,-656.376
433213.846,4218511.224,-645.797
433213.846,4218411.224,-635.190
433213.846,4218311.224,-634.512
433213.846,4218211.224,-620.912
433213.846,4218111.224,-621.899
433213.846,4218011.224,-619.941
433213.846,4217911.224,-611.416
433213.846,4217811.224,-607.662
433213.846,4217711.224,-603.031
433213.846,4217611.224,-596.590
433213.846,4217511.224,-591.999
433213.846,4217411.224,-587.802
433213.846,4217311.224,-577.311
433213.846,4217211.224,-566.517
433213.846,4217111.224,-557.609
433213.846,4217011.224,-549.280
433213.846,4216911.224,-541.868
433213.846,4216811.224,-538.439
433213.846,4216711.224,-534.290
433213.846,4216611.224,-505.618
433213.846,4216511.224,-491.369
433213.846,4216411.224,-476.715
433213.846,4216311.224,-464.900
433213.846,4216211.224,-455.105
433213.846,4216111.224,-448.342
433213.846,4216011.224,-443.423
433213.846,4215911.224,-417.641
433213.846,4215811.224,-389.690
433213.846,4215711.224,-355.113
433213.846,4215611.224,-321.433
433213.846,4215511.224,-294.484
433213.846,4215411.224,-268.501
433213.846,4215311.224,-250.019
433213.846,4215211.224,-219.165
433213.846,4215111.224,-198.914
433213.846,4215011.224,-187.309
433213.846,4214911.224,-162.670
433213.846,4214811.224,-150.368
433213.846,4214711.224,-145.621
433213.846,4214611.224,-142.102
433213.846,4214511.224,-138.577
433213.846,4214411.224,-135.731
433213.846,4214311.224,-132.323
433213.846,4214211.224,-132.350
433213.846,4214111.224,-132.414
433213.846,4214011.224,-131.108
433213.846,4213911.224,-129.715
433213.846,4213811.224,-128.088
433213.846,4213711.224,-126.614
433213.846,4213611.224,-124.283
433213.846,4213511.224,-122.826
433213.846,4213411.224,-122.210
433213.846,4213311.224,-120.863
433313.846,4218611.224,-662.410
433313.846,4218511.224,-642.845
433313.846,4218411.224,-634.543
433313.846,4218311.224,-632.448
433313.846,4218211.224,-620.033
433313.846,4218111.224,-618.668
433313.846,4218011.224,-615.690
433313.846,4217911.224,-608.449
433313.846,4217811.224,-600.531
433313.846,4217711.224,-597.020
433313.846,4217611.224,-594.165
433313.846,4217511.224,-584.615
433313.846,4217411.224,-580.453
433313.846,4217311.224,-574.391
433313.846,4217211.224,-561.441
433313.846,4217111.224,-544.133
433313.846,4217011.224,-537.453
433313.846,4216911.224,-528.367
433313.846,4216811.224,-526.052
433313.846,4216711.224,-523.665
433313.846,4216611.224,-515.019
433313.846,4216511.224,-491.881
433313.846,4216411.224,-466.358
433313.846,4216311.224,-459.656
433313.846,4216211.224,-453.422
433313.846,4216111.224,-449.806
433313.846,4216011.224,-444.616
433313.846,4215911.224,-432.834
433313.846,4215811.224,-404.709
433313.846,4215711.224,-370.876
433313.846,4215611.224,-338.433
433313.846,4215511.224,-306.931
433313.846,4215411.224,-277.841
433313.846,4215311.224,-259.132
433313.846,4215211.224,-232.855
433313.846,4215111.224,-203.320
433313.846,4215011.224,-181.532
433313.846,4214911.224,-154.773
433313.846,4214811.224,-149.718
433313.846,4214711.224,-145.567
433313.846,4214611.224,-142.269
433313.846,4214511.224,-139.037
433313.846,4214411.224,-136.190
433313.846,4214311.224,-133.070
433313.846,4214211.224,-132.018
433313.846,4214111.224,-131.924
433313.846,4214011.224,-130.869
433313.846,4213911.224,-129.507
433313.846,4213811.224,-127.776
433313.846,4213711.224,-126.170
433313.846,4213611.224,-124.080
433313.846,4213511.224,-122.677
433313.846,4213411.224,-121.645
433313.846,4213311.224,-120.292
433413.846,4218511.224,-657.581
433413.846,4218411.224,-638.070
433413.846,4218311.224,-624.783
433413.846,4218211.224,-617.577
433413.846,4218111.224,-611.434
433413.846,4218011.224,-610.591
433413.846,4217911.224,-604.334
433413.846,4217811.224,-596.805
433413.846,4217711.224,-591.755
433413.846,4217611.224,-586.937
433413.846,4217511.224,-580.792
433413.846,4217411.224,-577.185
433413.846,4217311.224,-571.201
433413.846,4217211.224,-567.097
433413.846,4217111.224,-552.556
433413.846,4217011.224,-529.164
433413.846,4216911.224,-509.519
433413.846,4216811.224,-496.391
433413.846,4216711.224,-486.724
433413.846,4216611.224,-481.420
433413.846,4216511.224,-478.794
433413.846,4216411.224,-468.218
433413.846,4216311.224,-457.145
433413.846,4216211.224,-448.878
433413.846,4216111.224,-443.391
433413.846,4216011.224,-439.008
433413.846,4215911.224,-439.571
433413.846,4215811.224,-414.216
433413.846,4215711.224,-378.127
433413.846,4215611.224,-344.039
433413.846,4215511.224,-318.639
433413.846,4215411.224,-291.488
433413.846,4215311.224,-273.497
433413.846,4215211.224,-249.836
433413.846,4215111.224,-219.757
433413.846,4215011.224,-178.530
433413.846,4214911.224,-152.795
433413.846,4214811.224,-149.270
433413.846,4214711.224,-145.366
433413.846,4214611.224,-141.888
433413.846,4214511.224,-139.031
433413.846,4214411.224,-136.014
433413.846,4214311.224,-133.441
433413.846,4214211.224,-131.958
433413.846,4214111.224,-131.634
433413.846,4214011.224,-130.549
433413.846,4213911.224,-129.208
433413.846,4213811.224,-127.492
433413.846,4213711.224,-126.263
433413.846,4213611.224,-123.473
433413.846,4213511.224,-121.923
433413.846,4213411.224,-121.134
433413.846,4213311.224,-120.085
433513.846,4218311.224,-649.182
433513.846,4218211.224,-627.482
433513.846,4218111.224,-620.993
433513.846,4218011.224,-609.962
433513.846,4217911.224,-604.389
433513.846,4217811.224,-596.596
433513.846,4217711.224,-587.958
433513.846,4217611.224,-580.912
433513.846,4217511.224,-575.675
433513.846,4217411.224,-572.362
433513.846,4217311.224,-567.984
433513.846,4217211.224,-563.121
433513.846,4217111.224,-558.334
433513.846,4217011.224,-545.259
433513.846,4216911.224,-518.621
433513.846,4216811.224,-493.892
433513.846,4216711.224,-475.484
433513.846,4216611.224,-458.449
433513.846,4216511.224,-441.081
433513.846,4216411.224,-438.866
433513.846,4216311.224,-437.319
433513.846,4216211.224,-433.354
433513.846,4216111.224,-418.677
433513.846,4216011.224,-411.476
433513.846,4215911.224,-399.751
433513.846,4215811.224,-385.133
433513.846,4215711.224,-368.439
433513.846,4215611.224,-333.222
433513.846,4215511.224,-308.302
433513.846,4215411.224,-278.383
433513.846,4215311.224,-252.221
433513.846,4215211.224,-232.952
433513.846,4215111.224,-207.627
433513.846,4215011.224,-171.273
433513.846,4214911.224,-151.748
433513.846,4214811.224,-148.544
433513.846,4214711.224,-145.028
433513.846,4214611.224,-141.969
433513.846,4214511.224,-139.102
433513.846,4214411.224,-136.467
433513.846,4214311.224,-133.290
433513.846,4214211.224,-131.979
433513.846,4214111.224,-131.491
433513.846,4214011.224,-130.301
433513.846,4213911.224,-128.917
433513.846,4213811.224,-127.119
433513.846,4213711.224,-125.532
433513.846,4213611.224,-123.386
433513.846,4213511.224,-121.542
433513.846,4213411.224,-120.565
433613.846,4218711.224,-667.539
433613.846,4218611.224,-668.923
433613.846,4218511.224,-666.585
433613.846,4218411.224,-665.846
433613.846,4218311.224,-661.413
433613.846,4218211.224,-648.650
433613.846,4218111.224,-627.080
433613.846,4218011.224,-610.110
433613.846,4217911.224,-599.405
433613.846,4217811.224,-591.557
433613.846,4217711.224,-585.281
433613.846,4217611.224,-575.191
433613.846,4217511.224,-569.104
433613.846,4217411.224,-560.649
433613.846,4217311.224,-557.252
433613.846,4217211.224,-551.283
433613.846,4217111.224,-548.441
433613.846,4217011.224,-541.256
433613.846,4216911.224,-530.208
433613.846,4216811.224,-510.850
433613.846,4216711.224,-483.056
433613.846,4216611.224,-465.635
433613.846,4216511.224,-447.626
433613.846,4216411.224,-427.750
433613.846,4216311.224,-406.194
433613.846,4216211.224,-405.451
433613.846,4216111.224,-391.797
433613.846,4216011.224,-385.592
433613.846,4215911.224,-376.319
433613.846,4215811.224,-361.620
433613.846,4215711.224,-340.242
433613.846,4215611.224,-328.356
433613.846,4215511.224,-307.732
433613.846,4215411.224,-270.184
433613.846,4215311.224,-242.957
433613.846,4215211.224,-218.862
433613.846,4215111.224,-201.176
433613.846,4215011.224,-164.116
433613.846,4214911.224,-150.433
433613.846,4214811.224,-147.500
433613.846,4214711.224,-144.365
433613.846,4214611.224,-141.685
433613.846,4214511.224,-138.884
433613.846,4214411.224,-136.216
433613.846,4214311.224,-133.323
433613.846,4214211.224,-131.708
433613.846,4214111.224,-131.052
433613.846,4214011.224,-129.872
433613.846,4213911.224,-128.486
433613.846,4213811.224,-126.904
433613.846,4213711.224,-125.015
433613.846,4213611.224,-123.210
433613.846,4213511.224,-121.295
433613.846,4213411.224,-120.218
433713.846,4218911.224,-667.688
433713.846,4218811.224,-661.609
433713.846,4218711.224,-656.477
433713.846,4218611.224,-652.164
433713.846,4218511.224,-648.453
433713.846,4218411.224,-648.820
433713.846,4218311.224,-648.527
433713.846,4218211.224,-647.184
433713.846,4218111.224,-634.389
433713.846,4218011.224,-610.961
433713.846,4217911.224,-607.716
433713.846,4217811.224,-590.023
433713.846,4217711.224,-581.511
433713.846,4217611.224,-576.666
433713.846,4217511.224,-567.378
433713.846,4217411.224,-555.989
433713.846,4217311.224,-542.742
433713.846,4217211.224,-533.947
433713.846,4217111.224,-527.290
433713.846,4217011.224,-529.907
433713.846,4216911.224,-525.318
433713.846,4216811.224,-517.905
433713.846,4216711.224,-502.036
433713.846,4216611.224,-467.315
433713.846,4216511.224,-448.484
433713.846,4216411.224,-429.600
433713.846,4216311.224,-404.762
433713.846,4216211.224,-379.360
433713.846,4216111.224,-369.661
433713.846,4216011.224,-356.598
433713.846,4215911.224,-352.976
433713.846,4215811.224,-344.967
433713.846,4215711.224,-322.444
433713.846,4215611.224,-303.302
433713.846,4215511.224,-289.331
433713.846,4215411.224,-271.274
433713.846,4215311.224,-239.421
433713.846,4215211.224,-213.701
433713.846,4215111.224,-193.306
433713.846,4215011.224,-158.630
433713.846,4214911.224,-149.391
433713.846,4214811.224,-146.179
433713.846,4214711.224,-143.565
433713.846,4214611.224,-141.045
433713.846,4214511.224,-138.497
433713.846,4214411.224,-136.207
433713.846,4214311.224,-134.030
433713.846,4214211.224,-131.585
433713.846,4214111.224,-130.818
433713.846,4214011.224,-129.428
433713.846,4213911.224,-128.055
433713.846,4213811.224,-126.308
433713.846,4213711.224,-124.625
433713.846,4213611.224,-121.519
433713.846,4213511.224,-120.446
433813.846,4218911.224,-660.900
433813.846,4218811.224,-653.156
433813.846,4218711.224,-646.134
433813.846,4218611.224,-639.562
433813.846,4218511.224,-634.894
433813.846,4218411.224,-632.552
433813.846,4218311.224,-632.693
433813.846,4218211.224,-631.836
433813.846,4218111.224,-627.690
433813.846,4218011.224,-619.659
433813.846,4217911.224,-603.115
433813.846,4217811.224,-601.043
433813.846,4217711.224,-577.304
433813.846,4217611.224,-572.596
433813.846,4217511.224,-565.317
433813.846,4217411.224,-549.443
433813.846,4217311.224,-532.337
433813.846,4217211.224,-514.204
433813.846,4217111.224,-506.290
433813.846,4217011.224,-502.705
433813.846,4216911.224,-516.332
433813.846,4216811.224,-513.148
433813.846,4216711.224,-502.393
433813.846,4216611.224,-482.561
433813.846,4216511.224,-457.712
433813.846,4216411.224,-425.381
433813.846,4216311.224,-401.840
433813.846,4216211.224,-380.422
433813.846,4216111.224,-355.662
433813.846,4216011.224,-332.681
433813.846,4215911.224,-326.368
433813.846,4215811.224,-314.094
433813.846,4215711.224,-300.043
433813.846,4215611.224,-279.227
433813.846,4215511.224,-264.134
433813.846,4215411.224,-245.487
433813.846,4215311.224,-223.692
433813.846,4215211.224,-207.638
433813.846,4215111.224,-182.779
433813.846,4215011.224,-153.577
433813.846,4214911.224,-148.663
433813.846,4214811.224,-145.140
433813.846,4214711.224,-142.959
433813.846,4214611.224,-140.182
433813.846,4214511.224,-138.107
433813.846,4214411.224,-135.996
433813.846,4214311.224,-133.694
433813.846,4214211.224,-131.206
433813.846,4214111.224,-130.416
433813.846,4214011.224,-129.290
433813.846,4213911.224,-127.574
433813.846,4213811.224,-125.820
433813.846,4213711.224,-124.177
433813.846,4213611.224,-121.833
433913.846,4218911.224,-655.136
433913.846,4218811.224,-646.141
433913.846,4218711.224,-637.928
433913.846,4218611.224,-629.512
433913.846,4218511.224,-621.599
433913.846,4218411.224,-620.317
433913.846,4218311.224,-618.898
433913.846,4218211.224,-615.829
433913.846,4218111.224,-613.342
433913.846,4218011.224,-611.824
433913.846,4217911.224,-604.091
433913.846,4217811.224,-600.219
433913.846,4217711.224,-577.943
433913.846,4217611.224,-568.979
433913.846,4217511.224,-563.901
433913.846,4217411.224,-543.101
433913.846,4217311.224,-531.140
433913.846,4217211.224,-506.718
433913.846,4217111.224,-496.854
433913.846,4217011.224,-486.961
433913.846,4216911.224,-482.730
433913.846,4216811.224,-484.319
433913.846,4216711.224,-482.902
433913.846,4216611.224,-476.572
433913.846,4216511.224,-466.606
433913.846,4216411.224,-449.353
433913.846,4216311.224,-412.999
433913.846,4216211.224,-392.328
433913.846,4216111.224,-363.630
433913.846,4216011.224,-342.049
433913.846,4215911.224,-317.235
433913.846,4215811.224,-294.060
433913.846,4215711.224,-274.008
433913.846,4215611.224,-254.918
433913.846,4215511.224,-239.126
433913.846,4215411.224,-227.405
433913.846,4215311.224,-208.481
433913.846,4215211.224,-201.115
433913.846,4215111.224,-174.889
433913.846,4215011.224,-152.196
433913.846,4214911.224,-147.178
433913.846,4214811.224,-144.582
433913.846,4214711.224,-142.130
433913.846,4214611.224,-139.704
433913.846,4214511.224,-137.709
433913.846,4214411.224,-135.588
433913.846,4214311.224,-133.161
433913.846,4214211.224,-130.975
433913.846,4214111.224,-130.099
433913.846,4214011.224,-129.034
433913.846,4213911.224,-127.202
433913.846,4213811.224,-125.397
433913.846,4213711.224,-123.511
433913.846,4213611.224,-121.578
434013.846,4219011.224,-667.156
434013.846,4218911.224,-651.636
434013.846,4218811.224,-639.821
434013.846,4218711.224,-631.385
434013.846,4218611.224,-620.743
434013.846,4218511.224,-615.435
434013.846,4218411.224,-609.276
434013.846,4218311.224,-607.443
434013.846,4218211.224,-603.466
434013.846,4218111.224,-598.718
434013.846,4218011.224,-595.536
434013.846,4217911.224,-591.953
434013.846,4217811.224,-588.811
434013.846,4217711.224,-565.057
434013.846,4217611.224,-560.960
434013.846,4217511.224,-553.994
434013.846,4217411.224,-537.461
434013.846,4217311.224,-522.586
434013.846,4217211.224,-504.433
434013.846,4217111.224,-492.834
434013.846,4217011.224,-481.283
434013.846,4216911.224,-459.913
434013.846,4216811.224,-448.211
434013.846,4216711.224,-456.797
434013.846,4216611.224,-456.389
434013.846,4216511.224,-455.640
434013.846,4216411.224,-449.377
434013.846,4216311.224,-437.555
434013.846,4216211.224,-404.629
434013.846,4216111.224,-371.997
434013.846,4216011.224,-349.600
434013.846,4215911.224,-326.977
434013.846,4215811.224,-303.021
434013.846,4215711.224,-283.594
434013.846,4215611.224,-263.331
434013.846,4215511.224,-238.598
434013.846,4215411.224,-215.881
434013.846,4215311.224,-208.790
434013.846,4215211.224,-203.031
434013.846,4215111.224,-177.102
434013.846,4215011.224,-152.256
434013.846,4214911.224,-147.620
434013.846,4214811.224,-144.115
434013.846,4214711.224,-141.515
434013.846,4214611.224,-139.183
434013.846,4214511.224,-137.359
434013.846,4214411.224,-135.236
434013.846,4214311.224,-132.479
434013.846,4214211.224,-130.086
434013.846,4214111.224,-129.738
434013.846,4214011.224,-128.398
434013.846,4213911.224,-126.584
434013.846,4213811.224,-124.932
434013.846,4213711.224,-123.494
434013.846,4213611.224,-121.172
434113.846,4219011.224,-663.768
434113.846,4218911.224,-647.959
434113.846,4218811.224,-634.179
434113.846,4218711.224,-624.660
434113.846,4218611.224,-612.890
434113.846,4218511.224,-602.485
434113.846,4218411.224,-598.341
434113.846,4218311.224,-595.604
434113.846,4218211.224,-591.066
434113.846,4218111.224,-586.411
434113.846,4218011.224,-580.010
434113.846,4217911.224,-576.418
434113.846,4217811.224,-568.620
434113.846,4217711.224,-546.463
434113.846,4217611.224,-530.170
434113.846,4217511.224,-546.956
434113.846,4217411.224,-538.090
434113.846,4217311.224,-522.615
434113.846,4217211.224,-494.373
434113.846,4217111.224,-478.267
434113.846,4217011.224,-457.032
434113.846,4216911.224,-447.264
434113.846,4216811.224,-429.650
434113.846,4216711.224,-432.893
434113.846,4216611.224,-430.750
434113.846,4216511.224,-425.033
434113.846,4216411.224,-422.544
434113.846,4216311.224,-428.717
434113.846,4216211.224,-422.317
434113.846,4216111.224,-404.144
434113.846,4216011.224,-375.029
434113.846,4215911.224,-354.837
434113.846,4215811.224,-326.559
434113.846,4215711.224,-301.061
434113.846,4215611.224,-276.931
434113.846,4215511.224,-251.679
434113.846,4215411.224,-241.750
434113.846,4215311.224,-240.148
434113.846,4215211.224,-220.337
434113.846,4215111.224,-188.968
434113.846,4215011.224,-156.012
434113.846,4214911.224,-147.058
434113.846,4214811.224,-143.697
434113.846,4214711.224,-141.050
434113.846,4214611.224,-138.735
434113.846,4214511.224,-136.993
434113.846,4214411.224,-134.922
434113.846,4214311.224,-131.933
434113.846,4214211.224,-130.032
434113.846,4214111.224,-129.517
434113.846,4214011.224,-127.786
434113.846,4213911.224,-126.217
434113.846,4213811.224,-124.388
434113.846,4213711.224,-122.561
434113.846,4213611.224,-120.610
434213.846,4219011.224,-659.061
434213.846,4218911.224,-643.826
434213.846,4218811.224,-627.325
434213.846,4218711.224,-616.836
434213.846,4218611.224,-606.145
434213.846,4218511.224,-594.766
434213.846,4218411.224,-587.850
434213.846,4218311.224,-583.384
434213.846,4218211.224,-579.088
434213.846,4218111.224,-574.095
434213.846,4218011.224,-568.472
434213.846,4217911.224,-563.332
434213.846,4217811.224,-555.528
434213.846,4217711.224,-532.118
434213.846,4217611.224,-501.167
434213.846,4217511.224,-522.942
434213.846,4217411.224,-527.820
434213.846,4217311.224,-521.376
434213.846,4217211.224,-505.382
434213.846,4217111.224,-470.174
434213.846,4217011.224,-440.973
434213.846,4216911.224,-431.458
434213.846,4216811.224,-416.408
434213.846,4216711.224,-407.605
434213.846,4216611.224,-406.374
434213.846,4216511.224,-399.690
434213.846,4216411.224,-393.404
434213.846,4216311.224,-396.380
434213.846,4216211.224,-403.409
434213.846,4216111.224,-402.964
434213.846,4216011.224,-392.294
434213.846,4215911.224,-379.389
434213.846,4215811.224,-348.611
434213.846,4215711.224,-322.294
434213.846,4215611.224,-296.596
434213.846,4215511.224,-284.608
434213.846,4215411.224,-273.779
434213.846,4215311.224,-250.948
434213.846,4215211.224,-222.297
434213.846,4215111.224,-193.303
434213.846,4215011.224,-163.204
434213.846,4214911.224,-146.192
434213.846,4214811.224,-142.774
434213.846,4214711.224,-140.386
434213.846,4214611.224,-138.232
434213.846,4214511.224,-136.687
434213.846,4214411.224,-134.487
434213.846,4214311.224,-131.558
434213.846,4214211.224,-130.316
434213.846,4214111.224,-129.574
434213.846,4214011.224,-127.419
434213.846,4213911.224,-125.721
434213.846,4213811.224,-123.993
434213.846,4213711.224,-122.410
434213.846,4213611.224,-120.353
434313.846,4219111.224,-666.516
434313.846,4219011.224,-654.046
434313.846,4218911.224,-639.674
434313.846,4218811.224,-623.632
434313.846,4218711.224,-609.351
434313.846,4218611.224,-599.511
434313.846,4218511.224,-589.598
434313.846,4218411.224,-580.068
434313.846,4218311.224,-571.385
434313.846,4218211.224,-566.493
434313.846,4218111.224,-561.663
434313.846,4218011.224,-556.403
434313.846,4217911.224,-551.458
434313.846,4217811.224,-543.787
434313.846,4217711.224,-530.117
434313.846,4217611.224,-484.265
434313.846,4217511.224,-489.686
434313.846,4217411.224,-511.480
434313.846,4217311.224,-517.266
434313.846,4217211.224,-505.099
434313.846,4217111.224,-475.846
434313.846,4217011.224,-440.756
434313.846,4216911.224,-415.292
434313.846,4216811.224,-400.004
434313.846,4216711.224,-383.390
434313.846,4216611.224,-380.338
434313.846,4216511.224,-372.318
434313.846,4216411.224,-373.715
434313.846,4216311.224,-368.859
434313.846,4216211.224,-372.582
434313.846,4216111.224,-371.897
434313.846,4216011.224,-369.470
434313.846,4215911.224,-351.431
434313.846,4215811.224,-334.917
434313.846,4215711.224,-323.633
434313.846,4215611.224,-312.652
434313.846,4215511.224,-292.468
434313.846,4215411.224,-272.787
434313.846,4215311.224,-248.605
434313.846,4215211.224,-224.017
434313.846,4215111.224,-196.935
434313.846,4215011.224,-164.175
434313.846,4214911.224,-145.152
434313.846,4214811.224,-141.354
434313.846,4214711.224,-139.546
434313.846,4214611.224,-137.629
434313.846,4214511.224,-135.964
434313.846,4214411.224,-134.212
434313.846,4214311.224,-131.268
434313.846,4214211.224,-129.749
434313.846,4214111.224,-129.366
434313.846,4214011.224,-127.317
434313.846,4213911.224,-125.254
434313.846,4213811.224,-123.573
434313.846,4213711.224,-121.698
434413.846,4219111.224,-665.139
434413.846,4219011.224,-650.039
434413.846,4218911.224,-636.113
434413.846,4218811.224,-620.209
434413.846,4218711.224,-604.379
434413.846,4218611.224,-592.203
434413.846,4218511.224,-582.116
434413.846,4218411.224,-571.912
434413.846,4218311.224,-561.831
434413.846,4218211.224,-554.912
434413.846,4218111.224,-550.396
434413.846,4218011.224,-546.222
434413.846,4217911.224,-540.478
434413.846,4217811.224,-533.448
434413.846,4217711.224,-523.062
434413.846,4217611.224,-496.732
434413.846,4217511.224,-467.902
434413.846,4217411.224,-478.524
434413.846,4217311.224,-497.952
434413.846,4217211.224,-497.246
434413.846,4217111.224,-478.063
434413.846,4217011.224,-450.049
434413.846,4216911.224,-419.713
434413.846,4216811.224,-390.756
434413.846,4216711.224,-359.501
434413.846,4216611.224,-358.762
434413.846,4216511.224,-345.837
434413.846,4216411.224,-348.150
434413.846,4216311.224,-344.779
434413.846,4216211.224,-349.475
434413.846,4216111.224,-341.860
434413.846,4216011.224,-341.976
434413.846,4215911.224,-333.947
434413.846,4215811.224,-310.938
434413.846,4215711.224,-289.906
434413.846,4215611.224,-274.896
434413.846,4215511.224,-266.942
434413.846,4215411.224,-257.260
434413.846,4215311.224,-229.423
434413.846,4215211.224,-202.733
434413.846,4215111.224,-179.033
434413.846,4215011.224,-153.038
434413.846,4214911.224,-144.177
434413.846,4214811.224,-140.201
434413.846,4214711.224,-138.588
434413.846,4214611.224,-137.061
434413.846,4214511.224,-135.470
434413.846,4214411.224,-133.756
434413.846,4214311.224,-132.031
434413.846,4214211.224,-129.221
434413.846,4214111.224,-128.736
434413.846,4214011.224,-127.061
434413.846,4213911.224,-124.865
434413.846,4213811.224,-123.082
434413.846,4213711.224,-121.111
434513.846,4222811.224,-667.827
434513.846,4222711.224,-668.618
434513.846,4219111.224,-665.345
434513.846,4219011.224,-650.945
434513.846,4218911.224,-636.048
434513.846,4218811.224,-619.220
434513.846,4218711.224,-601.951
434513.846,4218611.224,-586.705
434513.846,4218511.224,-574.901
434513.846,4218411.224,-565.295
434513.846,4218311.224,-554.417
434513.846,4218211.224,-544.328
434513.846,4218111.224,-539.303
434513.846,4218011.224,-534.336
434513.846,4217911.224,-529.718
434513.846,4217811.224,-522.631
434513.846,4217711.224,-513.610
434513.846,4217611.224,-494.483
434513.846,4217511.224,-445.989
434513.846,4217411.224,-457.268
434513.846,4217311.224,-462.752
434513.846,4217211.224,-481.448
434513.846,4217111.224,-470.878
434513.846,4217011.224,-450.284
434513.846,4216911.224,-420.885
434513.846,4216811.224,-394.029
434513.846,4216711.224,-362.156
434513.846,4216611.224,-335.188
434513.846,4216511.224,-323.678
434513.846,4216411.224,-322.665
434513.846,4216311.224,-326.564
434513.846,4216211.224,-331.091
434513.846,4216111.224,-318.742
434513.846,4216011.224,-314.161
434513.846,4215911.224,-310.943
434513.846,4215811.224,-297.985
434513.846,4215711.224,-277.400
434513.846,4215611.224,-256.418
434513.846,4215511.224,-243.374
434513.846,4215411.224,-236.778
434513.846,4215311.224,-221.022
434513.846,4215211.224,-197.236
434513.846,4215111.224,-163.355
434513.846,4215011.224,-147.329
434513.846,4214911.224,-142.779
434513.846,4214811.224,-139.283
434513.846,4214711.224,-137.521
434513.846,4214611.224,-135.971
434513.846,4214511.224,-134.736
434513.846,4214411.224,-133.008
434513.846,4214311.224,-131.199
434513.846,4214211.224,-128.830
434513.846,4214111.224,-128.542
434513.846,4214011.224,-126.758
434513.846,4213911.224,-124.636
434513.846,4213811.224,-122.497
434513.846,4213711.224,-120.613
434613.846,4223111.224,-669.326
434613.846,4223011.224,-667.663
434613.846,4222911.224,-661.735
434613.846,4222811.224,-657.870
434613.846,4222711.224,-659.650
434613.846,4222611.224,-663.489
434613.846,4219111.224,-661.715
434613.846,4219011.224,-646.422
434613.846,4218911.224,-631.876
434613.846,4218811.224,-615.171
434613.846,4218711.224,-597.496
434613.846,4218611.224,-579.175
434613.846,4218511.224,-567.712
434613.846,4218411.224,-557.482
434613.846,4218311.224,-547.044
434613.846,4218211.224,-535.698
434613.846,4218111.224,-528.652
434613.846,4218011.224,-523.872
434613.846,4217911.224,-518.140
434613.846,4217811.224,-510.965
434613.846,4217711.224,-501.719
434613.846,4217611.224,-486.205
434613.846,4217511.224,-437.014
434613.846,4217411.224,-433.332
434613.846,4217311.224,-439.892
434613.846,4217211.224,-448.801
434613.846,4217111.224,-454.366
434613.846,4217011.224,-457.920
434613.846,4216911.224,-426.638
434613.846,4216811.224,-396.250
434613.846,4216711.224,-369.372
434613.846,4216611.224,-338.335
434613.846,4216511.224,-307.996
434613.846,4216411.224,-295.941
434613.846,4216311.224,-299.558
434613.846,4216211.224,-315.232
434613.846,4216111.224,-298.549
434613.846,4216011.224,-286.053
434613.846,4215911.224,-287.959
434613.846,4215811.224,-278.438
434613.846,4215711.224,-262.680
434613.846,4215611.224,-233.979
434613.846,4215511.224,-220.116
434613.846,4215411.224,-213.908
434613.846,4215311.224,-204.468
434613.846,4215211.224,-186.850
434613.846,4215111.224,-154.553
434613.846,4215011.224,-145.749
434613.846,4214911.224,-141.450
434613.846,4214811.224,-138.617
434613.846,4214711.224,-136.681
434613.846,4214611.224,-135.422
434613.846,4214511.224,-134.118
434613.846,4214411.224,-132.805
434613.846,4214311.224,-131.118
434613.846,4214211.224,-128.917
434613.846,4214111.224,-127.935
434613.846,4214011.224,-126.344
434613.846,4213911.224,-124.062
434613.846,4213811.224,-122.038
434613.846,4213711.224,-120.168
434713.846,4223411.224,-663.815
434713.846,4223311.224,-660.726
434713.846,4223211.224,-658.170
434713.846,4223111.224,-656.142
434713.846,4223011.224,-654.262
434713.846,4222911.224,-649.967
434713.846,4222811.224,-647.207
434713.846,4222711.224,-648.519
434713.846,4222611.224,-653.384
434713.846,4219211.224,-665.849
434713.846,4219111.224,-655.989
434713.846,4219011.224,-642.719
434713.846,4218911.224,-625.808
434713.846,4218811.224,-608.205
434713.846,4218711.224,-590.625
434713.846,4218611.224,-573.005
434713.846,4218511.224,-558.621
434713.846,4218411.224,-549.353
434713.846,4218311.224,-538.534
434713.846,4218211.224,-528.086
434713.846,4218111.224,-517.157
434713.846,4218011.224,-511.011
434713.846,4217911.224,-506.146
434713.846,4217811.224,-497.969
434713.846,4217711.224,-489.167
434713.846,4217611.224,-475.306
434713.846,4217511.224,-445.926
434713.846,4217411.224,-410.953
434713.846,4217311.224,-414.781
434713.846,4217211.224,-419.357
434713.846,4217111.224,-424.908
434713.846,4217011.224,-427.243
434713.846,4216911.224,-413.404
434713.846,4216811.224,-390.518
434713.846,4216711.224,-362.073
434713.846,4216611.224,-336.066
434713.846,4216511.224,-307.398
434713.846,4216411.224,-283.139
434713.846,4216311.224,-278.903
434713.846,4216211.224,-285.859
434713.846,4216111.224,-265.769
434713.846,4216011.224,-267.030
434713.846,4215911.224,-264.488
434713.846,4215811.224,-253.956
434713.846,4215711.224,-238.678
434713.846,4215611.224,-216.820
434713.846,4215511.224,-199.996
434713.846,4215411.224,-191.987
434713.846,4215311.224,-187.808
434713.846,4215211.224,-165.834
434713.846,4215111.224,-149.830
434713.846,4215011.224,-144.419
434713.846,4214911.224,-140.802
434713.846,4214811.224,-138.165
434713.846,4214711.224,-136.103
434713.846,4214611.224,-134.726
434713.846,4214511.224,-133.538
434713.846,4214411.224,-132.268
434713.846,4214311.224,-131.028
434713.846,4214211.224,-128.148
434713.846,4214111.224,-127.274
434713.846,4214011.224,-125.745
434713.846,4213911.224,-123.758
434713.846,4213811.224,-121.471
434813.846,4223811.224,-667.774
434813.846,4223711.224,-661.629
434813.846,4223611.224,-658.990
434813.846,4223511.224,-656.789
434813.846,4223411.224,-650.327
434813.846,4223311.224,-648.317
434813.846,4223211.224,-644.963
434813.846,4223111.224,-642.076
434813.846,4223011.224,-641.254
434813.846,4222911.224,-639.473
434813.846,4222811.224,-637.283
434813.846,4222711.224,-638.225
434813.846,4222611.224,-643.506
434813.846,4222511.224,-655.355
434813.846,4219211.224,-662.061
434813.846,4219111.224,-648.102
434813.846,4219011.224,-633.600
434813.846,4218911.224,-619.052
434813.846,4218811.224,-601.632
434813.846,4218711.224,-583.168
434813.846,4218611.224,-564.743
434813.846,4218511.224,-551.950
434813.846,4218411.224,-540.285
434813.846,4218311.224,-529.233
434813.846,4218211.224,-519.911
434813.846,4218111.224,-507.092
434813.846,4218011.224,-497.903
434813.846,4217911.224,-490.754
434813.846,4217811.224,-483.136
434813.846,4217711.224,-476.615
434813.846,4217611.224,-467.127
434813.846,4217511.224,-446.788
434813.846,4217411.224,-418.376
434813.846,4217311.224,-390.267
434813.846,4217211.224,-394.009
434813.846,4217111.224,-394.883
434813.846,4217011.224,-390.006
434813.846,4216911.224,-402.940
434813.846,4216811.224,-383.174
434813.846,4216711.224,-359.176
434813.846,4216611.224,-335.076
434813.846,4216511.224,-310.857
434813.846,4216411.224,-283.875
434813.846,4216311.224,-260.404
434813.846,4216211.224,-257.063
434813.846,4216111.224,-251.458
434813.846,4216011.224,-243.733
434813.846,4215911.224,-241.238
434813.846,4215811.224,-224.031
434813.846,4215711.224,-211.837
434813.846,4215611.224,-201.081
434813.846,4215511.224,-189.970
434813.846,4215411.224,-181.208
434813.846,4215311.224,-168.164
434813.846,4215211.224,-152.935
434813.846,4215111.224,-146.759
434813.846,4215011.224,-142.835
434813.846,4214911.224,-140.099
434813.846,4214811.224,-137.476
434813.846,4214711.224,-135.682
434813.846,4214611.224,-134.094
434813.846,4214511.224,-132.894
434813.846,4214411.224,-131.574
434813.846,4214311.224,-130.409
434813.846,4214211.224,-128.657
434813.846,4214111.224,-126.875
434813.846,4214011.224,-125.185
434813.846,4213911.224,-123.168
434813.846,4213811.224,-120.862
434913.846,4223911.224,-668.673
434913.846,4223811.224,-660.498
434913.846,4223711.224,-652.523
434913.846,4223611.224,-646.956
434913.846,4223511.224,-643.456
434913.846,4223411.224,-637.653
434913.846,4223311.224,-634.935
434913.846,4223211.224,-632.244
434913.846,4223111.224,-629.986
434913.846,4223011.224,-629.764
434913.846,4222911.224,-626.598
434913.846,4222811.224,-625.971
434913.846,4222711.224,-627.999
434913.846,4222611.224,-633.667
434913.846,4222511.224,-644.838
434913.846,4222411.224,-659.699
434913.846,4219711.224,-665.440
434913.846,4219211.224,-665.767
434913.846,4219111.224,-645.429
434913.846,4219011.224,-627.658
434913.846,4218911.224,-611.178
434913.846,4218811.224,-593.372
434913.846,4218711.224,-574.466
434913.846,4218611.224,-556.268
434913.846,4218511.224,-544.653
434913.846,4218411.224,-533.395
434913.846,4218311.224,-520.493
434913.846,4218211.224,-509.215
434913.846,4218111.224,-498.001
434913.846,4218011.224,-488.062
434913.846,4217911.224,-477.732
434913.846,4217811.224,-470.066
434913.846,4217711.224,-463.608
434913.846,4217611.224,-456.261
434913.846,4217511.224,-433.716
434913.846,4217411.224,-408.015
434913.846,4217311.224,-365.061
434913.846,4217211.224,-372.713
434913.846,4217111.224,-371.785
434913.846,4217011.224,-364.824
434913.846,4216911.224,-382.233
434913.846,4216811.224,-375.680
434913.846,4216711.224,-360.405
434913.846,4216611.224,-337.280
434913.846,4216511.224,-313.757
434913.846,4216411.224,-285.710
434913.846,4216311.224,-258.545
434913.846,4216211.224,-238.116
434913.846,4216111.224,-229.052
434913.846,4216011.224,-223.924
434913.846,4215911.224,-214.324
434913.846,4215811.224,-199.031
434913.846,4215711.224,-193.686
434913.846,4215611.224,-188.902
434913.846,4215511.224,-182.130
434913.846,4215411.224,-173.857
434913.846,4215311.224,-153.671
434913.846,4215211.224,-148.733
434913.846,4215111.224,-145.584
434913.846,4215011.224,-142.150
434913.846,4214911.224,-139.336
434913.846,4214811.224,-137.139
434913.846,4214711.224,-135.479
434913.846,4214611.224,-133.983
434913.846,4214511.224,-132.595
434913.846,4214411.224,-131.114
434913.846,4214311.224,-129.990
434913.846,4214211.224,-127.944
434913.846,4214111.224,-126.171
434913.846,4214011.224,-124.392
434913.846,4213911.224,-122.182
434913.846,4213811.224,-120.157
435013.846,4223911.224,-664.069
435013.846,4223811.224,-654.909
435013.846,4223711.224,-647.411
435013.846,4223611.224,-639.216
435013.846,4223511.224,-633.982
435013.846,4223411.224,-627.621
435013.846,4223311.224,-624.158
435013.846,4223211.224,-620.943
435013.846,4223111.224,-619.757
435013.846,4223011.224,-619.269
435013.846,4222911.224,-622.007
435013.846,4222811.224,-618.658
435013.846,4222711.224,-618.200
435013.846,4222611.224,-622.904
435013.846,4222511.224,-634.594
435013.846,4222411.224,-661.246
435013.846,4219711.224,-664.395
435013.846,4219611.224,-667.531
435013.846,4219211.224,-669.032
435013.846,4219111.224,-649.981
435013.846,4219011.224,-627.602
435013.846,4218911.224,-606.259
435013.846,4218811.224,-586.692
435013.846,4218711.224,-567.175
435013.846,4218611.224,-550.545
435013.846,4218511.224,-537.045
435013.846,4218411.224,-525.603
435013.846,4218311.224,-512.915
435013.846,4218211.224,-502.352
435013.846,4218111.224,-490.927
435013.846,4218011.224,-477.772
435013.846,4217911.224,-468.240
435013.846,4217811.224,-459.152
435013.846,4217711.224,-449.974
435013.846,4217611.224,-443.877
435013.846,4217511.224,-430.219
435013.846,4217411.224,-404.610
435013.846,4217311.224,-351.918
435013.846,4217211.224,-348.557
435013.846,4217111.224,-350.230
435013.846,4217011.224,-348.073
435013.846,4216911.224,-356.941
435013.846,4216811.224,-357.000
435013.846,4216711.224,-346.512
435013.846,4216611.224,-332.999
435013.846,4216511.224,-308.724
435013.846,4216411.224,-281.505
435013.846,4216311.224,-256.379
435013.846,4216211.224,-239.913
435013.846,4216111.224,-222.314
435013.846,4216011.224,-206.284
435013.846,4215911.224,-192.300
435013.846,4215811.224,-187.138
435013.846,4215711.224,-183.057
435013.846,4215611.224,-179.605
435013.846,4215511.224,-174.971
435013.846,4215411.224,-156.733
435013.846,4215311.224,-149.617
435013.846,4215211.224,-146.616
435013.846,4215111.224,-144.220
435013.846,4215011.224,-141.308
435013.846,4214911.224,-139.290
435013.846,4214811.224,-136.915
435013.846,4214711.224,-135.355
435013.846,4214611.224,-133.914
435013.846,4214511.224,-132.529
435013.846,4214411.224,-131.006
435013.846,4214311.224,-129.373
435013.846,4214211.224,-126.502
435013.846,4214111.224,-125.623
435013.846,4214011.224,-123.818
435013.846,4213911.224,-121.742
435113.846,4224011.224,-669.168
435113.846,4223911.224,-660.700
435113.846,4223811.224,-651.147
435113.846,4223711.224,-641.266
435113.846,4223611.224,-632.039
435113.846,4223511.224,-626.820
435113.846,4223411.224,-617.946
435113.846,4223311.224,-613.375
435113.846,4223211.224,-610.720
435113.846,4223111.224,-609.639
435113.846,4223011.224,-609.016
435113.846,4222911.224,-606.541
435113.846,4222811.224,-607.405
435113.846,4222711.224,-608.788
435113.846,4222611.224,-619.693
435113.846,4222511.224,-638.620
435113.846,4222411.224,-655.432
435113.846,4222311.224,-661.555
435113.846,4222211.224,-650.412
435113.846,4222111.224,-669.005
435113.846,4220411.224,-668.683
435113.846,4219811.224,-668.371
435113.846,4219711.224,-661.401
435113.846,4219611.224,-659.585
435113.846,4219511.224,-665.545
435113.846,4219311.224,-660.147
435113.846,4219211.224,-650.949
435113.846,4219111.224,-646.941
435113.846,4219011.224,-631.717
435113.846,4218911.224,-608.003
435113.846,4218811.224,-584.042
435113.846,4218711.224,-562.295
435113.846,4218611.224,-545.014
435113.846,4218511.224,-529.368
435113.846,4218411.224,-515.874
435113.846,4218311.224,-495.839
435113.846,4218211.224,-490.376
435113.846,4218111.224,-482.184
435113.846,4218011.224,-469.948
435113.846,4217911.224,-458.051
435113.846,4217811.224,-447.432
435113.846,4217711.224,-437.675
435113.846,4217611.224,-429.959
435113.846,4217511.224,-424.286
435113.846,4217411.224,-401.221
435113.846,4217311.224,-357.740
435113.846,4217211.224,-326.239
435113.846,4217111.224,-326.795
435113.846,4217011.224,-326.918
435113.846,4216911.224,-336.830
435113.846,4216811.224,-329.209
435113.846,4216711.224,-316.976
435113.846,4216611.224,-316.603
435113.846,4216511.224,-300.878
435113.846,4216411.224,-272.282
435113.846,4216311.224,-252.209
435113.846,4216211.224,-235.732
435113.846,4216111.224,-218.373
435113.846,4216011.224,-201.589
435113.846,4215911.224,-183.463
435113.846,4215811.224,-179.599
435113.846,4215711.224,-175.838
435113.846,4215611.224,-171.137
435113.846,4215511.224,-159.306
435113.846,4215411.224,-150.604
435113.846,4215311.224,-147.243
435113.846,4215211.224,-144.588
435113.846,4215111.224,-142.726
435113.846,4215011.224,-140.095
435113.846,4214911.224,-137.942
435113.846,4214811.224,-136.255
435113.846,4214711.224,-134.716
435113.846,4214611.224,-133.707
435113.846,4214511.224,-132.144
435113.846,4214411.224,-130.778
435113.846,4214311.224,-128.918
435113.846,4214211.224,-126.611
435113.846,4214111.224,-125.104
435113.846,4214011.224,-123.257
435113.846,4213911.224,-120.889
435213.846,4224011.224,-667.796
435213.846,4223911.224,-658.335
435213.846,4223811.224,-648.925
435213.846,4223711.224,-638.838
435213.846,4223611.224,-629.392
435213.846,4223511.224,-619.267
435213.846,4223411.224,-610.015
435213.846,4223311.224,-606.474
435213.846,4223211.224,-603.477
435213.846,4223111.224,-601.032
435213.846,4223011.224,-600.296
435213.846,4222911.224,-597.729
435213.846,4222811.224,-598.457
435213.846,4222711.224,-600.067
435213.846,4222611.224,-620.530
435213.846,4222511.224,-629.687
435213.846,4222411.224,-640.017
435213.846,4222311.224,-637.137
435213.846,4222211.224,-636.409
435213.846,4222111.224,-659.594
435213.846,4220411.224,-664.120
435213.846,4220311.224,-664.659
435213.846,4219811.224,-665.227
435213.846,4219711.224,-659.577
435213.846,4219611.224,-656.727
435213.846,4219511.224,-653.773
435213.846,4219411.224,-667.312
435213.846,4219311.224,-650.020
435213.846,4219211.224,-637.799
435213.846,4219111.224,-629.112
435213.846,4219011.224,-617.739
435213.846,4218911.224,-604.331
435213.846,4218811.224,-583.443
435213.846,4218711.224,-560.198
435213.846,4218611.224,-541.929
435213.846,4218511.224,-524.143
435213.846,4218411.224,-496.292
435213.846,4218311.224,-473.559
435213.846,4218211.224,-467.679
435213.846,4218111.224,-469.826
435213.846,4218011.224,-457.484
435213.846,4217911.224,-443.950
435213.846,4217811.224,-440.127
435213.846,4217711.224,-435.024
435213.846,4217611.224,-425.289
435213.846,4217511.224,-418.668
435213.846,4217411.224,-400.458
435213.846,4217311.224,-369.701
435213.846,4217211.224,-322.819
435213.846,4217111.224,-306.923
435213.846,4217011.224,-301.415
435213.846,4216911.224,-307.687
435213.846,4216811.224,-302.112
435213.846,4216711.224,-294.386
435213.846,4216611.224,-287.052
435213.846,4216511.224,-279.033
435213.846,4216411.224,-266.740
435213.846,4216311.224,-249.309
435213.846,4216211.224,-230.208
435213.846,4216111.224,-214.900
435213.846,4216011.224,-192.296
435213.846,4215911.224,-177.619
435213.846,4215811.224,-173.968
435213.846,4215711.224,-169.617
435213.846,4215611.224,-157.441
435213.846,4215511.224,-151.122
435213.846,4215411.224,-147.883
435213.846,4215311.224,-145.315
435213.846,4215211.224,-142.685
435213.846,4215111.224,-141.225
435213.846,4215011.224,-138.882
435213.846,4214911.224,-137.287
435213.846,4214811.224,-135.502
435213.846,4214711.224,-133.900
435213.846,4214611.224,-132.842
435213.846,4214511.224,-131.375
435213.846,4214411.224,-130.115
435213.846,4214311.224,-128.497
435213.846,4214211.224,-126.467
435213.846,4214111.224,-124.175
435213.846,4214011.224,-122.650
435213.846,4213911.224,-120.776
435313.846,4224011.224,-665.196
435313.846,4223911.224,-656.540
435313.846,4223811.224,-647.654
435313.846,4223711.224,-636.458
435313.846,4223611.224,-623.857
435313.846,4223511.224,-612.777
435313.846,4223411.224,-607.927
435313.846,4223311.224,-604.585
435313.846,4223211.224,-600.282
435313.846,4223111.224,-597.413
435313.846,4223011.224,-594.939
435313.846,4222911.224,-593.514
435313.846,4222811.224,-593.104
435313.846,4222711.224,-593.833
435313.846,4222611.224,-610.068
435313.846,4222511.224,-616.583
435313.846,4222411.224,-625.574
435313.846,4222311.224,-620.071
435313.846,4222211.224,-629.002
435313.846,4222111.224,-643.991
435313.846,4222011.224,-661.496
435313.846,4220511.224,-666.054
435313.846,4220411.224,-662.226
435313.846,4220311.224,-661.245
435313.846,4220211.224,-667.541
435313.846,4219911.224,-664.420
435313.846,4219811.224,-658.190
435313.846,4219711.224,-656.160
