439627.085,4239201.815,-1540.854
439627.085,4239001.815,-1539.880
439627.085,4238801.815,-1537.203
439627.085,4238601.815,-1538.452
439627.085,4238401.815,-1539.509
439627.085,4238201.815,-1531.522
439627.085,4238001.815,-1532.202
439627.085,4237801.815,-1531.024
439627.085,4237601.815,-1528.887
439627.085,4237401.815,-1529.609
439627.085,4237201.815,-1525.549
439627.085,4237001.815,-1526.403
439627.085,4236801.815,-1525.023
439627.085,4236601.815,-1525.627
439627.085,4236401.815,-1525.178
439627.085,4236201.815,-1524.639
439627.085,4236001.815,-1524.154
439627.085,4235801.815,-1525.983
439627.085,4235601.815,-1528.395
439627.085,4235401.815,-1533.037
439627.085,4235201.815,-1527.326
439627.085,4235001.815,-1524.756
439627.085,4234801.815,-1519.335
439627.085,4234601.815,-1521.571
439627.085,4234401.815,-1519.521
439627.085,4234201.815,-1521.131
439627.085,4234001.815,-1522.687
439627.085,4233801.815,-1522.011
439627.085,4233601.815,-1522.300
439627.085,4233401.815,-1515.239
439627.085,4233201.815,-1513.716
439627.085,4233001.815,-1515.035
439627.085,4232801.815,-1516.868
439627.085,4232601.815,-1517.525
439627.085,4232401.815,-1520.038
439627.085,4232201.815,-1522.966
439627.085,4232001.815,-1521.443
439627.085,4231801.815,-1523.719
439627.085,4231601.815,-1523.196
439627.085,4231401.815,-1526.483
439627.085,4231201.815,-1522.396
439627.085,4231001.815,-1523.887
439627.085,4230801.815,-1521.870
439627.085,4230601.815,-1520.344
439627.085,4230401.815,-1517.976
439627.085,4230201.815,-1520.629
439627.085,4230001.815,-1515.521
439627.085,4229801.815,-1514.411
439627.085,4229601.815,-1510.381
439627.085,4229401.815,-1517.652
439627.085,4229201.815,-1514.510
439627.085,4229001.815,-1513.017
439627.085,4228801.815,-1514.415
439627.085,4228601.815,-1512.387
439627.085,4228401.815,-1511.627
439627.085,4228201.815,-1509.790
439627.085,4228001.815,-1510.887
439627.085,4227801.815,-1509.959
439627.085,4227601.815,-1509.509
439627.085,4227401.815,-1510.197
439627.085,4227201.815,-1510.195
439627.085,4227001.815,-1511.536
439627.085,4226801.815,-1521.401
439627.085,4226601.815,-1504.189
439627.085,4226401.815,-1363.095
439627.085,4226201.815,-1291.495
439627.085,4226001.815,-1247.512
439627.085,4225801.815,-1194.720
439627.085,4225601.815,-1098.722
439627.085,4225401.815,-1015.616
439627.085,4225201.815,-920.529
439627.085,4225001.815,-821.270
439627.085,4224801.815,-766.028
439627.085,4224601.815,-725.624
439627.085,4224401.815,-688.551
439627.085,4224201.815,-643.868
439627.085,4224001.815,-606.024
439627.085,4223801.815,-565.680
439627.085,4223601.815,-523.342
439827.085,4242201.815,-1541.733
439827.085,4242001.815,-1538.244
439827.085,4241801.815,-1540.786
439827.085,4241601.815,-1541.183
439827.085,4241401.815,-1541.478
439827.085,4241201.815,-1543.001
439827.085,4241001.815,-1543.450
439827.085,4240801.815,-1546.313
439827.085,4240601.815,-1543.918
439827.085,4240401.815,-1551.515
439827.085,4240201.815,-1547.955
439827.085,4240001.815,-1542.528
439827.085,4239801.815,-1539.624
439827.085,4239601.815,-1538.767
439827.085,4239401.815,-1545.489
439827.085,4239201.815,-1539.511
439827.085,4239001.815,-1539.940
439827.085,4238801.815,-1535.392
439827.085,4238601.815,-1534.401
439827.085,4238401.815,-1535.509
439827.085,4238201.815,-1531.627
439827.085,4238001.815,-1530.252
439827.085,4237801.815,-1535.616
439827.085,4237601.815,-1530.123
439827.085,4237401.815,-1529.363
439827.085,4237201.815,-1529.016
439827.085,4237001.815,-1529.177
439827.085,4236801.815,-1527.002
439827.085,4236601.815,-1530.361
439827.085,4236401.815,-1526.034
439827.085,4236201.815,-1527.766
439827.085,4236001.815,-1524.104
439827.085,4235801.815,-1524.575
439827.085,4235601.815,-1523.309
439827.085,4235401.815,-1523.052
439827.085,4235201.815,-1521.501
439827.085,4235001.815,-1515.460
439827.085,4234801.815,-1517.241
439827.085,4234601.815,-1519.832
439827.085,4234401.815,-1518.257
439827.085,4234201.815,-1518.188
439827.085,4234001.815,-1517.146
439827.085,4233801.815,-1519.956
439827.085,4233601.815,-1517.557
439827.085,4233401.815,-1516.274
439827.085,4233201.815,-1514.171
439827.085,4233001.815,-1515.195
439827.085,4232801.815,-1517.044
439827.085,4232601.815,-1515.999
439827.085,4232401.815,-1516.898
439827.085,4232201.815,-1518.657
439827.085,4232001.815,-1522.349
439827.085,4231801.815,-1524.089
439827.085,4231601.815,-1515.016
439827.085,4231401.815,-1516.805
439827.085,4231201.815,-1515.089
439827.085,4231001.815,-1514.889
439827.085,4230801.815,-1512.270
439827.085,4230601.815,-1514.689
439827.085,4230401.815,-1516.479
439827.085,4230201.815,-1513.411
439827.085,4230001.815,-1512.127
439827.085,4229801.815,-1511.319
439827.085,4229601.815,-1512.399
439827.085,4229401.815,-1508.063
439827.085,4229201.815,-1512.435
439827.085,4229001.815,-1508.213
439827.085,4228801.815,-1509.091
439827.085,4228601.815,-1510.036
439827.085,4228401.815,-1509.219
439827.085,4228201.815,-1508.613
439827.085,4228001.815,-1508.969
439827.085,4227801.815,-1506.556
439827.085,4227601.815,-1510.452
439827.085,4227401.815,-1507.798
439827.085,4227201.815,-1510.227
439827.085,4227001.815,-1516.284
439827.085,4226801.815,-1519.939
439827.085,4226601.815,-1510.681
439827.085,4226401.815,-1371.423
439827.085,4226201.815,-1316.433
439827.085,4226001.815,-1248.651
439827.085,4225801.815,-1188.252
439827.085,4225601.815,-1096.676
439827.085,4225401.815,-969.369
439827.085,4225201.815,-883.878
439827.085,4225001.815,-801.958
439827.085,4224801.815,-764.029
439827.085,4224601.815,-722.658
439827.085,4224401.815,-688.729
439827.085,4224201.815,-644.910
439827.085,4224001.815,-598.697
439827.085,4223801.815,-554.671
440027.085,4242201.815,-1540.031
440027.085,4242001.815,-1539.886
440027.085,4241801.815,-1541.600
440027.085,4241601.815,-1542.814
440027.085,4241401.815,-1542.458
440027.085,4241201.815,-1540.929
440027.085,4241001.815,-1539.685
440027.085,4240801.815,-1542.416
440027.085,4240601.815,-1545.750
440027.085,4240401.815,-1546.076
440027.085,4240201.815,-1540.009
440027.085,4240001.815,-1539.163
440027.085,4239801.815,-1539.789
440027.085,4239601.815,-1539.813
440027.085,4239401.815,-1536.648
440027.085,4239201.815,-1535.804
440027.085,4239001.815,-1532.677
440027.085,4238801.815,-1533.191
440027.085,4238601.815,-1531.571
440027.085,4238401.815,-1533.632
440027.085,4238201.815,-1528.693
440027.085,4238001.815,-1530.725
440027.085,4237801.815,-1531.198
440027.085,4237601.815,-1527.061
440027.085,4237401.815,-1525.951
440027.085,4237201.815,-1527.315
440027.085,4237001.815,-1526.163
440027.085,4236801.815,-1526.012
440027.085,4236601.815,-1525.237
440027.085,4236401.815,-1525.800
440027.085,4236201.815,-1525.255
440027.085,4236001.815,-1525.114
440027.085,4235801.815,-1524.763
440027.085,4235601.815,-1525.901
440027.085,4235401.815,-1525.291
440027.085,4235201.815,-1518.109
440027.085,4235001.815,-1516.797
440027.085,4234801.815,-1516.431
440027.085,4234601.815,-1517.784
440027.085,4234401.815,-1515.937
440027.085,4234201.815,-1514.865
440027.085,4234001.815,-1516.743
440027.085,4233801.815,-1515.706
440027.085,4233601.815,-1516.116
440027.085,4233401.815,-1517.190
440027.085,4233201.815,-1512.241
440027.085,4233001.815,-1512.503
440027.085,4232801.815,-1514.015
440027.085,4232601.815,-1513.772
440027.085,4232401.815,-1511.811
440027.085,4232201.815,-1517.761
440027.085,4232001.815,-1518.780
440027.085,4231801.815,-1519.387
440027.085,4231601.815,-1522.490
440027.085,4231401.815,-1522.480
440027.085,4231201.815,-1517.607
440027.085,4231001.815,-1515.941
440027.085,4230801.815,-1519.661
440027.085,4230601.815,-1516.035
440027.085,4230401.815,-1513.601
440027.085,4230201.815,-1513.408
440027.085,4230001.815,-1508.824
440027.085,4229801.815,-1510.251
440027.085,4229601.815,-1509.762
440027.085,4229401.815,-1509.829
440027.085,4229201.815,-1506.654
440027.085,4229001.815,-1507.250
440027.085,4228801.815,-1507.519
440027.085,4228601.815,-1504.523
440027.085,4228401.815,-1503.692
440027.085,4228201.815,-1500.704
440027.085,4228001.815,-1503.274
440027.085,4227801.815,-1503.632
440027.085,4227601.815,-1502.571
440027.085,4227401.815,-1502.122
440027.085,4227201.815,-1500.790
440027.085,4227001.815,-1501.326
440027.085,4226801.815,-1508.765
440027.085,4226601.815,-1477.717
440027.085,4226401.815,-1371.017
440027.085,4226201.815,-1304.250
440027.085,4226001.815,-1216.958
440027.085,4225801.815,-1168.997
440027.085,4225601.815,-1093.256
440027.085,4225401.815,-967.359
440027.085,4225201.815,-895.703
440027.085,4225001.815,-823.489
440027.085,4224801.815,-790.955
440027.085,4224601.815,-750.899
440027.085,4224401.815,-710.102
440027.085,4224201.815,-662.066
440027.085,4224001.815,-606.722
440027.085,4223801.815,-553.654
440227.085,4242201.815,-1542.486
440227.085,4242001.815,-1536.488
440227.085,4241801.815,-1537.005
440227.085,4241601.815,-1540.872
440227.085,4241401.815,-1539.992
440227.085,4241201.815,-1541.125
440227.085,4241001.815,-1542.151
440227.085,4240801.815,-1541.183
440227.085,4240601.815,-1542.676
440227.085,4240401.815,-1544.336
440227.085,4240201.815,-1542.683
440227.085,4240001.815,-1542.500
440227.085,4239801.815,-1542.185
440227.085,4239601.815,-1537.881
440227.085,4239401.815,-1537.111
440227.085,4239201.815,-1536.842
440227.085,4239001.815,-1535.830
440227.085,4238801.815,-1532.589
440227.085,4238601.815,-1531.912
440227.085,4238401.815,-1533.710
440227.085,4238201.815,-1533.337
440227.085,4238001.815,-1529.721
440227.085,4237801.815,-1529.381
440227.085,4237601.815,-1530.484
440227.085,4237401.815,-1530.254
440227.085,4237201.815,-1527.153
440227.085,4237001.815,-1525.938
440227.085,4236801.815,-1526.269
440227.085,4236601.815,-1523.606
440227.085,4236401.815,-1523.899
440227.085,4236201.815,-1525.723
440227.085,4236001.815,-1525.984
440227.085,4235801.815,-1521.544
440227.085,4235601.815,-1522.854
440227.085,4235401.815,-1525.219
440227.085,4235201.815,-1519.654
440227.085,4235001.815,-1516.755
440227.085,4234801.815,-1518.259
440227.085,4234601.815,-1514.666
440227.085,4234401.815,-1513.071
440227.085,4234201.815,-1515.133
440227.085,4234001.815,-1513.664
440227.085,4233801.815,-1514.506
440227.085,4233601.815,-1517.352
440227.085,4233401.815,-1510.307
440227.085,4233201.815,-1508.953
440227.085,4233001.815,-1509.891
440227.085,4232801.815,-1513.197
440227.085,4232601.815,-1512.498
440227.085,4232401.815,-1513.273
440227.085,4232201.815,-1513.829
440227.085,4232001.815,-1516.813
440227.085,4231801.815,-1517.394
440227.085,4231601.815,-1518.485
440227.085,4231401.815,-1517.348
440227.085,4231201.815,-1517.294
440227.085,4231001.815,-1517.630
440227.085,4230801.815,-1512.450
440227.085,4230601.815,-1511.650
440227.085,4230401.815,-1511.997
440227.085,4230201.815,-1509.315
440227.085,4230001.815,-1506.570
440227.085,4229801.815,-1505.458
440227.085,4229601.815,-1500.741
440227.085,4229401.815,-1508.017
440227.085,4229201.815,-1503.847
440227.085,4229001.815,-1502.393
440227.085,4228801.815,-1504.977
440227.085,4228601.815,-1501.324
440227.085,4228401.815,-1500.486
440227.085,4228201.815,-1499.998
440227.085,4228001.815,-1499.021
440227.085,4227801.815,-1500.443
440227.085,4227601.815,-1501.843
440227.085,4227401.815,-1497.665
440227.085,4227201.815,-1498.560
440227.085,4227001.815,-1496.840
440227.085,4226801.815,-1482.076
440227.085,4226601.815,-1385.775
440227.085,4226401.815,-1327.378
440227.085,4226201.815,-1263.533
440227.085,4226001.815,-1184.979
440227.085,4225801.815,-1118.822
440227.085,4225601.815,-1078.063
440227.085,4225401.815,-1017.721
440227.085,4225201.815,-898.732
440227.085,4225001.815,-813.011
440227.085,4224801.815,-764.236
440227.085,4224601.815,-716.858
440227.085,4224401.815,-687.290
440227.085,4224201.815,-661.697
440227.085,4224001.815,-613.200
440227.085,4223801.815,-559.923
440427.085,4242201.815,-1540.903
440427.085,4242001.815,-1539.117
440427.085,4241801.815,-1539.513
440427.085,4241601.815,-1541.220
440427.085,4241401.815,-1540.455
440427.085,4241201.815,-1540.354
440427.085,4241001.815,-1544.609
440427.085,4240801.815,-1543.155
440427.085,4240601.815,-1545.583
440427.085,4240401.815,-1548.144
440427.085,4240201.815,-1548.218
440427.085,4240001.815,-1545.977
440427.085,4239801.815,-1545.838
440427.085,4239601.815,-1543.527
440427.085,4239401.815,-1539.943
440427.085,4239201.815,-1539.226
440427.085,4239001.815,-1536.476
440427.085,4238801.815,-1535.271
440427.085,4238601.815,-1532.616
440427.085,4238401.815,-1533.987
440427.085,4238201.815,-1530.692
440427.085,4238001.815,-1529.408
440427.085,4237801.815,-1523.756
440427.085,4237601.815,-1527.912
440427.085,4237401.815,-1522.147
440427.085,4237201.815,-1525.739
440427.085,4237001.815,-1526.551
440427.085,4236801.815,-1523.153
440427.085,4236601.815,-1522.542
440427.085,4236401.815,-1523.198
440427.085,4236201.815,-1521.374
440427.085,4236001.815,-1519.836
440427.085,4235801.815,-1520.137
440427.085,4235601.815,-1520.738
440427.085,4235401.815,-1521.376
440427.085,4235201.815,-1515.280
440427.085,4235001.815,-1514.478
440427.085,4234801.815,-1517.305
440427.085,4234601.815,-1510.480
440427.085,4234401.815,-1512.105
440427.085,4234201.815,-1510.667
440427.085,4234001.815,-1513.400
440427.085,4233801.815,-1512.715
440427.085,4233601.815,-1504.977
440427.085,4233401.815,-1510.900
440427.085,4233201.815,-1506.459
440427.085,4233001.815,-1507.545
440427.085,4232801.815,-1509.498
440427.085,4232601.815,-1509.307
440427.085,4232401.815,-1509.163
440427.085,4232201.815,-1514.040
440427.085,4232001.815,-1516.306
440427.085,4231801.815,-1517.552
440427.085,4231601.815,-1515.324
440427.085,4231401.815,-1517.824
440427.085,4231201.815,-1515.529
440427.085,4231001.815,-1516.031
440427.085,4230801.815,-1509.707
440427.085,4230601.815,-1514.076
440427.085,4230401.815,-1507.931
440427.085,4230201.815,-1505.116
440427.085,4230001.815,-1502.672
440427.085,4229801.815,-1503.647
440427.085,4229601.815,-1501.077
440427.085,4229401.815,-1505.432
440427.085,4229201.815,-1502.686
440427.085,4229001.815,-1501.838
440427.085,4228801.815,-1502.834
440427.085,4228601.815,-1498.643
440427.085,4228401.815,-1498.242
440427.085,4228201.815,-1498.294
440427.085,4228001.815,-1497.436
440427.085,4227801.815,-1498.922
440427.085,4227601.815,-1504.659
440427.085,4227401.815,-1498.536
440427.085,4227201.815,-1500.647
440427.085,4227001.815,-1490.812
440427.085,4226801.815,-1456.043
440427.085,4226601.815,-1383.767
440427.085,4226401.815,-1315.129
440427.085,4226201.815,-1237.386
440427.085,4226001.815,-1162.147
440427.085,4225801.815,-1092.731
440427.085,4225601.815,-1008.762
440427.085,4225401.815,-949.355
440427.085,4225201.815,-876.021
440427.085,4225001.815,-819.152
440427.085,4224801.815,-751.335
440427.085,4224601.815,-731.943
440427.085,4224401.815,-680.131
440427.085,4224201.815,-654.606
440427.085,4224001.815,-596.315
440427.085,4223801.815,-547.329
440627.085,4242201.815,-1542.927
440627.085,4242001.815,-1540.435
440627.085,4241801.815,-1539.538
440627.085,4241601.815,-1541.628
440627.085,4241401.815,-1539.965
440627.085,4241201.815,-1540.080
440627.085,4241001.815,-1538.795
440627.085,4240801.815,-1541.034
440627.085,4240601.815,-1542.407
440627.085,4240401.815,-1543.291
440627.085,4240201.815,-1542.342
440627.085,4240001.815,-1539.338
440627.085,4239801.815,-1541.108
440627.085,4239601.815,-1540.015
440627.085,4239401.815,-1538.207
440627.085,4239201.815,-1534.980
440627.085,4239001.815,-1537.011
440627.085,4238801.815,-1533.212
440627.085,4238601.815,-1530.813
440627.085,4238401.815,-1527.056
440627.085,4238201.815,-1530.980
440627.085,4238001.815,-1528.282
440627.085,4237801.815,-1531.201
440627.085,4237601.815,-1525.846
440627.085,4237401.815,-1521.225
440627.085,4237201.815,-1524.499
440627.085,4237001.815,-1523.139
440627.085,4236801.815,-1521.487
440627.085,4236601.815,-1523.671
440627.085,4236401.815,-1520.770
440627.085,4236201.815,-1520.251
440627.085,4236001.815,-1518.453
440627.085,4235801.815,-1519.969
440627.085,4235601.815,-1517.836
440627.085,4235401.815,-1515.583
440627.085,4235201.815,-1514.248
440627.085,4235001.815,-1515.915
440627.085,4234801.815,-1512.931
440627.085,4234601.815,-1513.152
440627.085,4234401.815,-1510.689
440627.085,4234201.815,-1510.287
440627.085,4234001.815,-1509.585
440627.085,4233801.815,-1510.437
440627.085,4233601.815,-1508.535
440627.085,4233401.815,-1506.413
440627.085,4233201.815,-1503.822
440627.085,4233001.815,-1503.758
440627.085,4232801.815,-1506.784
440627.085,4232601.815,-1506.935
440627.085,4232401.815,-1510.752
440627.085,4232201.815,-1513.672
440627.085,4232001.815,-1517.033
440627.085,4231801.815,-1518.520
440627.085,4231601.815,-1516.847
440627.085,4231401.815,-1518.876
440627.085,4231201.815,-1517.029
440627.085,4231001.815,-1517.027
440627.085,4230801.815,-1515.191
440627.085,4230601.815,-1513.254
440627.085,4230401.815,-1508.765
440627.085,4230201.815,-1508.487
440627.085,4230001.815,-1504.534
440627.085,4229801.815,-1503.081
440627.085,4229601.815,-1502.370
440627.085,4229401.815,-1502.856
440627.085,4229201.815,-1499.738
440627.085,4229001.815,-1499.884
440627.085,4228801.815,-1496.505
440627.085,4228601.815,-1496.158
440627.085,4228401.815,-1495.737
440627.085,4228201.815,-1492.730
440627.085,4228001.815,-1492.084
440627.085,4227801.815,-1491.182
440627.085,4227601.815,-1496.877
440627.085,4227401.815,-1502.799
440627.085,4227201.815,-1501.709
440627.085,4227001.815,-1470.456
440627.085,4226801.815,-1394.181
440627.085,4226601.815,-1334.649
440627.085,4226401.815,-1282.359
440627.085,4226201.815,-1206.030
440627.085,4226001.815,-1152.841
440627.085,4225801.815,-1089.198
440627.085,4225601.815,-1016.016
440627.085,4225401.815,-954.485
440627.085,4225201.815,-913.957
440627.085,4225001.815,-834.285
440627.085,4224801.815,-787.984
440627.085,4224601.815,-751.137
440627.085,4224401.815,-734.642
440627.085,4224201.815,-685.788
440627.085,4224001.815,-628.568
440627.085,4223801.815,-591.127
440627.085,4223601.815,-536.363
440827.085,4242201.815,-1540.202
440827.085,4242001.815,-1538.489
440827.085,4241801.815,-1538.546
440827.085,4241601.815,-1538.148
440827.085,4241401.815,-1539.095
440827.085,4241201.815,-1538.910
440827.085,4241001.815,-1541.200
440827.085,4240801.815,-1540.816
440827.085,4240601.815,-1542.033
440827.085,4240401.815,-1541.454
440827.085,4240201.815,-1542.740
440827.085,4240001.815,-1543.168
440827.085,4239801.815,-1541.858
440827.085,4239601.815,-1538.859
440827.085,4239401.815,-1539.626
440827.085,4239201.815,-1534.583
440827.085,4239001.815,-1536.883
440827.085,4238801.815,-1530.655
440827.085,4238601.815,-1529.737
440827.085,4238401.815,-1528.100
440827.085,4238201.815,-1529.168
440827.085,4238001.815,-1528.975
440827.085,4237801.815,-1529.795
440827.085,4237601.815,-1529.311
440827.085,4237401.815,-1522.294
440827.085,4237201.815,-1522.488
440827.085,4237001.815,-1523.594
440827.085,4236801.815,-1522.108
440827.085,4236601.815,-1524.665
440827.085,4236401.815,-1519.828
440827.085,4236201.815,-1521.174
440827.085,4236001.815,-1520.994
440827.085,4235801.815,-1521.967
440827.085,4235601.815,-1521.456
440827.085,4235401.815,-1517.779
440827.085,4235201.815,-1516.354
440827.085,4235001.815,-1514.459
440827.085,4234801.815,-1513.804
440827.085,4234601.815,-1507.214
440827.085,4234401.815,-1508.409
440827.085,4234201.815,-1510.432
440827.085,4234001.815,-1509.123
440827.085,4233801.815,-1510.421
440827.085,4233601.815,-1509.016
440827.085,4233401.815,-1506.406
440827.085,4233201.815,-1503.445
440827.085,4233001.815,-1502.077
440827.085,4232801.815,-1505.922
440827.085,4232601.815,-1502.536
440827.085,4232401.815,-1505.853
440827.085,4232201.815,-1514.055
440827.085,4232001.815,-1513.536
440827.085,4231801.815,-1517.729
440827.085,4231601.815,-1517.031
440827.085,4231401.815,-1515.935
440827.085,4231201.815,-1517.110
440827.085,4231001.815,-1515.104
440827.085,4230801.815,-1514.563
440827.085,4230601.815,-1507.717
440827.085,4230401.815,-1507.146
440827.085,4230201.815,-1505.551
440827.085,4230001.815,-1500.534
440827.085,4229801.815,-1500.455
440827.085,4229601.815,-1501.588
440827.085,4229401.815,-1499.198
440827.085,4229201.815,-1498.733
440827.085,4229001.815,-1498.916
440827.085,4228801.815,-1496.920
440827.085,4228601.815,-1494.105
440827.085,4228401.815,-1491.678
440827.085,4228201.815,-1490.213
440827.085,4228001.815,-1492.385
440827.085,4227801.815,-1491.353
440827.085,4227601.815,-1493.073
440827.085,4227401.815,-1500.519
440827.085,4227201.815,-1463.872
440827.085,4227001.815,-1418.779
440827.085,4226801.815,-1360.247
440827.085,4226601.815,-1314.317
440827.085,4226401.815,-1275.481
440827.085,4226201.815,-1226.816
440827.085,4226001.815,-1164.568
440827.085,4225801.815,-1116.736
440827.085,4225601.815,-1041.415
440827.085,4225401.815,-977.882
440827.085,4225201.815,-919.018
440827.085,4225001.815,-847.327
440827.085,4224801.815,-793.577
440827.085,4224601.815,-774.325
440827.085,4224401.815,-749.672
440827.085,4224201.815,-699.599
440827.085,4224001.815,-632.524
440827.085,4223801.815,-589.361
440827.085,4223601.815,-555.787
441027.085,4242201.815,-1541.411
441027.085,4242001.815,-1536.712
441027.085,4241801.815,-1538.844
441027.085,4241601.815,-1541.074
441027.085,4241401.815,-1539.424
441027.085,4241201.815,-1537.912
441027.085,4241001.815,-1539.482
441027.085,4240801.815,-1538.955
441027.085,4240601.815,-1542.338
441027.085,4240401.815,-1541.262
441027.085,4240201.815,-1546.449
441027.085,4240001.815,-1538.321
441027.085,4239801.815,-1535.873
441027.085,4239601.815,-1537.407
441027.085,4239401.815,-1537.247
441027.085,4239201.815,-1534.628
441027.085,4239001.815,-1529.962
441027.085,4238801.815,-1526.250
441027.085,4238601.815,-1528.311
441027.085,4238401.815,-1527.545
441027.085,4238201.815,-1530.954
441027.085,4238001.815,-1528.839
441027.085,4237801.815,-1528.186
441027.085,4237601.815,-1528.890
441027.085,4237401.815,-1522.724
441027.085,4237201.815,-1523.706
441027.085,4237001.815,-1523.080
441027.085,4236801.815,-1519.846
441027.085,4236601.815,-1521.648
441027.085,4236401.815,-1522.122
441027.085,4236201.815,-1522.778
441027.085,4236001.815,-1521.433
441027.085,4235801.815,-1523.264
441027.085,4235601.815,-1522.253
441027.085,4235401.815,-1519.825
441027.085,4235201.815,-1513.307
441027.085,4235001.815,-1509.698
441027.085,4234801.815,-1512.536
441027.085,4234601.815,-1505.026
441027.085,4234401.815,-1505.579
441027.085,4234201.815,-1507.362
441027.085,4234001.815,-1503.218
441027.085,4233801.815,-1506.770
441027.085,4233601.815,-1509.121
441027.085,4233401.815,-1503.047
441027.085,4233201.815,-1502.159
441027.085,4233001.815,-1503.496
441027.085,4232801.815,-1504.921
441027.085,4232601.815,-1504.424
441027.085,4232401.815,-1506.051
441027.085,4232201.815,-1510.735
441027.085,4232001.815,-1512.607
441027.085,4231801.815,-1513.191
441027.085,4231601.815,-1511.950
441027.085,4231401.815,-1510.580
441027.085,4231201.815,-1507.713
441027.085,4231001.815,-1507.197
441027.085,4230801.815,-1506.677
441027.085,4230601.815,-1509.439
441027.085,4230401.815,-1505.219
441027.085,4230201.815,-1502.692
441027.085,4230001.815,-1499.546
441027.085,4229801.815,-1499.607
441027.085,4229601.815,-1498.362
441027.085,4229401.815,-1496.659
441027.085,4229201.815,-1496.309
441027.085,4229001.815,-1494.522
441027.085,4228801.815,-1492.271
441027.085,4228601.815,-1493.682
441027.085,4228401.815,-1492.720
441027.085,4228201.815,-1487.410
441027.085,4228001.815,-1490.746
441027.085,4227801.815,-1492.732
441027.085,4227601.815,-1491.496
441027.085,4227401.815,-1503.183
441027.085,4227201.815,-1460.543
441027.085,4227001.815,-1404.004
441027.085,4226801.815,-1333.339
441027.085,4226601.815,-1277.198
441027.085,4226401.815,-1223.615
441027.085,4226201.815,-1173.866
441027.085,4226001.815,-1133.621
441027.085,4225801.815,-1096.860
441027.085,4225601.815,-1049.927
441027.085,4225401.815,-981.761
441027.085,4225201.815,-926.322
441027.085,4225001.815,-848.944
441027.085,4224801.815,-801.117
441027.085,4224601.815,-769.460
441027.085,4224401.815,-738.109
441027.085,4224201.815,-700.094
441027.085,4224001.815,-650.423
441027.085,4223801.815,-594.483
441027.085,4223601.815,-535.388
441227.085,4242201.815,-1540.070
441227.085,4242001.815,-1539.341
441227.085,4241801.815,-1539.600
441227.085,4241601.815,-1539.631
441227.085,4241401.815,-1539.423
441227.085,4241201.815,-1539.733
441227.085,4241001.815,-1541.705
441227.085,4240801.815,-1541.231
441227.085,4240601.815,-1542.024
441227.085,4240401.815,-1544.370
441227.085,4240201.815,-1543.919
441227.085,4240001.815,-1544.621
441227.085,4239801.815,-1541.078
441227.085,4239601.815,-1539.248
441227.085,4239401.815,-1536.664
441227.085,4239201.815,-1532.966
441227.085,4239001.815,-1530.393
441227.085,4238801.815,-1534.233
441227.085,4238601.815,-1527.712
441227.085,4238401.815,-1528.225
441227.085,4238201.815,-1530.476
441227.085,4238001.815,-1530.421
441227.085,4237801.815,-1529.011
441227.085,4237601.815,-1526.046
441227.085,4237401.815,-1522.152
441227.085,4237201.815,-1526.259
441227.085,4237001.815,-1519.735
441227.085,4236801.815,-1520.314
441227.085,4236601.815,-1517.983
441227.085,4236401.815,-1520.199
441227.085,4236201.815,-1519.771
441227.085,4236001.815,-1517.295
441227.085,4235801.815,-1518.331
441227.085,4235601.815,-1515.309
441227.085,4235401.815,-1515.020
441227.085,4235201.815,-1509.784
441227.085,4235001.815,-1510.066
441227.085,4234801.815,-1507.141
441227.085,4234601.815,-1504.074
441227.085,4234401.815,-1503.903
441227.085,4234201.815,-1503.708
441227.085,4234001.815,-1506.138
441227.085,4233801.815,-1509.117
441227.085,4233601.815,-1505.840
441227.085,4233401.815,-1504.390
441227.085,4233201.815,-1500.716
441227.085,4233001.815,-1501.921
441227.085,4232801.815,-1503.151
441227.085,4232601.815,-1499.631
441227.085,4232401.815,-1501.292
441227.085,4232201.815,-1509.616
441227.085,4232001.815,-1509.718
441227.085,4231801.815,-1508.446
441227.085,4231601.815,-1511.968
441227.085,4231401.815,-1513.013
441227.085,4231201.815,-1506.590
441227.085,4231001.815,-1502.642
441227.085,4230801.815,-1503.829
441227.085,4230601.815,-1504.773
441227.085,4230401.815,-1501.078
441227.085,4230201.815,-1500.689
441227.085,4230001.815,-1499.075
441227.085,4229801.815,-1496.229
441227.085,4229601.815,-1493.153
441227.085,4229401.815,-1492.136
441227.085,4229201.815,-1493.805
441227.085,4229001.815,-1495.085
441227.085,4228801.815,-1493.144
441227.085,4228601.815,-1491.922
441227.085,4228401.815,-1492.521
441227.085,4228201.815,-1494.206
441227.085,4228001.815,-1491.143
441227.085,4227801.815,-1488.917
441227.085,4227601.815,-1498.885
441227.085,4227401.815,-1493.356
441227.085,4227201.815,-1460.275
441227.085,4227001.815,-1408.512
441227.085,4226801.815,-1350.529
441227.085,4226601.815,-1291.709
441227.085,4226401.815,-1226.779
441227.085,4226201.815,-1184.160
441227.085,4226001.815,-1149.568
441227.085,4225801.815,-1096.462
441227.085,4225601.815,-1036.368
441227.085,4225401.815,-989.615
441227.085,4225201.815,-924.108
441227.085,4225001.815,-861.368
441227.085,4224801.815,-799.006
441227.085,4224601.815,-767.892
441227.085,4224401.815,-745.122
441227.085,4224201.815,-696.640
441227.085,4224001.815,-639.021
441227.085,4223801.815,-585.592
441227.085,4223601.815,-527.538
441427.085,4242201.815,-1542.484
441427.085,4242001.815,-1539.200
441427.085,4241801.815,-1538.010
441427.085,4241601.815,-1540.690
441427.085,4241401.815,-1541.269
441427.085,4241201.815,-1539.802
441427.085,4241001.815,-1540.909
441427.085,4240801.815,-1541.535
441427.085,4240601.815,-1548.111
441427.085,4240401.815,-1548.202
441427.085,4240201.815,-1551.616
441427.085,4240001.815,-1543.432
441427.085,4239801.815,-1539.084
441427.085,4239601.815,-1538.575
441427.085,4239401.815,-1536.169
441427.085,4239201.815,-1534.272
441427.085,4239001.815,-1531.013
441427.085,4238801.815,-1528.626
441427.085,4238601.815,-1528.345
441427.085,4238401.815,-1531.402
441427.085,4238201.815,-1529.384
441427.085,4238001.815,-1528.700
441427.085,4237801.815,-1528.186
441427.085,4237601.815,-1527.065
441427.085,4237401.815,-1519.627
441427.085,4237201.815,-1522.938
441427.085,4237001.815,-1519.430
441427.085,4236801.815,-1519.156
441427.085,4236601.815,-1519.148
441427.085,4236401.815,-1520.860
441427.085,4236201.815,-1517.597
441427.085,4236001.815,-1518.337
441427.085,4235801.815,-1516.849
441427.085,4235601.815,-1516.108
441427.085,4235401.815,-1514.858
441427.085,4235201.815,-1507.282
441427.085,4235001.815,-1506.274
441427.085,4234801.815,-1505.843
441427.085,4234601.815,-1501.674
441427.085,4234401.815,-1500.373
441427.085,4234201.815,-1503.663
441427.085,4234001.815,-1506.288
441427.085,4233801.815,-1505.445
441427.085,4233601.815,-1501.517
441427.085,4233401.815,-1502.256
441427.085,4233201.815,-1497.636
441427.085,4233001.815,-1501.719
441427.085,4232801.815,-1503.978
441427.085,4232601.815,-1498.896
441427.085,4232401.815,-1501.741
441427.085,4232201.815,-1505.901
441427.085,4232001.815,-1509.930
441427.085,4231801.815,-1511.792
441427.085,4231601.815,-1512.089
441427.085,4231401.815,-1514.199
441427.085,4231201.815,-1510.751
441427.085,4231001.815,-1511.641
441427.085,4230801.815,-1508.472
441427.085,4230601.815,-1507.083
441427.085,4230401.815,-1500.076
441427.085,4230201.815,-1500.527
441427.085,4230001.815,-1498.069
441427.085,4229801.815,-1495.650
441427.085,4229601.815,-1492.758
441427.085,4229401.815,-1490.724
441427.085,4229201.815,-1489.948
441427.085,4229001.815,-1491.749
441427.085,4228801.815,-1488.935
441427.085,4228601.815,-1492.078
441427.085,4228401.815,-1491.258
441427.085,4228201.815,-1490.393
441427.085,4228001.815,-1486.514
441427.085,4227801.815,-1487.611
441427.085,4227601.815,-1490.677
441427.085,4227401.815,-1485.092
441427.085,4227201.815,-1435.962
441427.085,4227001.815,-1384.779
441427.085,4226801.815,-1321.268
441427.085,4226601.815,-1279.906
441427.085,4226401.815,-1210.320
441427.085,4226201.815,-1161.442
441427.085,4226001.815,-1119.875
441427.085,4225801.815,-1060.343
441427.085,4225601.815,-1008.593
441427.085,4225401.815,-987.412
441427.085,4225201.815,-893.067
441427.085,4225001.815,-851.729
441427.085,4224801.815,-783.036
441427.085,4224601.815,-714.415
441427.085,4224401.815,-705.845
441427.085,4224201.815,-673.259
441427.085,4224001.815,-632.025
441427.085,4223801.815,-571.222
441427.085,4223601.815,-521.927
441627.085,4242201.815,-1539.946
441627.085,4242001.815,-1540.387
441627.085,4241801.815,-1539.107
441627.085,4241601.815,-1541.074
441627.085,4241401.815,-1541.221
441627.085,4241201.815,-1541.016
441627.085,4241001.815,-1541.721
441627.085,4240801.815,-1539.678
441627.085,4240601.815,-1543.430
441627.085,4240401.815,-1541.375
441627.085,4240201.815,-1539.596
441627.085,4240001.815,-1538.524
441627.085,4239801.815,-1536.316
441627.085,4239601.815,-1533.266
441627.085,4239401.815,-1529.515
441627.085,4239201.815,-1529.179
441627.085,4239001.815,-1532.846
441627.085,4238801.815,-1527.627
441627.085,4238601.815,-1527.957
441627.085,4238401.815,-1523.828
441627.085,4238201.815,-1527.524
441627.085,4238001.815,-1526.069
441627.085,4237801.815,-1526.763
441627.085,4237601.815,-1525.198
441627.085,4237401.815,-1522.305
441627.085,4237201.815,-1527.463
441627.085,4237001.815,-1520.509
441627.085,4236801.815,-1517.973
441627.085,4236601.815,-1519.543
441627.085,4236401.815,-1519.048
441627.085,4236201.815,-1520.270
441627.085,4236001.815,-1518.154
441627.085,4235801.815,-1514.670
441627.085,4235601.815,-1513.582
441627.085,4235401.815,-1510.548
441627.085,4235201.815,-1507.741
441627.085,4235001.815,-1504.445
441627.085,4234801.815,-1504.062
441627.085,4234601.815,-1499.329
441627.085,4234401.815,-1499.782
441627.085,4234201.815,-1502.522
441627.085,4234001.815,-1497.293
441627.085,4233801.815,-1500.985
441627.085,4233601.815,-1493.750
441627.085,4233401.815,-1494.293
441627.085,4233201.815,-1493.278
441627.085,4233001.815,-1497.027
441627.085,4232801.815,-1500.603
441627.085,4232601.815,-1497.908
441627.085,4232401.815,-1499.075
441627.085,4232201.815,-1503.977
441627.085,4232001.815,-1505.539
441627.085,4231801.815,-1508.402
441627.085,4231601.815,-1508.256
441627.085,4231401.815,-1506.417
441627.085,4231201.815,-1510.083
441627.085,4231001.815,-1506.122
441627.085,4230801.815,-1506.227
441627.085,4230601.815,-1504.358
441627.085,4230401.815,-1500.498
441627.085,4230201.815,-1499.636
441627.085,4230001.815,-1496.989
441627.085,4229801.815,-1492.606
441627.085,4229601.815,-1488.519
441627.085,4229401.815,-1481.349
441627.085,4229201.815,-1487.651
441627.085,4229001.815,-1490.804
441627.085,4228801.815,-1489.468
441627.085,4228601.815,-1489.270
441627.085,4228401.815,-1488.168
441627.085,4228201.815,-1489.116
441627.085,4228001.815,-1489.710
441627.085,4227801.815,-1485.868
441627.085,4227601.815,-1476.415
441627.085,4227401.815,-1450.273
441627.085,4227201.815,-1421.182
441627.085,4227001.815,-1368.435
441627.085,4226801.815,-1306.058
441627.085,4226601.815,-1258.380
441627.085,4226401.815,-1203.651
441627.085,4226201.815,-1145.993
441627.085,4226001.815,-1101.574
441627.085,4225801.815,-1050.864
441627.085,4225601.815,-999.167
441627.085,4225401.815,-963.332
441627.085,4225201.815,-918.031
441627.085,4225001.815,-866.611
441627.085,4224801.815,-818.646
441627.085,4224601.815,-764.289
441627.085,4224401.815,-757.204
441627.085,4224201.815,-687.718
441627.085,4224001.815,-635.643
441627.085,4223801.815,-555.281
441827.085,4242201.815,-1543.519
441827.085,4242001.815,-1539.450
441827.085,4241801.815,-1539.094
441827.085,4241601.815,-1537.709
441827.085,4241401.815,-1538.584
441827.085,4241201.815,-1538.376
441827.085,4241001.815,-1537.382
441827.085,4240801.815,-1538.232
441827.085,4240601.815,-1543.346
441827.085,4240401.815,-1543.220
441827.085,4240201.815,-1541.101
441827.085,4240001.815,-1539.254
441827.085,4239801.815,-1540.509
441827.085,4239601.815,-1535.392
441827.085,4239401.815,-1536.405
441827.085,4239201.815,-1533.017
441827.085,4239001.815,-1531.392
441827.085,4238801.815,-1528.201
441827.085,4238601.815,-1526.059
441827.085,4238401.815,-1534.294
441827.085,4238201.815,-1525.836
441827.085,4238001.815,-1527.545
441827.085,4237801.815,-1527.242
441827.085,4237601.815,-1518.169
441827.085,4237401.815,-1522.314
441827.085,4237201.815,-1517.429
441827.085,4237001.815,-1516.581
441827.085,4236801.815,-1519.479
441827.085,4236601.815,-1517.642
441827.085,4236401.815,-1516.442
441827.085,4236201.815,-1517.162
441827.085,4236001.815,-1514.970
441827.085,4235801.815,-1515.581
441827.085,4235601.815,-1515.026
441827.085,4235401.815,-1513.116
441827.085,4235201.815,-1508.310
441827.085,4235001.815,-1503.390
441827.085,4234801.815,-1503.454
441827.085,4234601.815,-1500.195
441827.085,4234401.815,-1499.318
441827.085,4234201.815,-1501.726
441827.085,4234001.815,-1497.816
441827.085,4233801.815,-1495.405
441827.085,4233601.815,-1495.960
441827.085,4233401.815,-1498.178
441827.085,4233201.815,-1490.196
441827.085,4233001.815,-1496.232
441827.085,4232801.815,-1497.971
441827.085,4232601.815,-1495.204
441827.085,4232401.815,-1501.585
441827.085,4232201.815,-1499.609
441827.085,4232001.815,-1505.325
441827.085,4231801.815,-1505.700
441827.085,4231601.815,-1508.363
441827.085,4231401.815,-1510.066
441827.085,4231201.815,-1504.675
441827.085,4231001.815,-1502.077
441827.085,4230801.815,-1503.013
441827.085,4230601.815,-1499.375
441827.085,4230401.815,-1495.845
441827.085,4230201.815,-1495.779
441827.085,4230001.815,-1492.081
441827.085,4229801.815,-1489.409
441827.085,4229601.815,-1487.748
441827.085,4229401.815,-1485.025
441827.085,4229201.815,-1488.058
441827.085,4229001.815,-1487.984
441827.085,4228801.815,-1483.638
441827.085,4228601.815,-1486.399
441827.085,4228401.815,-1484.798
441827.085,4228201.815,-1488.905
441827.085,4228001.815,-1489.740
441827.085,4227801.815,-1476.151
441827.085,4227601.815,-1461.340
441827.085,4227401.815,-1439.796
441827.085,4227201.815,-1419.498
441827.085,4227001.815,-1376.172
441827.085,4226801.815,-1310.239
441827.085,4226601.815,-1257.250
441827.085,4226401.815,-1201.063
441827.085,4226201.815,-1156.570
441827.085,4226001.815,-1104.868
441827.085,4225801.815,-1067.059
441827.085,4225601.815,-1020.329
441827.085,4225401.815,-979.440
441827.085,4225201.815,-929.320
441827.085,4225001.815,-882.109
441827.085,4224801.815,-839.944
441827.085,4224601.815,-825.894
441827.085,4224401.815,-755.711
441827.085,4224201.815,-699.912
441827.085,4224001.815,-640.714
441827.085,4223801.815,-579.925
442027.085,4242201.815,-1538.701
442027.085,4242001.815,-1538.504
442027.085,4241801.815,-1542.238
442027.085,4241601.815,-1539.067
442027.085,4241401.815,-1539.052
442027.085,4241201.815,-1540.379
442027.085,4241001.815,-1540.644
442027.085,4240801.815,-1542.318
442027.085,4240601.815,-1544.143
442027.085,4240401.815,-1541.029
442027.085,4240201.815,-1540.265
442027.085,4240001.815,-1539.489
442027.085,4239801.815,-1537.845
442027.085,4239601.815,-1535.302
442027.085,4239401.815,-1533.701
442027.085,4239201.815,-1533.312
442027.085,4239001.815,-1529.150
442027.085,4238801.815,-1526.808
442027.085,4238601.815,-1525.631
442027.085,4238401.815,-1524.070
442027.085,4238201.815,-1524.077
442027.085,4238001.815,-1523.691
442027.085,4237801.815,-1524.316
442027.085,4237601.815,-1519.160
442027.085,4237401.815,-1521.703
442027.085,4237201.815,-1518.891
442027.085,4237001.815,-1517.262
442027.085,4236801.815,-1517.189
442027.085,4236601.815,-1519.158
442027.085,4236401.815,-1519.174
442027.085,4236201.815,-1515.819
442027.085,4236001.815,-1517.947
442027.085,4235801.815,-1513.351
442027.085,4235601.815,-1509.965
442027.085,4235401.815,-1506.370
442027.085,4235201.815,-1500.665
442027.085,4235001.815,-1498.184
442027.085,4234801.815,-1496.084
442027.085,4234601.815,-1496.610
442027.085,4234401.815,-1499.677
442027.085,4234201.815,-1499.171
442027.085,4234001.815,-1491.037
442027.085,4233801.815,-1491.622
442027.085,4233601.815,-1490.239
442027.085,4233401.815,-1488.525
442027.085,4233201.815,-1484.733
442027.085,4233001.815,-1489.720
442027.085,4232801.815,-1492.805
442027.085,4232601.815,-1489.069
442027.085,4232401.815,-1500.506
442027.085,4232201.815,-1498.709
442027.085,4232001.815,-1503.003
442027.085,4231801.815,-1506.866
442027.085,4231601.815,-1506.498
442027.085,4231401.815,-1505.806
442027.085,4231201.815,-1501.220
442027.085,4231001.815,-1495.749
442027.085,4230801.815,-1493.350
442027.085,4230601.815,-1493.532
442027.085,4230401.815,-1491.052
442027.085,4230201.815,-1488.768
442027.085,4230001.815,-1488.059
442027.085,4229801.815,-1484.734
442027.085,4229601.815,-1486.041
442027.085,4229401.815,-1484.522
442027.085,4229201.815,-1486.141
442027.085,4229001.815,-1486.679
442027.085,4228801.815,-1485.823
442027.085,4228601.815,-1486.803
442027.085,4228401.815,-1487.398
442027.085,4228201.815,-1490.095
442027.085,4228001.815,-1469.374
442027.085,4227801.815,-1456.881
442027.085,4227601.815,-1449.352
442027.085,4227401.815,-1420.678
442027.085,4227201.815,-1398.275
442027.085,4227001.815,-1374.749
442027.085,4226801.815,-1317.729
442027.085,4226601.815,-1264.002
442027.085,4226401.815,-1210.130
442027.085,4226201.815,-1173.716
442027.085,4226001.815,-1128.648
442027.085,4225801.815,-1088.991
442027.085,4225601.815,-1042.401
442027.085,4225401.815,-1005.581
442027.085,4225201.815,-967.898
442027.085,4225001.815,-935.683
442027.085,4224801.815,-907.946
442027.085,4224601.815,-861.105
442027.085,4224401.815,-776.245
442027.085,4224201.815,-736.155
442027.085,4224001.815,-662.279
442027.085,4223801.815,-602.875
442027.085,4223601.815,-541.279
442227.085,4242201.815,-1542.607
442227.085,4242001.815,-1539.788
442227.085,4241801.815,-1540.770
442227.085,4241601.815,-1541.893
442227.085,4241401.815,-1540.000
442227.085,4241201.815,-1539.163
442227.085,4241001.815,-1541.006
442227.085,4240801.815,-1544.488
442227.085,4240601.815,-1548.139
442227.085,4240401.815,-1550.659
442227.085,4240201.815,-1546.978
442227.085,4240001.815,-1542.582
442227.085,4239801.815,-1543.120
442227.085,4239601.815,-1536.384
442227.085,4239401.815,-1534.351
442227.085,4239201.815,-1531.060
442227.085,4239001.815,-1528.978
442227.085,4238801.815,-1523.442
442227.085,4238601.815,-1522.957
442227.085,4238401.815,-1520.617
442227.085,4238201.815,-1523.836
442227.085,4238001.815,-1520.003
442227.085,4237801.815,-1520.819
442227.085,4237601.815,-1517.474
442227.085,4237401.815,-1516.416
442227.085,4237201.815,-1516.938
442227.085,4237001.815,-1518.554
442227.085,4236801.815,-1519.954
442227.085,4236601.815,-1518.023
442227.085,4236401.815,-1519.465
442227.085,4236201.815,-1515.749
442227.085,4236001.815,-1518.870
442227.085,4235801.815,-1516.479
442227.085,4235601.815,-1511.127
442227.085,4235401.815,-1510.936
442227.085,4235201.815,-1504.985
442227.085,4235001.815,-1501.128
442227.085,4234801.815,-1500.506
442227.085,4234601.815,-1504.040
442227.085,4234401.815,-1494.518
442227.085,4234201.815,-1491.744
442227.085,4234001.815,-1490.350
442227.085,4233801.815,-1491.819
442227.085,4233601.815,-1485.284
442227.085,4233401.815,-1488.087
442227.085,4233201.815,-1485.798
442227.085,4233001.815,-1488.839
442227.085,4232801.815,-1488.160
442227.085,4232601.815,-1486.715
442227.085,4232401.815,-1490.904
442227.085,4232201.815,-1501.117
442227.085,4232001.815,-1499.631
442227.085,4231801.815,-1504.928
442227.085,4231601.815,-1507.388
442227.085,4231401.815,-1504.423
442227.085,4231201.815,-1499.246
442227.085,4231001.815,-1497.391
442227.085,4230801.815,-1494.609
442227.085,4230601.815,-1488.111
442227.085,4230401.815,-1488.922
442227.085,4230201.815,-1489.210
442227.085,4230001.815,-1487.100
442227.085,4229801.815,-1484.625
442227.085,4229601.815,-1484.963
442227.085,4229401.815,-1482.004
442227.085,4229201.815,-1482.033
442227.085,4229001.815,-1483.085
442227.085,4228801.815,-1483.627
442227.085,4228601.815,-1484.162
442227.085,4228401.815,-1482.973
442227.085,4228201.815,-1486.444
442227.085,4228001.815,-1454.455
442227.085,4227801.815,-1412.276
442227.085,4227601.815,-1426.992
442227.085,4227401.815,-1415.964
442227.085,4227201.815,-1401.156
442227.085,4227001.815,-1379.869
442227.085,4226801.815,-1344.020
442227.085,4226601.815,-1298.099
442227.085,4226401.815,-1239.637
442227.085,4226201.815,-1191.880
442227.085,4226001.815,-1144.534
442227.085,4225801.815,-1085.995
442227.085,4225601.815,-1048.317
442227.085,4225401.815,-1022.508
442227.085,4225201.815,-1029.573
442227.085,4225001.815,-984.762
442227.085,4224801.815,-954.978
442227.085,4224601.815,-879.902
442227.085,4224401.815,-774.893
442227.085,4224201.815,-690.123
442227.085,4224001.815,-669.197
442227.085,4223801.815,-633.738
442227.085,4223601.815,-574.593
442427.085,4242201.815,-1540.823
442427.085,4242001.815,-1535.964
442427.085,4241801.815,-1540.894
442427.085,4241601.815,-1542.178
442427.085,4241401.815,-1541.583
442427.085,4241201.815,-1540.003
442427.085,4241001.815,-1543.884
442427.085,4240801.815,-1543.243
442427.085,4240601.815,-1547.697
442427.085,4240401.815,-1550.130
442427.085,4240201.815,-1546.867
442427.085,4240001.815,-1539.861
442427.085,4239801.815,-1540.219
442427.085,4239601.815,-1532.301
442427.085,4239401.815,-1534.818
442427.085,4239201.815,-1532.331
442427.085,4239001.815,-1529.565
442427.085,4238801.815,-1523.258
442427.085,4238601.815,-1524.149
442427.085,4238401.815,-1523.899
442427.085,4238201.815,-1518.082
442427.085,4238001.815,-1518.796
442427.085,4237801.815,-1516.834
442427.085,4237601.815,-1510.109
442427.085,4237401.815,-1511.169
442427.085,4237201.815,-1513.410
442427.085,4237001.815,-1512.631
442427.085,4236801.815,-1512.425
442427.085,4236601.815,-1513.873
442427.085,4236401.815,-1511.972
442427.085,4236201.815,-1512.983
442427.085,4236001.815,-1511.852
442427.085,4235801.815,-1511.336
442427.085,4235601.815,-1508.867
442427.085,4235401.815,-1504.926
442427.085,4235201.815,-1503.219
442427.085,4235001.815,-1497.598
442427.085,4234801.815,-1499.932
442427.085,4234601.815,-1495.945
442427.085,4234401.815,-1490.447
442427.085,4234201.815,-1488.233
442427.085,4234001.815,-1487.269
442427.085,4233801.815,-1488.014
442427.085,4233601.815,-1486.600
442427.085,4233401.815,-1490.661
442427.085,4233201.815,-1488.176
442427.085,4233001.815,-1489.350
442427.085,4232801.815,-1488.958
442427.085,4232601.815,-1487.490
442427.085,4232401.815,-1492.554
442427.085,4232201.815,-1496.255
442427.085,4232001.815,-1497.656
442427.085,4231801.815,-1501.670
442427.085,4231601.815,-1504.276
442427.085,4231401.815,-1503.165
442427.085,4231201.815,-1500.721
442427.085,4231001.815,-1497.166
442427.085,4230801.815,-1498.014
442427.085,4230601.815,-1493.046
442427.085,4230401.815,-1488.423
442427.085,4230201.815,-1490.859
442427.085,4230001.815,-1485.094
442427.085,4229801.815,-1485.483
442427.085,4229601.815,-1480.889
442427.085,4229401.815,-1479.940
442427.085,4229201.815,-1482.233
442427.085,4229001.815,-1480.332
442427.085,4228801.815,-1477.535
442427.085,4228601.815,-1478.221
442427.085,4228401.815,-1478.455
442427.085,4228201.815,-1477.550
442427.085,4228001.815,-1451.506
442427.085,4227801.815,-1399.607
442427.085,4227601.815,-1369.355
442427.085,4227401.815,-1369.418
442427.085,4227201.815,-1369.792
442427.085,4227001.815,-1352.478
442427.085,4226801.815,-1326.403
442427.085,4226601.815,-1266.209
442427.085,4226401.815,-1219.214
442427.085,4226201.815,-1178.622
442427.085,4226001.815,-1136.047
442427.085,4225801.815,-1091.895
442427.085,4225601.815,-1060.363
442427.085,4225401.815,-1093.396
442427.085,4225201.815,-1077.967
442427.085,4225001.815,-1004.821
442427.085,4224801.815,-935.484
442427.085,4224601.815,-871.831
442427.085,4224401.815,-812.251
442427.085,4224201.815,-705.337
442427.085,4224001.815,-629.099
442427.085,4223801.815,-590.844
442427.085,4223601.815,-540.092
442627.085,4242201.815,-1542.599
442627.085,4242001.815,-1539.662
442627.085,4241801.815,-1535.067
442627.085,4241601.815,-1537.935
442627.085,4241401.815,-1539.756
442627.085,4241201.815,-1540.512
442627.085,4241001.815,-1543.144
442627.085,4240801.815,-1542.253
442627.085,4240601.815,-1549.386
442627.085,4240401.815,-1550.778
442627.085,4240201.815,-1548.280
442627.085,4240001.815,-1540.603
442627.085,4239801.815,-1542.193
442627.085,4239601.815,-1535.987
442627.085,4239401.815,-1533.538
442627.085,4239201.815,-1531.217
442627.085,4239001.815,-1527.350
442627.085,4238801.815,-1522.049
442627.085,4238601.815,-1521.056
442627.085,4238401.815,-1519.999
442627.085,4238201.815,-1515.256
442627.085,4238001.815,-1516.891
442627.085,4237801.815,-1514.436
442627.085,4237601.815,-1508.991
442627.085,4237401.815,-1514.089
442627.085,4237201.815,-1511.346
