506499.314,4234834.007,-662.527 
506499.314,4234734.007,-658.676 
506499.314,4234634.007,-653.167 
506499.314,4234534.007,-640.273 
506499.314,4234434.007,-615.971 
506499.314,4234334.007,-599.827 
506499.314,4234234.007,-597.092 
506499.314,4234134.007,-597.366 
506499.314,4234034.007,-599.305 
506499.314,4233934.007,-600.46 
506499.314,4233834.007,-602.284 
506499.314,4233734.007,-600.951 
506499.314,4233634.007,-599.177 
506499.314,4233534.007,-595.781 
506499.314,4233434.007,-592.414 
506499.314,4233334.007,-589.724 
506499.314,4233234.007,-585.992 
506499.314,4233134.007,-580.639 
506499.314,4233034.007,-575.024 
506499.314,4232934.007,-569.1 
506499.314,4232834.007,-563.814 
506499.314,4232734.007,-558.156 
506499.314,4232634.007,-552.426 
506499.314,4232534.007,-547.472 
506499.314,4232434.007,-541.641 
506499.314,4232334.007,-535.258 
506499.314,4232234.007,-529.276 
506499.314,4232134.007,-523.001 
506499.314,4232034.007,-516.933 
506499.314,4231934.007,-510.278 
506499.314,4231834.007,-504.983 
506499.314,4231734.007,-500.232 
506499.314,4231634.007,-493.988 
506499.314,4231534.007,-486.381 
506499.314,4231434.007,-478.168 
506499.314,4231334.007,-470.009 
506499.314,4231234.007,-462.05 
506499.314,4231134.007,-454.626 
506499.314,4231034.007,-447.128 
506499.314,4230934.007,-440.151 
506499.314,4230834.007,-433.153 
506499.314,4230734.007,-426.3 
506499.314,4230634.007,-418.614 
506499.314,4230534.007,-410.798 
506499.314,4230434.007,-403.36 
506499.314,4230334.007,-396.027 
506499.314,4230234.007,-388.497 
506499.314,4230134.007,-381.185 
506499.314,4230034.007,-373.867 
506499.314,4229934.007,-366.741 
506499.314,4229834.007,-360.175 
506499.314,4229734.007,-356.667 
506499.314,4229634.007,-356.705 
506499.314,4229534.007,-353.953 
506499.314,4229434.007,-350.356 
506499.314,4229334.007,-345.647 
506499.314,4229234.007,-338.634 
506499.314,4229134.007,-332.955 
506499.314,4229034.007,-327.23 
506499.314,4228934.007,-320.117 
506499.314,4228834.007,-313.094 
506499.314,4228734.007,-307.253 
506499.314,4228634.007,-303.644 
506499.314,4228534.007,-300.464 
506499.314,4228434.007,-296.209 
506499.314,4228334.007,-291.72 
506499.314,4228234.007,-286.629 
506499.314,4228134.007,-280.975 
506499.314,4228034.007,-275.255 
506499.314,4227934.007,-270.121 
506499.314,4227834.007,-264.816 
506499.314,4227734.007,-258.562 
506499.314,4227634.007,-251.736 
506499.314,4227534.007,-245.641 
506499.314,4227434.007,-240.322 
506499.314,4227334.007,-235.463 
506499.314,4227234.007,-230.177 
506499.314,4227134.007,-224.722 
506499.314,4227034.007,-219.261 
506499.314,4226934.007,-214.542 
506499.314,4226834.007,-210.438 
506499.314,4226734.007,-205.501 
506499.314,4226634.007,-201.097 
506499.314,4226534.007,-196.729 
506499.314,4226434.007,-192.802 
506499.314,4226334.007,-188.656 
506499.314,4226234.007,-184.436 
506499.314,4226134.007,-180.732 
506499.314,4226034.007,-176.869 
506499.314,4225934.007,-173.399 
506499.314,4225834.007,-169.516 
506599.314,4272734.007,-158.248 
506599.314,4272634.007,-172.579 
506599.314,4272534.007,-176.215 
506599.314,4272434.007,-178.465 
506599.314,4272334.007,-184.721 
506599.314,4272234.007,-215.776 
506599.314,4272134.007,-251.11 
506599.314,4272034.007,-267 
506599.314,4271934.007,-280.385 
506599.314,4271834.007,-286.824 
506599.314,4271734.007,-293.408 
506599.314,4271634.007,-302.496 
506599.314,4271534.007,-298.545 
506599.314,4271434.007,-296.43 
506599.314,4271334.007,-285.959 
506599.314,4271234.007,-290.093 
506599.314,4271134.007,-301.119 
506599.314,4271034.007,-307.848 
506599.314,4270934.007,-320.335 
506599.314,4270834.007,-354.083 
506599.314,4270734.007,-385.099 
506599.314,4270634.007,-412.585 
506599.314,4270534.007,-433.96 
506599.314,4270434.007,-446.886 
506599.314,4270334.007,-469.545 
506599.314,4270234.007,-502.639 
506599.314,4270134.007,-528.237 
506599.314,4270034.007,-550.571 
506599.314,4269934.007,-573.778 
506599.314,4269834.007,-594.809 
506599.314,4269734.007,-615.173 
506599.314,4269634.007,-634.4 
506599.314,4269534.007,-653.237 
506599.314,4269434.007,-673.402 
506599.314,4269334.007,-689.423 
506599.314,4239534.007,-696.09 
506599.314,4239434.007,-683.01 
506599.314,4239334.007,-670.467 
506599.314,4239234.007,-657.686 
506599.314,4239134.007,-648.882 
506599.314,4239034.007,-645.017 
506599.314,4238934.007,-641.956 
506599.314,4238834.007,-639.856 
506599.314,4238734.007,-637.004 
506599.314,4238634.007,-630.025 
506599.314,4238534.007,-626.965 
506599.314,4238434.007,-626.241 
506599.314,4238334.007,-624.747 
506599.314,4238234.007,-617.943 
506599.314,4238134.007,-610.265 
506599.314,4238034.007,-606.298 
506599.314,4237934.007,-601.587 
506599.314,4237834.007,-594.557 
506599.314,4237734.007,-591.106 
506599.314,4237634.007,-591.029 
506599.314,4237534.007,-592.427 
506599.314,4237434.007,-590.974 
506599.314,4237334.007,-588.882 
506599.314,4237234.007,-587.085 
506599.314,4237134.007,-585.105 
506599.314,4237034.007,-583.429 
506599.314,4236934.007,-582.279 
506599.314,4236834.007,-581.284 
506599.314,4236734.007,-582.583 
506599.314,4236634.007,-586.52 
506599.314,4236534.007,-591.3 
506599.314,4236434.007,-591.444 
506599.314,4236334.007,-589.898 
506599.314,4236234.007,-591.068 
506599.314,4236134.007,-592.457 
506599.314,4236034.007,-599.053 
506599.314,4235934.007,-617.623 
506599.314,4235834.007,-626.442 
506599.314,4235734.007,-640.531 
506599.314,4235634.007,-641.548 
506599.314,4235534.007,-645.011 
506599.314,4235434.007,-660.908 
506599.314,4235334.007,-661.139 
506599.314,4235234.007,-660.869 
506599.314,4235134.007,-660.072 
506599.314,4235034.007,-661.752 
506599.314,4234934.007,-660.874 
506599.314,4234834.007,-660.741 
506599.314,4234734.007,-658.479 
506599.314,4234634.007,-656.034 
506599.314,4234534.007,-649.734 
506599.314,4234434.007,-638.799 
506599.314,4234334.007,-617.453 
506599.314,4234234.007,-603.338 
506599.314,4234134.007,-604.951 
506599.314,4234034.007,-599.331 
506599.314,4233934.007,-592.516 
506599.314,4233834.007,-593.511 
506599.314,4233734.007,-593.065 
506599.314,4233634.007,-591.052 
506599.314,4233534.007,-590.606 
506599.314,4233434.007,-589.039 
506599.314,4233334.007,-586.909 
506599.314,4233234.007,-582.805 
506599.314,4233134.007,-577.838 
506599.314,4233034.007,-572.773 
506599.314,4232934.007,-566.891 
506599.314,4232834.007,-561.394 
506599.314,4232734.007,-555.61 
506599.314,4232634.007,-550.171 
506599.314,4232534.007,-545.63 
506599.314,4232434.007,-540.478 
506599.314,4232334.007,-534.241 
506599.314,4232234.007,-528.631 
506599.314,4232134.007,-523.176 
506599.314,4232034.007,-517.477 
506599.314,4231934.007,-510.872 
506599.314,4231834.007,-504.794 
506599.314,4231734.007,-498.969 
506599.314,4231634.007,-492.203 
506599.314,4231534.007,-484.526 
506599.314,4231434.007,-476.785 
506599.314,4231334.007,-468.36 
506599.314,4231234.007,-460.337 
506599.314,4231134.007,-452.807 
506599.314,4231034.007,-445.345 
506599.314,4230934.007,-438.402 
506599.314,4230834.007,-431.553 
506599.314,4230734.007,-424.376 
506599.314,4230634.007,-416.984 
506599.314,4230534.007,-409.503 
506599.314,4230434.007,-402.193 
506599.314,4230334.007,-394.676 
506599.314,4230234.007,-387.237 
506599.314,4230134.007,-379.729 
506599.314,4230034.007,-372.352 
506599.314,4229934.007,-365.004 
506599.314,4229834.007,-357.993 
506599.314,4229734.007,-352.167 
506599.314,4229634.007,-350.472 
506599.314,4229534.007,-351.243 
506599.314,4229434.007,-348.651 
506599.314,4229334.007,-344.565 
506599.314,4229234.007,-338.027 
506599.314,4229134.007,-331.278 
506599.314,4229034.007,-325.912 
506599.314,4228934.007,-319.834 
506599.314,4228834.007,-313.477 
506599.314,4228734.007,-308.918 
506599.314,4228634.007,-305.121 
506599.314,4228534.007,-300.675 
506599.314,4228434.007,-295.904 
506599.314,4228334.007,-290.565 
506599.314,4228234.007,-284.878 
506599.314,4228134.007,-278.511 
506599.314,4228034.007,-273.222 
506599.314,4227934.007,-268.797 
506599.314,4227834.007,-262.979 
506599.314,4227734.007,-257.049 
506599.314,4227634.007,-251.604 
506599.314,4227534.007,-246.465 
506599.314,4227434.007,-241.739 
506599.314,4227334.007,-237.02 
506599.314,4227234.007,-231.946 
506599.314,4227134.007,-226.611 
506599.314,4227034.007,-221.255 
506599.314,4226934.007,-216.184 
506599.314,4226834.007,-211.197 
506599.314,4226734.007,-207.018 
506599.314,4226634.007,-202.571 
506599.314,4226534.007,-198.138 
506599.314,4226434.007,-193.966 
506599.314,4226334.007,-189.886 
506599.314,4226234.007,-185.701 
506599.314,4226134.007,-182.303 
506599.314,4226034.007,-178.455 
506599.314,4225934.007,-174.703 
506599.314,4225834.007,-168.371 
506699.314,4272634.007,-155.442 
506699.314,4272534.007,-165.51 
506699.314,4272434.007,-168.902 
506699.314,4272334.007,-171.606 
506699.314,4272234.007,-183.509 
506699.314,4272134.007,-223.172 
506699.314,4272034.007,-252.048 
506699.314,4271934.007,-260.299 
506699.314,4271834.007,-252.61 
506699.314,4271734.007,-255.386 
506699.314,4271634.007,-262.954 
506699.314,4271534.007,-255.41 
506699.314,4271434.007,-254.506 
506699.314,4271334.007,-251.079 
506699.314,4271234.007,-257.796 
506699.314,4271134.007,-267.418 
506699.314,4271034.007,-274.589 
506699.314,4270934.007,-300.482 
506699.314,4270834.007,-335.097 
506699.314,4270734.007,-373.917 
506699.314,4270634.007,-404.294 
506699.314,4270534.007,-427.916 
506699.314,4270434.007,-448.701 
506699.314,4270334.007,-472.852 
506699.314,4270234.007,-501.45 
506699.314,4270134.007,-529.993 
506699.314,4270034.007,-552.823 
506699.314,4269934.007,-571.608 
506699.314,4269834.007,-591.259 
506699.314,4269734.007,-609.487 
506699.314,4269634.007,-626.655 
506699.314,4269534.007,-647.321 
506699.314,4269434.007,-666.558 
506699.314,4269334.007,-682.082 
506699.314,4239634.007,-697.972 
506699.314,4239534.007,-690.798 
506699.314,4239434.007,-683.523 
506699.314,4239334.007,-667.464 
506699.314,4239234.007,-654.99 
506699.314,4239134.007,-643.953 
506699.314,4239034.007,-639.899 
506699.314,4238934.007,-634.516 
506699.314,4238834.007,-629.295 
506699.314,4238734.007,-625.527 
506699.314,4238634.007,-622.364 
506699.314,4238534.007,-619.214 
506699.314,4238434.007,-618.434 
506699.314,4238334.007,-617.069 
506699.314,4238234.007,-612.333 
506699.314,4238134.007,-607.071 
506699.314,4238034.007,-603.218 
506699.314,4237934.007,-596.865 
506699.314,4237834.007,-593.421 
506699.314,4237734.007,-589.95 
506699.314,4237634.007,-588.059 
506699.314,4237534.007,-588.367 
506699.314,4237434.007,-586.868 
506699.314,4237334.007,-584.726 
506699.314,4237234.007,-583.122 
506699.314,4237134.007,-581.432 
506699.314,4237034.007,-579.646 
506699.314,4236934.007,-578.474 
506699.314,4236834.007,-577.342 
506699.314,4236734.007,-576.539 
506699.314,4236634.007,-579.778 
506699.314,4236534.007,-582.538 
506699.314,4236434.007,-583.785 
506699.314,4236334.007,-584.289 
506699.314,4236234.007,-585.203 
506699.314,4236134.007,-585.719 
506699.314,4236034.007,-586.916 
506699.314,4235934.007,-588.331 
506699.314,4235834.007,-597.416 
506699.314,4235734.007,-608.273 
506699.314,4235634.007,-605.227 
506699.314,4235534.007,-613.92 
506699.314,4235434.007,-651.699 
506699.314,4235334.007,-655.644 
506699.314,4235234.007,-655.969 
506699.314,4235134.007,-656.813 
506699.314,4235034.007,-656.083 
506699.314,4234934.007,-656.22 
506699.314,4234834.007,-657.308 
506699.314,4234734.007,-656.01 
506699.314,4234634.007,-654.577 
506699.314,4234534.007,-651.387 
506699.314,4234434.007,-645.965 
506699.314,4234334.007,-639.354 
506699.314,4234234.007,-630.947 
506699.314,4234134.007,-627.335 
506699.314,4234034.007,-620.191 
506699.314,4233934.007,-606.016 
506699.314,4233834.007,-588.481 
506699.314,4233734.007,-586.502 
506699.314,4233634.007,-583.292 
506699.314,4233534.007,-581.942 
506699.314,4233434.007,-580.81 
506699.314,4233334.007,-578.908 
506699.314,4233234.007,-575.794 
506699.314,4233134.007,-571.813 
506699.314,4233034.007,-567.778 
506699.314,4232934.007,-563.389 
506699.314,4232834.007,-558.2 
506699.314,4232734.007,-552.805 
506699.314,4232634.007,-547.503 
506699.314,4232534.007,-543.41 
506699.314,4232434.007,-538.483 
506699.314,4232334.007,-532.436 
506699.314,4232234.007,-527.559 
506699.314,4232134.007,-522.492 
506699.314,4232034.007,-516.337 
506699.314,4231934.007,-509.525 
506699.314,4231834.007,-502.756 
506699.314,4231734.007,-496.092 
506699.314,4231634.007,-488.905 
506699.314,4231534.007,-481.369 
506699.314,4231434.007,-474.182 
506699.314,4231334.007,-466.257 
506699.314,4231234.007,-458.541 
506699.314,4231134.007,-451.147 
506699.314,4231034.007,-443.616 
506699.314,4230934.007,-436.563 
506699.314,4230834.007,-429.757 
506699.314,4230734.007,-422.848 
506699.314,4230634.007,-415.766 
506699.314,4230534.007,-408.764 
506699.314,4230434.007,-401.284 
506699.314,4230334.007,-393.904 
506699.314,4230234.007,-386.364 
506699.314,4230134.007,-378.956 
506699.314,4230034.007,-371.341 
506699.314,4229934.007,-363.854 
506699.314,4229834.007,-356.456 
506699.314,4229734.007,-349.495 
506699.314,4229634.007,-344.838 
506699.314,4229534.007,-345.87 
506699.314,4229434.007,-345.952 
506699.314,4229334.007,-342.232 
506699.314,4229234.007,-337.384 
506699.314,4229134.007,-330.34 
506699.314,4229034.007,-324.169 
506699.314,4228934.007,-319.046 
506699.314,4228834.007,-313.919 
506699.314,4228734.007,-309.664 
506699.314,4228634.007,-304.957 
506699.314,4228534.007,-300.101 
506699.314,4228434.007,-294.908 
506699.314,4228334.007,-288.682 
506699.314,4228234.007,-282.088 
506699.314,4228134.007,-275.902 
506699.314,4228034.007,-271.997 
506699.314,4227934.007,-267.077 
506699.314,4227834.007,-261.526 
506699.314,4227734.007,-256.314 
506699.314,4227634.007,-251.949 
506699.314,4227534.007,-247.513 
506699.314,4227434.007,-243.508 
506699.314,4227334.007,-238.97 
506699.314,4227234.007,-233.773 
506699.314,4227134.007,-228.701 
506699.314,4227034.007,-223.466 
506699.314,4226934.007,-218.546 
506699.314,4226834.007,-213.81 
506699.314,4226734.007,-209.095 
506699.314,4226634.007,-204.467 
506699.314,4226534.007,-200.109 
506699.314,4226434.007,-195.758 
506699.314,4226334.007,-191.722 
506699.314,4226234.007,-187.148 
506699.314,4226134.007,-183.661 
506699.314,4226034.007,-180.15 
506699.314,4225934.007,-176.478 
506699.314,4225834.007,-165.182 
506799.314,4272634.007,-150.834 
506799.314,4272534.007,-161.414 
506799.314,4272434.007,-167.1 
506799.314,4272334.007,-167.266 
506799.314,4272234.007,-178.145 
506799.314,4272134.007,-212.382 
506799.314,4272034.007,-227.918 
506799.314,4271934.007,-229.354 
506799.314,4271834.007,-208.608 
506799.314,4271734.007,-209.085 
506799.314,4271634.007,-218.27 
506799.314,4271534.007,-220.486 
506799.314,4271434.007,-223.984 
506799.314,4271334.007,-225.265 
506799.314,4271234.007,-237.501 
506799.314,4271134.007,-249.052 
506799.314,4271034.007,-270.438 
506799.314,4270934.007,-305.35 
506799.314,4270834.007,-345.79 
506799.314,4270734.007,-384.169 
506799.314,4270634.007,-415.18 
506799.314,4270534.007,-446.946 
506799.314,4270434.007,-469.479 
506799.314,4270334.007,-489.389 
506799.314,4270234.007,-513.081 
506799.314,4270134.007,-534.533 
506799.314,4270034.007,-555.111 
506799.314,4269934.007,-576.97 
506799.314,4269834.007,-598.501 
506799.314,4269734.007,-614.983 
506799.314,4269634.007,-627.39 
506799.314,4269534.007,-643.601 
506799.314,4269434.007,-663.414 
506799.314,4269334.007,-679.008 
506799.314,4269234.007,-693.058 
506799.314,4239634.007,-697.213 
506799.314,4239534.007,-688.015 
506799.314,4239434.007,-677.327 
506799.314,4239334.007,-664.664 
506799.314,4239234.007,-650.762 
506799.314,4239134.007,-638.202 
506799.314,4239034.007,-629.002 
506799.314,4238934.007,-621.266 
506799.314,4238834.007,-617.244 
506799.314,4238734.007,-615.401 
506799.314,4238634.007,-613.546 
506799.314,4238534.007,-610.441 
506799.314,4238434.007,-608.953 
506799.314,4238334.007,-607.894 
506799.314,4238234.007,-603.569 
506799.314,4238134.007,-601.91 
506799.314,4238034.007,-599.657 
506799.314,4237934.007,-594.684 
506799.314,4237834.007,-592.155 
506799.314,4237734.007,-588.42 
506799.314,4237634.007,-585.368 
506799.314,4237534.007,-583.81 
506799.314,4237434.007,-582.436 
506799.314,4237334.007,-580.616 
506799.314,4237234.007,-579.185 
506799.314,4237134.007,-577.601 
506799.314,4237034.007,-576.188 
506799.314,4236934.007,-575.088 
506799.314,4236834.007,-574.117 
506799.314,4236734.007,-573.853 
506799.314,4236634.007,-574.337 
506799.314,4236534.007,-576.078 
506799.314,4236434.007,-577.311 
506799.314,4236334.007,-580.202 
506799.314,4236234.007,-580.185 
506799.314,4236134.007,-580.25 
506799.314,4236034.007,-581.744 
506799.314,4235934.007,-581.101 
506799.314,4235834.007,-584.277 
506799.314,4235734.007,-590.396 
506799.314,4235634.007,-596.307 
506799.314,4235534.007,-600.609 
506799.314,4235434.007,-618.731 
506799.314,4235334.007,-633.173 
506799.314,4235234.007,-649.118 
506799.314,4235134.007,-651.871 
506799.314,4235034.007,-651.732 
506799.314,4234934.007,-651.443 
506799.314,4234834.007,-653.092 
506799.314,4234734.007,-654.001 
506799.314,4234634.007,-652.472 
506799.314,4234534.007,-650.207 
506799.314,4234434.007,-647.616 
506799.314,4234334.007,-643.015 
506799.314,4234234.007,-639.169 
506799.314,4234134.007,-634.835 
506799.314,4234034.007,-629.336 
506799.314,4233934.007,-620.886 
506799.314,4233834.007,-603.387 
506799.314,4233734.007,-582.89 
506799.314,4233634.007,-577.458 
506799.314,4233534.007,-575.237 
506799.314,4233434.007,-572.314 
506799.314,4233334.007,-570.193 
506799.314,4233234.007,-568.57 
506799.314,4233134.007,-566.28 
506799.314,4233034.007,-562.358 
506799.314,4232934.007,-558.077 
506799.314,4232834.007,-553.366 
506799.314,4232734.007,-548.728 
506799.314,4232634.007,-544.609 
506799.314,4232534.007,-540.802 
506799.314,4232434.007,-535.032 
506799.314,4232334.007,-529.673 
506799.314,4232234.007,-525.135 
506799.314,4232134.007,-521.119 
506799.314,4232034.007,-515.362 
506799.314,4231934.007,-508.041 
506799.314,4231834.007,-499.017 
506799.314,4231734.007,-492.337 
506799.314,4231634.007,-485.11 
506799.314,4231534.007,-478.197 
506799.314,4231434.007,-471.088 
506799.314,4231334.007,-463.926 
506799.314,4231234.007,-456.333 
506799.314,4231134.007,-448.781 
506799.314,4231034.007,-441.487 
506799.314,4230934.007,-434.599 
506799.314,4230834.007,-428.28 
506799.314,4230734.007,-421.678 
506799.314,4230634.007,-414.734 
506799.314,4230534.007,-407.601 
506799.314,4230434.007,-400.863 
506799.314,4230334.007,-393.506 
506799.314,4230234.007,-386.001 
506799.314,4230134.007,-378.51 
506799.314,4230034.007,-370.784 
506799.314,4229934.007,-363.457 
506799.314,4229834.007,-356.174 
506799.314,4229734.007,-348.438 
506799.314,4229634.007,-342.115 
506799.314,4229534.007,-340.01 
506799.314,4229434.007,-341.394 
506799.314,4229334.007,-339.391 
506799.314,4229234.007,-335.833 
506799.314,4229134.007,-330.114 
506799.314,4229034.007,-324.149 
506799.314,4228934.007,-319.125 
506799.314,4228834.007,-314.627 
506799.314,4228734.007,-309.567 
506799.314,4228634.007,-304.454 
506799.314,4228534.007,-298.645 
506799.314,4228434.007,-292.327 
506799.314,4228334.007,-286.135 
506799.314,4228234.007,-280.078 
506799.314,4228134.007,-275.949 
506799.314,4228034.007,-271.603 
506799.314,4227934.007,-266.481 
506799.314,4227834.007,-261.381 
506799.314,4227734.007,-256.822 
506799.314,4227634.007,-252.982 
506799.314,4227534.007,-249.152 
506799.314,4227434.007,-245.127 
506799.314,4227334.007,-240.838 
506799.314,4227234.007,-236.057 
506799.314,4227134.007,-230.958 
506799.314,4227034.007,-226.043 
506799.314,4226934.007,-221.914 
506799.314,4226834.007,-216.196 
506799.314,4226734.007,-211.426 
506799.314,4226634.007,-206.927 
506799.314,4226534.007,-202.26 
506799.314,4226434.007,-197.855 
506799.314,4226334.007,-193.571 
506799.314,4226234.007,-189.113 
506799.314,4226134.007,-185.554 
506799.314,4226034.007,-182.015 
506799.314,4225934.007,-177.428 
506799.314,4225834.007,-163.055 
506899.314,4272534.007,-153.861 
506899.314,4272434.007,-157.852 
506899.314,4272334.007,-160.623 
506899.314,4272234.007,-173.613 
506899.314,4272134.007,-189.382 
506899.314,4272034.007,-189.478 
506899.314,4271934.007,-195.498 
506899.314,4271834.007,-188.746 
506899.314,4271734.007,-200.533 
506899.314,4271634.007,-217.091 
506899.314,4271534.007,-230.609 
506899.314,4271434.007,-235.696 
506899.314,4271334.007,-251.83 
506899.314,4271234.007,-265.604 
506899.314,4271134.007,-277.25 
506899.314,4271034.007,-287.212 
506899.314,4270934.007,-314.653 
506899.314,4270834.007,-356.054 
506899.314,4270734.007,-398.908 
506899.314,4270634.007,-437.005 
506899.314,4270534.007,-463.27 
506899.314,4270434.007,-488.372 
506899.314,4270334.007,-512.029 
506899.314,4270234.007,-534.227 
506899.314,4270134.007,-554.174 
506899.314,4270034.007,-566.16 
506899.314,4269934.007,-578.552 
506899.314,4269834.007,-596.907 
506899.314,4269734.007,-621.339 
506899.314,4269634.007,-642.013 
506899.314,4269534.007,-658.152 
506899.314,4269434.007,-672.416 
506899.314,4269334.007,-684.411 
506899.314,4269234.007,-695.642 
506899.314,4239634.007,-696.678 
506899.314,4239534.007,-681.977 
506899.314,4239434.007,-671.497 
506899.314,4239334.007,-659.654 
506899.314,4239234.007,-647.883 
506899.314,4239134.007,-636.702 
506899.314,4239034.007,-623.563 
506899.314,4238934.007,-614.48 
506899.314,4238834.007,-609.307 
506899.314,4238734.007,-606.546 
506899.314,4238634.007,-604.096 
506899.314,4238534.007,-601.016 
506899.314,4238434.007,-602.119 
506899.314,4238334.007,-599.5 
506899.314,4238234.007,-599.471 
506899.314,4238134.007,-598.663 
506899.314,4238034.007,-597.053 
506899.314,4237934.007,-590.836 
506899.314,4237834.007,-588.839 
506899.314,4237734.007,-585.843 
506899.314,4237634.007,-582.677 
506899.314,4237534.007,-579.485 
506899.314,4237434.007,-578.059 
506899.314,4237334.007,-576.434 
506899.314,4237234.007,-574.933 
506899.314,4237134.007,-573.144 
506899.314,4237034.007,-571.896 
506899.314,4236934.007,-571.324 
506899.314,4236834.007,-569.78 
506899.314,4236734.007,-568.101 
506899.314,4236634.007,-567.235 
506899.314,4236534.007,-568.014 
506899.314,4236434.007,-573.401 
506899.314,4236334.007,-576.879 
506899.314,4236234.007,-576.229 
506899.314,4236134.007,-574.605 
506899.314,4236034.007,-575.444 
506899.314,4235934.007,-575.982 
506899.314,4235834.007,-580.988 
506899.314,4235734.007,-584.478 
506899.314,4235634.007,-588.968 
506899.314,4235534.007,-598.977 
506899.314,4235434.007,-599.117 
506899.314,4235334.007,-606.434 
506899.314,4235234.007,-622.823 
506899.314,4235134.007,-640.536 
506899.314,4235034.007,-645.768 
506899.314,4234934.007,-647.148 
506899.314,4234834.007,-647.679 
506899.314,4234734.007,-650.382 
506899.314,4234634.007,-649.919 
506899.314,4234534.007,-648.362 
506899.314,4234434.007,-645.713 
506899.314,4234334.007,-643.314 
506899.314,4234234.007,-640.967 
506899.314,4234134.007,-637.068 
506899.314,4234034.007,-632.919 
506899.314,4233934.007,-626.868 
506899.314,4233834.007,-615.215 
506899.314,4233734.007,-597.87 
506899.314,4233634.007,-574.906 
506899.314,4233534.007,-563.12 
506899.314,4233434.007,-559.438 
506899.314,4233334.007,-557.741 
506899.314,4233234.007,-556.549 
506899.314,4233134.007,-554.483 
506899.314,4233034.007,-550.842 
506899.314,4232934.007,-546.191 
506899.314,4232834.007,-541.681 
506899.314,4232734.007,-539.293 
506899.314,4232634.007,-535.249 
506899.314,4232534.007,-530.942 
506899.314,4232434.007,-527.639 
506899.314,4232334.007,-523.842 
506899.314,4232234.007,-521.256 
506899.314,4232134.007,-517.356 
506899.314,4232034.007,-512.22 
506899.314,4231934.007,-504.236 
506899.314,4231834.007,-496.373 
506899.314,4231734.007,-488.925 
506899.314,4231634.007,-481.93 
506899.314,4231534.007,-475.386 
506899.314,4231434.007,-468.526 
506899.314,4231334.007,-461.574 
506899.314,4231234.007,-454.227 
506899.314,4231134.007,-446.504 
506899.314,4231034.007,-439.242 
506899.314,4230934.007,-432.75 
506899.314,4230834.007,-426.804 
506899.314,4230734.007,-421.042 
506899.314,4230634.007,-414.285 
506899.314,4230534.007,-407.602 
506899.314,4230434.007,-401.226 
506899.314,4230334.007,-393.415 
506899.314,4230234.007,-386.185 
506899.314,4230134.007,-378.579 
506899.314,4230034.007,-371.052 
506899.314,4229934.007,-363.614 
506899.314,4229834.007,-356.208 
506899.314,4229734.007,-348.99 
506899.314,4229634.007,-342.022 
506899.314,4229534.007,-336.701 
506899.314,4229434.007,-336.202 
506899.314,4229334.007,-335.771 
506899.314,4229234.007,-333.458 
506899.314,4229134.007,-329.375 
506899.314,4229034.007,-324.167 
506899.314,4228934.007,-319.287 
506899.314,4228834.007,-314.711 
506899.314,4228734.007,-309.284 
506899.314,4228634.007,-303.202 
506899.314,4228534.007,-296.94 
506899.314,4228434.007,-291 
506899.314,4228334.007,-285.602 
506899.314,4228234.007,-280.986 
506899.314,4228134.007,-276.368 
506899.314,4228034.007,-271.708 
506899.314,4227934.007,-266.914 
506899.314,4227834.007,-262.35 
506899.314,4227734.007,-258.457 
506899.314,4227634.007,-254.688 
506899.314,4227534.007,-251.226 
506899.314,4227434.007,-247.453 
506899.314,4227334.007,-242.938 
506899.314,4227234.007,-238.514 
506899.314,4227134.007,-233.407 
506899.314,4227034.007,-228.778 
506899.314,4226934.007,-224 
506899.314,4226834.007,-218.477 
506899.314,4226734.007,-213.472 
506899.314,4226634.007,-208.555 
506899.314,4226534.007,-203.545 
506899.314,4226434.007,-199.1 
506899.314,4226334.007,-194.579 
506899.314,4226234.007,-190.849 
506899.314,4226134.007,-187.009 
506899.314,4226034.007,-183.028 
506899.314,4225934.007,-178.22 
506899.314,4225834.007,-164.272 
506999.314,4272334.007,-153.187 
506999.314,4272234.007,-158.69 
506999.314,4272134.007,-165.729 
506999.314,4272034.007,-173.013 
506999.314,4271934.007,-178.279 
506999.314,4271834.007,-187.16 
506999.314,4271734.007,-203.938 
506999.314,4271634.007,-222.992 
506999.314,4271534.007,-246.456 
506999.314,4271434.007,-270.832 
506999.314,4271334.007,-293.093 
506999.314,4271234.007,-311.169 
506999.314,4271134.007,-321.093 
506999.314,4271034.007,-322.018 
506999.314,4270934.007,-327.931 
506999.314,4270834.007,-371.477 
506999.314,4270734.007,-411.929 
506999.314,4270634.007,-443.468 
506999.314,4270534.007,-473.098 
506999.314,4270434.007,-502.36 
506999.314,4270334.007,-527.764 
506999.314,4270234.007,-552.197 
506999.314,4270134.007,-571.582 
506999.314,4270034.007,-588.132 
506999.314,4269934.007,-602.68 
506999.314,4269834.007,-617.17 
506999.314,4269734.007,-633.992 
506999.314,4269634.007,-650.64 
506999.314,4269534.007,-672.947 
506999.314,4239634.007,-695.407 
506999.314,4239534.007,-683.886 
506999.314,4239434.007,-670.807 
506999.314,4239334.007,-658.735 
506999.314,4239234.007,-647.533 
506999.314,4239134.007,-637.313 
506999.314,4239034.007,-622.845 
506999.314,4238934.007,-613.522 
506999.314,4238834.007,-605.966 
506999.314,4238734.007,-599.982 
506999.314,4238634.007,-596.618 
506999.314,4238534.007,-592.077 
506999.314,4238434.007,-588.18 
506999.314,4238334.007,-590.779 
506999.314,4238234.007,-595.38 
506999.314,4238134.007,-595.547 
506999.314,4238034.007,-594.342 
506999.314,4237934.007,-589.41 
506999.314,4237834.007,-585.886 
506999.314,4237734.007,-582.787 
506999.314,4237634.007,-579.835 
506999.314,4237534.007,-576.396 
506999.314,4237434.007,-574.326 
506999.314,4237334.007,-572.964 
506999.314,4237234.007,-570.974 
506999.314,4237134.007,-568.836 
506999.314,4237034.007,-566.765 
506999.314,4236934.007,-565.61 
506999.314,4236834.007,-564.846 
506999.314,4236734.007,-564.278 
506999.314,4236634.007,-561.71 
506999.314,4236534.007,-560.527 
506999.314,4236434.007,-565.097 
506999.314,4236334.007,-571.819 
506999.314,4236234.007,-569.812 
506999.314,4236134.007,-569.534 
506999.314,4236034.007,-570.315 
506999.314,4235934.007,-571.948 
506999.314,4235834.007,-576.693 
506999.314,4235734.007,-579.326 
506999.314,4235634.007,-582.62 
506999.314,4235534.007,-590.862 
506999.314,4235434.007,-592.097 
506999.314,4235334.007,-597.096 
506999.314,4235234.007,-604.458 
506999.314,4235134.007,-624.498 
506999.314,4235034.007,-631.944 
506999.314,4234934.007,-633.323 
506999.314,4234834.007,-640.262 
506999.314,4234734.007,-643.444 
506999.314,4234634.007,-644.277 
506999.314,4234534.007,-643.011 
506999.314,4234434.007,-642.134 
506999.314,4234334.007,-640.811 
506999.314,4234234.007,-639.757 
506999.314,4234134.007,-637.442 
506999.314,4234034.007,-633.216 
506999.314,4233934.007,-629.109 
506999.314,4233834.007,-619.99 
506999.314,4233734.007,-610.152 
506999.314,4233634.007,-593.727 
506999.314,4233534.007,-566.763 
506999.314,4233434.007,-551.768 
506999.314,4233334.007,-547.563 
506999.314,4233234.007,-544.383 
506999.314,4233134.007,-540.71 
506999.314,4233034.007,-536.925 
506999.314,4232934.007,-534.056 
506999.314,4232834.007,-533.615 
506999.314,4232734.007,-531.964 
506999.314,4232634.007,-527.841 
506999.314,4232534.007,-525.907 
506999.314,4232434.007,-523.138 
506999.314,4232334.007,-520.39 
506999.314,4232234.007,-517.162 
506999.314,4232134.007,-512.642 
506999.314,4232034.007,-507.516 
506999.314,4231934.007,-500.138 
506999.314,4231834.007,-493.385 
506999.314,4231734.007,-486.825 
506999.314,4231634.007,-480.104 
506999.314,4231534.007,-473.754 
506999.314,4231434.007,-466.716 
506999.314,4231334.007,-459.324 
506999.314,4231234.007,-452.121 
506999.314,4231134.007,-444.431 
506999.314,4231034.007,-437.515 
506999.314,4230934.007,-431.348 
506999.314,4230834.007,-426.188 
506999.314,4230734.007,-420.588 
506999.314,4230634.007,-414.582 
506999.314,4230534.007,-407.892 
506999.314,4230434.007,-402.795 
506999.314,4230334.007,-393.432 
506999.314,4230234.007,-383.837 
506999.314,4230134.007,-378.543 
506999.314,4230034.007,-371.509 
506999.314,4229934.007,-364.285 
506999.314,4229834.007,-357.156 
506999.314,4229734.007,-350.226 
506999.314,4229634.007,-343.374 
506999.314,4229534.007,-336.701 
506999.314,4229434.007,-332.856 
506999.314,4229334.007,-332.304 
506999.314,4229234.007,-330.88 
506999.314,4229134.007,-327.743 
506999.314,4229034.007,-323.467 
506999.314,4228934.007,-319.173 
506999.314,4228834.007,-314.337 
506999.314,4228734.007,-307.989 
506999.314,4228634.007,-301.868 
506999.314,4228534.007,-296.665 
506999.314,4228434.007,-291.381 
506999.314,4228334.007,-286.238 
506999.314,4228234.007,-281.299 
506999.314,4228134.007,-276.883 
506999.314,4228034.007,-272.127 
506999.314,4227934.007,-267.721 
506999.314,4227834.007,-263.775 
506999.314,4227734.007,-260.411 
506999.314,4227634.007,-257.11 
506999.314,4227534.007,-253.571 
506999.314,4227434.007,-250.014 
506999.314,4227334.007,-245.794 
506999.314,4227234.007,-240.892 
506999.314,4227134.007,-235.757 
506999.314,4227034.007,-231.514 
506999.314,4226934.007,-224.902 
506999.314,4226834.007,-219.38 
506999.314,4226734.007,-214.339 
506999.314,4226634.007,-209.539 
506999.314,4226534.007,-204.94 
506999.314,4226434.007,-200.577 
506999.314,4226334.007,-196.536 
506999.314,4226234.007,-192.955 
506999.314,4226134.007,-189.047 
506999.314,4226034.007,-184.836 
506999.314,4225934.007,-179.351 
506999.314,4225834.007,-167.355 
507099.314,4272234.007,-151.632 
507099.314,4272134.007,-155.558 
507099.314,4272034.007,-166.469 
507099.314,4271934.007,-178.581 
507099.314,4271834.007,-191.667 
507099.314,4271734.007,-207.659 
507099.314,4271634.007,-225.1 
507099.314,4271534.007,-248.653 
507099.314,4271434.007,-285.881 
507099.314,4271334.007,-318.709 
507099.314,4271234.007,-338.261 
507099.314,4271134.007,-354.107 
507099.314,4271034.007,-363.523 
507099.314,4270934.007,-364.141 
507099.314,4270834.007,-383.862 
507099.314,4270734.007,-415.67 
507099.314,4270634.007,-449.42 
507099.314,4270534.007,-478.472 
507099.314,4270434.007,-506.59 
507099.314,4270334.007,-534.365 
507099.314,4270234.007,-561.577 
507099.314,4270134.007,-584.013 
507099.314,4270034.007,-603.741 
507099.314,4269934.007,-621.475 
507099.314,4269834.007,-638.739 
507099.314,4269734.007,-655.507 
507099.314,4269634.007,-672.443 
507099.314,4269534.007,-692.453 
507099.314,4239534.007,-688.801 
507099.314,4239434.007,-675.475 
507099.314,4239334.007,-663.324 
507099.314,4239234.007,-651.142 
507099.314,4239134.007,-641.432 
507099.314,4239034.007,-628.909 
507099.314,4238934.007,-619.141 
507099.314,4238834.007,-606.356 
507099.314,4238734.007,-598.368 
507099.314,4238634.007,-590.581 
507099.314,4238534.007,-585.553 
507099.314,4238434.007,-582.368 
507099.314,4238334.007,-584.04 
507099.314,4238234.007,-589.349 
507099.314,4238134.007,-591.635 
507099.314,4238034.007,-590.303 
507099.314,4237934.007,-586.066 
507099.314,4237834.007,-582.151 
507099.314,4237734.007,-579.333 
507099.314,4237634.007,-576.988 
507099.314,4237534.007,-573.867 
507099.314,4237434.007,-571.186 
507099.314,4237334.007,-569.697 
507099.314,4237234.007,-567.573 
507099.314,4237134.007,-564.822 
507099.314,4237034.007,-562.066 
507099.314,4236934.007,-559.748 
507099.314,4236834.007,-557.931 
507099.314,4236734.007,-557.898 
507099.314,4236634.007,-555.28 
507099.314,4236534.007,-555.461 
507099.314,4236434.007,-558.089 
507099.314,4236334.007,-563.22 
507099.314,4236234.007,-563.412 
507099.314,4236134.007,-566.506 
507099.314,4236034.007,-567.787 
507099.314,4235934.007,-569.293 
507099.314,4235834.007,-572.057 
507099.314,4235734.007,-575.446 
507099.314,4235634.007,-580.284 
507099.314,4235534.007,-585.229 
507099.314,4235434.007,-589.198 
507099.314,4235334.007,-591.791 
507099.314,4235234.007,-594.375 
507099.314,4235134.007,-598.951 
507099.314,4235034.007,-604.937 
507099.314,4234934.007,-602.95 
507099.314,4234834.007,-619.476 
507099.314,4234734.007,-633.412 
507099.314,4234634.007,-636.996 
507099.314,4234534.007,-637.988 
507099.314,4234434.007,-639.25 
507099.314,4234334.007,-638.653 
507099.314,4234234.007,-637.89 
507099.314,4234134.007,-635.411 
507099.314,4234034.007,-631.201 
507099.314,4233934.007,-627.836 
507099.314,4233834.007,-623.427 
507099.314,4233734.007,-615.357 
507099.314,4233634.007,-601.147 
507099.314,4233534.007,-583.871 
507099.314,4233434.007,-557.245 
507099.314,4233334.007,-547.506 
507099.314,4233234.007,-542.81 
507099.314,4233134.007,-537.24 
507099.314,4233034.007,-533.428 
507099.314,4232934.007,-531.128 
507099.314,4232834.007,-530.036 
507099.314,4232734.007,-525.898 
507099.314,4232634.007,-523.219 
507099.314,4232534.007,-522.429 
507099.314,4232434.007,-519.387 
507099.314,4232334.007,-516.832 
507099.314,4232234.007,-513.152 
507099.314,4232134.007,-508.245 
507099.314,4232034.007,-502.089 
507099.314,4231934.007,-495.921 
507099.314,4231834.007,-490.344 
507099.314,4231734.007,-484.732 
507099.314,4231634.007,-478.336 
507099.314,4231534.007,-471.88 
507099.314,4231434.007,-464.989 
507099.314,4231334.007,-457.379 
507099.314,4231234.007,-449.973 
507099.314,4231134.007,-442.367 
507099.314,4231034.007,-436.113 
507099.314,4230934.007,-431.159 
507099.314,4230834.007,-426.122 
507099.314,4230734.007,-420.886 
507099.314,4230634.007,-415.109 
507099.314,4230534.007,-409.636 
507099.314,4230434.007,-401.249 
507099.314,4230334.007,-392.506 
507099.314,4230234.007,-384.97 
507099.314,4230134.007,-379.512 
507099.314,4230034.007,-371.951 
507099.314,4229934.007,-365.042 
507099.314,4229834.007,-358.535 
507099.314,4229734.007,-351.81 
507099.314,4229634.007,-345.51 
507099.314,4229534.007,-339.076 
507099.314,4229434.007,-332.974 
507099.314,4229334.007,-329.279 
507099.314,4229234.007,-327.871 
507099.314,4229134.007,-325.485 
507099.314,4229034.007,-321.818 
507099.314,4228934.007,-318.358 
507099.314,4228834.007,-313.074 
507099.314,4228734.007,-306.803 
507099.314,4228634.007,-301.053 
507099.314,4228534.007,-296.436 
507099.314,4228434.007,-291.828 
507099.314,4228334.007,-286.404 
507099.314,4228234.007,-281.576 
507099.314,4228134.007,-277.499 
507099.314,4228034.007,-273.433 
507099.314,4227934.007,-269.521 
507099.314,4227834.007,-266.381 
507099.314,4227734.007,-263.386 
507099.314,4227634.007,-260.559 
507099.314,4227534.007,-257.242 
507099.314,4227434.007,-253.754 
507099.314,4227334.007,-249.919 
507099.314,4227234.007,-244.19 
507099.314,4227134.007,-237.15 
507099.314,4227034.007,-231.789 
507099.314,4226934.007,-224.855 
507099.314,4226834.007,-219.553 
507099.314,4226734.007,-214.732 
507099.314,4226634.007,-210.381 
507099.314,4226534.007,-205.973 
507099.314,4226434.007,-201.587 
507099.314,4226334.007,-197.31 
507099.314,4226234.007,-193.064 
507099.314,4226134.007,-190.811 
507099.314,4226034.007,-186.941 
507099.314,4225934.007,-180.557 
507099.314,4225834.007,-170.011 
507199.314,4272034.007,-155.591 
507199.314,4271934.007,-184.214 
507199.314,4271834.007,-210.911 
507199.314,4271734.007,-229.457 
507199.314,4271634.007,-241.247 
507199.314,4271534.007,-255.073 
507199.314,4271434.007,-272.935 
507199.314,4271334.007,-297.702 
507199.314,4271234.007,-325.759 
507199.314,4271134.007,-351.881 
507199.314,4271034.007,-379.471 
507199.314,4270934.007,-400.931 
507199.314,4270834.007,-409.731 
507199.314,4270734.007,-420.833 
507199.314,4270634.007,-450.253 
507199.314,4270534.007,-480.4 
507199.314,4270434.007,-508.594 
507199.314,4270334.007,-536.646 
507199.314,4270234.007,-563.598 
507199.314,4270134.007,-588.941 
507199.314,4270034.007,-607.487 
507199.314,4269934.007,-625.969 
507199.314,4269834.007,-644.184 
507199.314,4269734.007,-660.748 
507199.314,4269634.007,-676.245 
507199.314,4269534.007,-691.252 
507199.314,4239534.007,-694.094 
507199.314,4239434.007,-683.991 
507199.314,4239334.007,-673.112 
507199.314,4239234.007,-657.112 
507199.314,4239134.007,-651.49 
507199.314,4239034.007,-638.615 
507199.314,4238934.007,-626.059 
507199.314,4238834.007,-612.693 
507199.314,4238734.007,-595.99 
507199.314,4238634.007,-589.983 
507199.314,4238534.007,-582.65 
507199.314,4238434.007,-580.657 
507199.314,4238334.007,-581.054 
507199.314,4238234.007,-583.94 
507199.314,4238134.007,-587.703 
507199.314,4238034.007,-586.621 
507199.314,4237934.007,-581.242 
507199.314,4237834.007,-579.81 
507199.314,4237734.007,-576.878 
507199.314,4237634.007,-574.226 
507199.314,4237534.007,-571.206 
507199.314,4237434.007,-568.293 
507199.314,4237334.007,-566.971 
507199.314,4237234.007,-564.812 
507199.314,4237134.007,-561.276 
507199.314,4237034.007,-558.035 
507199.314,4236934.007,-555.13 
507199.314,4236834.007,-552.61 
507199.314,4236734.007,-552.478 
507199.314,4236634.007,-551.028 
507199.314,4236534.007,-550.748 
507199.314,4236434.007,-548.924 
507199.314,4236334.007,-551.665 
507199.314,4236234.007,-557.304 
507199.314,4236134.007,-560.972 
507199.314,4236034.007,-562.178 
507199.314,4235934.007,-566.364 
507199.314,4235834.007,-568.833 
507199.314,4235734.007,-573.222 
507199.314,4235634.007,-576.391 
507199.314,4235534.007,-579.795 
507199.314,4235434.007,-582.97 
507199.314,4235334.007,-584.149 
507199.314,4235234.007,-587.379 
507199.314,4235134.007,-588.06 
507199.314,4235034.007,-587.044 
507199.314,4234934.007,-587.631 
507199.314,4234834.007,-594.314 
507199.314,4234734.007,-613.609 
507199.314,4234634.007,-627.838 
507199.314,4234534.007,-630.871 
507199.314,4234434.007,-631.78 
507199.314,4234334.007,-633.214 
507199.314,4234234.007,-632.585 
507199.314,4234134.007,-630.887 
507199.314,4234034.007,-627.13 
507199.314,4233934.007,-624.054 
507199.314,4233834.007,-622.072 
507199.314,4233734.007,-617.383 
507199.314,4233634.007,-604.635 
507199.314,4233534.007,-587.098 
507199.314,4233434.007,-575.412 
507199.314,4233334.007,-569.731 
507199.314,4233234.007,-563.043 
507199.314,4233134.007,-555.057 
507199.314,4233034.007,-543.059 
507199.314,4232934.007,-530.691 
507199.314,4232834.007,-523.992 
507199.314,4232734.007,-520.859 
507199.314,4232634.007,-519.389 
507199.314,4232534.007,-516.682 
507199.314,4232434.007,-512.052 
507199.314,4232334.007,-508.429 
507199.314,4232234.007,-503.515 
507199.314,4232134.007,-498.141 
507199.314,4232034.007,-492.776 
507199.314,4231934.007,-487.738 
507199.314,4231834.007,-483.403 
507199.314,4231734.007,-479.048 
507199.314,4231634.007,-474.607 
507199.314,4231534.007,-468.636 
507199.314,4231434.007,-461.887 
507199.314,4231334.007,-455.053 
507199.314,4231234.007,-447.691 
507199.314,4231134.007,-440.885 
507199.314,4231034.007,-435.954 
507199.314,4230934.007,-431.8 
507199.314,4230834.007,-427.091 
507199.314,4230734.007,-421.833 
507199.314,4230634.007,-416.084 
507199.314,4230534.007,-409.995 
507199.314,4230434.007,-401.721 
507199.314,4230334.007,-391.205 
507199.314,4230234.007,-386.057 
507199.314,4230134.007,-379.987 
507199.314,4230034.007,-373.335 
507199.314,4229934.007,-366.678 
507199.314,4229834.007,-360.369 
507199.314,4229734.007,-354.036 
507199.314,4229634.007,-347.829 
507199.314,4229534.007,-342.032 
507199.314,4229434.007,-336.671 
507199.314,4229334.007,-331.363 
507199.314,4229234.007,-326.72 
507199.314,4229134.007,-323.195 
507199.314,4229034.007,-319.735 
507199.314,4228934.007,-316.033 
507199.314,4228834.007,-311.625 
507199.314,4228734.007,-306.312 
507199.314,4228634.007,-301.013 
507199.314,4228534.007,-296.594 
507199.314,4228434.007,-291.744 
507199.314,4228334.007,-286.984 
507199.314,4228234.007,-282.931 
507199.314,4228134.007,-279.494 
507199.314,4228034.007,-276.089 
507199.314,4227934.007,-273.122 
507199.314,4227834.007,-270.669 
507199.314,4227734.007,-268.619 
507199.314,4227634.007,-265.766 
507199.314,4227534.007,-262.493 
507199.314,4227434.007,-259.075 
507199.314,4227334.007,-253.057 
507199.314,4227234.007,-246.399 
507199.314,4227134.007,-240.331 
507199.314,4227034.007,-231.896 
507199.314,4226934.007,-225.59 
507199.314,4226834.007,-219.848 
507199.314,4226734.007,-215.095 
507199.314,4226634.007,-211.029 
507199.314,4226534.007,-206.894 
507199.314,4226434.007,-202.564 
507199.314,4226334.007,-198.72 
507199.314,4226234.007,-194.798 
507199.314,4226134.007,-192.036 
507199.314,4226034.007,-188.335 
507199.314,4225934.007,-181.795 
507199.314,4225834.007,-172.601 
507299.314,4272134.007,-152.444 
507299.314,4272034.007,-163.94 
507299.314,4271934.007,-189.815 
507299.314,4271834.007,-216.407 
507299.314,4271734.007,-240.068 
507299.314,4271634.007,-262.176 
507299.314,4271534.007,-278.173 
507299.314,4271434.007,-286.913 
507299.314,4271334.007,-294.776 
507299.314,4271234.007,-303.858 
507299.314,4271134.007,-330.107 
507299.314,4271034.007,-364.752 
507299.314,4270934.007,-396.552 
507299.314,4270834.007,-420.725 
507299.314,4270734.007,-438.278 
507299.314,4270634.007,-459.615 
507299.314,4270534.007,-483.364 
507299.314,4270434.007,-508.947 
507299.314,4270334.007,-537.395 
507299.314,4270234.007,-561.503 
507299.314,4270134.007,-582.371 
507299.314,4270034.007,-601.457 
507299.314,4269934.007,-617.845 
507299.314,4269834.007,-632.647 
507299.314,4269734.007,-648.458 
507299.314,4269634.007,-665.206 
507299.314,4269534.007,-682.921 
507299.314,4239334.007,-693.424 
507299.314,4239234.007,-658.31 
507299.314,4239134.007,-655.473 
507299.314,4239034.007,-642.577 
507299.314,4238934.007,-634.112 
507299.314,4238834.007,-621.854 
507299.314,4238734.007,-609.155 
507299.314,4238634.007,-598.998 
507299.314,4238534.007,-585.953 
507299.314,4238434.007,-579.846 
507299.314,4238334.007,-578.638 
507299.314,4238234.007,-580.251 
507299.314,4238134.007,-583.791 
507299.314,4238034.007,-583.536 
507299.314,4237934.007,-577.907 
507299.314,4237834.007,-576.516 
507299.314,4237734.007,-574.176 
507299.314,4237634.007,-571.975 
507299.314,4237534.007,-569.135 
507299.314,4237434.007,-566.153 
507299.314,4237334.007,-564.218 
507299.314,4237234.007,-561.63 
507299.314,4237134.007,-557.679 
507299.314,4237034.007,-554.055 
507299.314,4236934.007,-551.042 
507299.314,4236834.007,-549.178 
507299.314,4236734.007,-546.004 
507299.314,4236634.007,-545.166 
507299.314,4236534.007,-544.616 
507299.314,4236434.007,-543.959 
507299.314,4236334.007,-542.446 
507299.314,4236234.007,-547.951 
507299.314,4236134.007,-552.95 
507299.314,4236034.007,-557.416 
507299.314,4235934.007,-562.116 
507299.314,4235834.007,-566.595 
507299.314,4235734.007,-570.276 
507299.314,4235634.007,-572.537 
507299.314,4235534.007,-575.509 
507299.314,4235434.007,-579.122 
507299.314,4235334.007,-580.704 
507299.314,4235234.007,-583.221 
507299.314,4235134.007,-583.656 
507299.314,4235034.007,-582.674 
507299.314,4234934.007,-582.995 
507299.314,4234834.007,-582.742 
507299.314,4234734.007,-591.401 
507299.314,4234634.007,-608.565 
507299.314,4234534.007,-611.5 
507299.314,4234434.007,-614.085 
507299.314,4234334.007,-617.198 
507299.314,4234234.007,-623.26 
507299.314,4234134.007,-624.608 
507299.314,4234034.007,-622.115 
507299.314,4233934.007,-620.602 
507299.314,4233834.007,-619.267 
507299.314,4233734.007,-616.443 
507299.314,4233634.007,-607.953 
507299.314,4233534.007,-596.961 
507299.314,4233434.007,-588.957 
507299.314,4233334.007,-582.893 
507299.314,4233234.007,-575.751 
507299.314,4233134.007,-569.362 
507299.314,4233034.007,-561.143 
507299.314,4232934.007,-547.696 
507299.314,4232834.007,-527.497 
507299.314,4232734.007,-517.363 
507299.314,4232634.007,-514.77 
507299.314,4232534.007,-512.213 
507299.314,4232434.007,-507.462 
507299.314,4232334.007,-502.809 
507299.314,4232234.007,-498.411 
507299.314,4232134.007,-493.098 
507299.314,4232034.007,-488.135 
507299.314,4231934.007,-482.603 
507299.314,4231834.007,-477.741 
507299.314,4231734.007,-474.39 
507299.314,4231634.007,-469.777 
507299.314,4231534.007,-464.331 
507299.314,4231434.007,-457.503 
507299.314,4231334.007,-450.926 
507299.314,4231234.007,-444.725 
507299.314,4231134.007,-440.177 
507299.314,4231034.007,-435.673 
507299.314,4230934.007,-431.559 
507299.314,4230834.007,-427.706 
507299.314,4230734.007,-422.894 
507299.314,4230634.007,-417.609 
507299.314,4230534.007,-410.25 
507299.314,4230434.007,-401.046 
507299.314,4230334.007,-392.247 
507299.314,4230234.007,-387.844 
507299.314,4230134.007,-380.937 
507299.314,4230034.007,-374.688 
507299.314,4229934.007,-368.48 
507299.314,4229834.007,-362.304 
507299.314,4229734.007,-356.117 
507299.314,4229634.007,-350.481 
507299.314,4229534.007,-345.168 
507299.314,4229434.007,-340.745 
507299.314,4229334.007,-336.499 
507299.314,4229234.007,-331.733 
507299.314,4229134.007,-326.876 
507299.314,4229034.007,-322.334 
507299.314,4228934.007,-317.899 
507299.314,4228834.007,-314.234 
507299.314,4228734.007,-309.15 
