504049.314,4234984.007,-693.316 
504049.314,4234784.007,-684.146 
504049.314,4234584.007,-673.024 
504049.314,4234384.007,-661.72 
504049.314,4234184.007,-651.585 
504049.314,4233984.007,-638.369 
504049.314,4233784.007,-625.539 
504049.314,4233584.007,-616.321 
504049.314,4233384.007,-608.404 
504049.314,4233184.007,-596.896 
504049.314,4232984.007,-585.865 
504049.314,4232784.007,-574.877 
504049.314,4232584.007,-582.784 
504049.314,4232384.007,-621.178 
504049.314,4232184.007,-620.045 
504049.314,4231984.007,-626.56 
504049.314,4231784.007,-610.962 
504049.314,4231584.007,-634.138 
504049.314,4231384.007,-644.907 
504049.314,4231184.007,-644.454 
504049.314,4230984.007,-639.114 
504049.314,4230784.007,-638.004 
504049.314,4230584.007,-640.103 
504049.314,4230384.007,-630.921 
504049.314,4230184.007,-607.759 
504249.314,4270384.007,-554.928 
504249.314,4270184.007,-577.154 
504249.314,4269984.007,-595.997 
504249.314,4269784.007,-617.983 
504249.314,4269584.007,-639.816 
504249.314,4269384.007,-675.005 
504249.314,4269184.007,-706.692 
504249.314,4268984.007,-730.973 
504249.314,4268784.007,-760.31 
504249.314,4268584.007,-791.366 
504249.314,4268384.007,-807.336 
504249.314,4268184.007,-808.211 
504249.314,4267984.007,-827.265 
504249.314,4267784.007,-852.191 
504249.314,4267584.007,-872.738 
504249.314,4267384.007,-881.551 
504249.314,4267184.007,-906.061 
504249.314,4266984.007,-918.548 
504249.314,4266784.007,-937.635 
504249.314,4266584.007,-972.661 
504249.314,4266384.007,-1007.856 
504249.314,4266184.007,-1053.524 
504249.314,4265984.007,-1075.986 
504249.314,4265784.007,-1078.547 
504249.314,4265584.007,-1082.483 
504249.314,4265384.007,-1081.908 
504249.314,4265184.007,-1078.515 
504249.314,4264984.007,-1075.638 
504249.314,4264784.007,-1084.414 
504249.314,4264584.007,-1097.235 
504249.314,4264384.007,-1102.783 
504249.314,4264184.007,-1101.395 
504249.314,4263984.007,-1101.588 
504249.314,4263784.007,-1101.481 
504249.314,4263584.007,-1102.629 
504249.314,4263384.007,-1101.408 
504249.314,4263184.007,-1102.891 
504249.314,4262984.007,-1099.212 
504249.314,4262784.007,-1098.029 
504249.314,4262584.007,-1100.588 
504249.314,4262384.007,-1100.008 
504249.314,4262184.007,-1100.929 
504249.314,4261984.007,-1099.764 
504249.314,4261784.007,-1096.501 
504249.314,4261584.007,-1093.12 
504249.314,4261384.007,-1092.345 
504249.314,4261184.007,-1091.652 
504249.314,4260984.007,-1085.534 
504249.314,4260784.007,-1080.32 
504249.314,4260584.007,-1068.907 
504249.314,4260384.007,-1054.379 
504249.314,4260184.007,-1021.786 
504249.314,4259984.007,-971.342 
504249.314,4259784.007,-995.505 
504249.314,4259584.007,-1008.307 
504249.314,4259384.007,-1019.702 
504249.314,4259184.007,-1047.487 
504249.314,4258984.007,-1069.409 
504249.314,4258784.007,-1056.873 
504249.314,4258584.007,-1044.453 
504249.314,4258384.007,-1036.69 
504249.314,4258184.007,-1034.948 
504249.314,4257984.007,-1041.67 
504249.314,4257784.007,-1043.815 
504249.314,4257584.007,-1043.303 
504249.314,4257384.007,-1044.319 
504249.314,4257184.007,-1033.717 
504249.314,4256984.007,-1025.767 
504249.314,4256784.007,-1017.175 
504249.314,4256584.007,-1013.386 
504249.314,4256384.007,-1030.894 
504249.314,4256184.007,-1032.72 
504249.314,4255984.007,-1035.841 
504249.314,4255784.007,-1036.693 
504249.314,4255584.007,-1029.151 
504249.314,4255384.007,-1035.516 
504249.314,4255184.007,-1025.498 
504249.314,4254984.007,-1024.446 
504249.314,4254784.007,-1019.093 
504249.314,4254584.007,-1010.296 
504249.314,4254384.007,-1002.27 
504249.314,4254184.007,-994.277 
504249.314,4253984.007,-991.765 
504249.314,4253784.007,-990.776 
504249.314,4253584.007,-989.603 
504249.314,4253384.007,-985.773 
504249.314,4253184.007,-988.863 
504249.314,4252984.007,-990.407 
504249.314,4252784.007,-992.992 
504249.314,4252584.007,-938.81 
504249.314,4252384.007,-940.128 
504249.314,4252184.007,-940.071 
504249.314,4251984.007,-937.47 
504249.314,4251784.007,-926.801 
504249.314,4251584.007,-916.901 
504249.314,4251384.007,-947.482 
504249.314,4251184.007,-939.068 
504249.314,4250984.007,-932.184 
504249.314,4250784.007,-925.536 
504249.314,4250584.007,-926.767 
504249.314,4250384.007,-905.278 
504249.314,4250184.007,-899.462 
504249.314,4249984.007,-892.62 
504249.314,4249784.007,-919.218 
504249.314,4249584.007,-931.641 
504249.314,4249384.007,-930.632 
504249.314,4249184.007,-927.539 
504249.314,4248984.007,-920.359 
504249.314,4248784.007,-934.513 
504249.314,4248584.007,-955.053 
504249.314,4248384.007,-958.648 
504249.314,4248184.007,-929.577 
504249.314,4247984.007,-892.821 
504249.314,4247784.007,-909.591 
504249.314,4247584.007,-907.147 
504249.314,4247384.007,-917.635 
504249.314,4247184.007,-880.537 
504249.314,4246984.007,-888.555 
504249.314,4246784.007,-897.233 
504249.314,4246584.007,-929.254 
504249.314,4246384.007,-925.197 
504249.314,4246184.007,-877.491 
504249.314,4245984.007,-880.69 
504249.314,4245784.007,-934.714 
504249.314,4245584.007,-880.01 
504249.314,4245384.007,-887.431 
504249.314,4245184.007,-882.065 
504249.314,4244984.007,-894.843 
504249.314,4244784.007,-905.057 
504249.314,4244584.007,-928.807 
504249.314,4244384.007,-890.728 
504249.314,4244184.007,-929.516 
504249.314,4243984.007,-908.987 
504249.314,4243784.007,-896.824 
504249.314,4243584.007,-899.931 
504249.314,4243384.007,-899.93 
504249.314,4243184.007,-901.074 
504249.314,4242984.007,-897.638 
504249.314,4242784.007,-883.909 
504249.314,4242584.007,-870.372 
504249.314,4242384.007,-861.846 
504249.314,4242184.007,-856.298 
504249.314,4241984.007,-846.66 
504249.314,4241784.007,-828.275 
504249.314,4241584.007,-810.27 
504249.314,4241384.007,-799.212 
504249.314,4241184.007,-790.33 
504249.314,4240984.007,-785.223 
504249.314,4240784.007,-781.646 
504249.314,4240584.007,-778.406 
504249.314,4240384.007,-774.72 
504249.314,4240184.007,-769.312 
504249.314,4239984.007,-759.662 
504249.314,4239784.007,-753.986 
504249.314,4239584.007,-745.282 
504249.314,4239384.007,-730.87 
504249.314,4239184.007,-721.783 
504249.314,4238984.007,-712.8 
504249.314,4238784.007,-701.826 
504249.314,4238584.007,-690.135 
504249.314,4238384.007,-724.108 
504249.314,4238184.007,-759.413 
504249.314,4237984.007,-770.711 
504249.314,4237784.007,-765.414 
504249.314,4237584.007,-768.454 
504249.314,4237384.007,-791.36 
504249.314,4237184.007,-798.843 
504249.314,4236984.007,-795.604 
504249.314,4236784.007,-779.052 
504249.314,4236584.007,-740.218 
504249.314,4236384.007,-719.747 
504249.314,4236184.007,-722.297 
504249.314,4235984.007,-721.673 
504249.314,4235784.007,-717.775 
504249.314,4235584.007,-714.284 
504249.314,4235384.007,-706.417 
504249.314,4235184.007,-697.742 
504249.314,4234984.007,-690.401 
504249.314,4234784.007,-682.708 
504249.314,4234584.007,-672.732 
504249.314,4234384.007,-660.814 
504249.314,4234184.007,-651.143 
504249.314,4233984.007,-638.462 
504249.314,4233784.007,-625.841 
504249.314,4233584.007,-614.093 
504249.314,4233384.007,-601.599 
504249.314,4233184.007,-589.181 
504249.314,4232984.007,-578.112 
504249.314,4232784.007,-567.142 
504249.314,4232584.007,-557.793 
504249.314,4232384.007,-579.098 
504249.314,4232184.007,-574.116 
504249.314,4231984.007,-575.814 
504249.314,4231784.007,-568.913 
504249.314,4231584.007,-572.152 
504249.314,4231184.007,-580.908 
504249.314,4230984.007,-582.606 
504249.314,4230784.007,-593.142 
504249.314,4230584.007,-614.211 
504249.314,4230384.007,-622.023 
504249.314,4230184.007,-618.875 
504249.314,4229984.007,-576.688 
504449.314,4270384.007,-554.334 
504449.314,4270184.007,-576.077 
504449.314,4269984.007,-595.618 
504449.314,4269784.007,-608.638 
504449.314,4269584.007,-632.53 
504449.314,4269384.007,-671.999 
504449.314,4269184.007,-700.762 
504449.314,4268984.007,-719.417 
504449.314,4268784.007,-744.726 
504449.314,4268584.007,-776.5 
504449.314,4268384.007,-772.096 
504449.314,4268184.007,-782.593 
504449.314,4267984.007,-793.791 
504449.314,4267784.007,-819.673 
504449.314,4267584.007,-848.008 
504449.314,4267384.007,-847.997 
504449.314,4267184.007,-882.372 
504449.314,4266984.007,-878.422 
504449.314,4266784.007,-907.91 
504449.314,4266584.007,-952.19 
504449.314,4266384.007,-1000.11 
504449.314,4266184.007,-1042.14 
504449.314,4265984.007,-1073.668 
504449.314,4265784.007,-1085.84 
504449.314,4265584.007,-1087.989 
504449.314,4265384.007,-1087.96 
504449.314,4265184.007,-1090.345 
504449.314,4264984.007,-1093.179 
504449.314,4264784.007,-1096.548 
504449.314,4264584.007,-1099.314 
504449.314,4264384.007,-1102.968 
504449.314,4264184.007,-1099.61 
504449.314,4263984.007,-1102.765 
504449.314,4263784.007,-1102.767 
504449.314,4263584.007,-1103.998 
504449.314,4263384.007,-1104.163 
504449.314,4263184.007,-1102.486 
504449.314,4262984.007,-1097.436 
504449.314,4262784.007,-1093.855 
504449.314,4262584.007,-1098.381 
504449.314,4262384.007,-1102.299 
504449.314,4262184.007,-1092.519 
504449.314,4261984.007,-1071.855 
504449.314,4261784.007,-1092.519 
504449.314,4261584.007,-1093.043 
504449.314,4261384.007,-1092.183 
504449.314,4261184.007,-1092.69 
504449.314,4260984.007,-1084.056 
504449.314,4260784.007,-1074.228 
504449.314,4260584.007,-1065.069 
504449.314,4260384.007,-1046.551 
504449.314,4260184.007,-1004.213 
504449.314,4259984.007,-1002.077 
504449.314,4259784.007,-1002.957 
504449.314,4259584.007,-1017.696 
504449.314,4259384.007,-1033.631 
504449.314,4259184.007,-1056.887 
504449.314,4258984.007,-1075.028 
504449.314,4258784.007,-1076.321 
504449.314,4258584.007,-1059.729 
504449.314,4258384.007,-1047.178 
504449.314,4258184.007,-1040.136 
504449.314,4257984.007,-1044.964 
504449.314,4257784.007,-1048.654 
504449.314,4257584.007,-1048.618 
504449.314,4257384.007,-1045.042 
504449.314,4257184.007,-1038.935 
504449.314,4256984.007,-1030.889 
504449.314,4256784.007,-1024.647 
504449.314,4256584.007,-1021.494 
504449.314,4256384.007,-1037.416 
504449.314,4256184.007,-1042.777 
504449.314,4255984.007,-1044.795 
504449.314,4255784.007,-1042.947 
504449.314,4255584.007,-1038.081 
504449.314,4255384.007,-1039.917 
504449.314,4255184.007,-1036.886 
504449.314,4254984.007,-1032.79 
504449.314,4254784.007,-1024.322 
504449.314,4254584.007,-1015.658 
504449.314,4254384.007,-1009.713 
504449.314,4254184.007,-1004.804 
504449.314,4253984.007,-1003.025 
504449.314,4253784.007,-1001.552 
504449.314,4253584.007,-1000.704 
504449.314,4253384.007,-998.265 
504449.314,4253184.007,-999.846 
504449.314,4252984.007,-1000.606 
504449.314,4252784.007,-1001.88 
504449.314,4252584.007,-945.177 
504449.314,4252384.007,-945.531 
504449.314,4252184.007,-944.051 
504449.314,4251984.007,-941.256 
504449.314,4251784.007,-933.424 
504449.314,4251584.007,-953.006 
504449.314,4251384.007,-957.353 
504449.314,4251184.007,-949.681 
504449.314,4250984.007,-941.231 
504449.314,4250784.007,-936.831 
504449.314,4250584.007,-939.816 
504449.314,4250384.007,-909.015 
504449.314,4250184.007,-924.554 
504449.314,4249984.007,-874.656 
504449.314,4249784.007,-910.75 
504449.314,4249584.007,-929.332 
504449.314,4249384.007,-955.545 
504449.314,4249184.007,-947.866 
504449.314,4248984.007,-923.046 
504449.314,4248784.007,-942.646 
504449.314,4248584.007,-972.268 
504449.314,4248384.007,-967.7 
504449.314,4248184.007,-939.454 
504449.314,4247984.007,-913.64 
504449.314,4247784.007,-911.783 
504449.314,4247584.007,-925 
504449.314,4247384.007,-927.316 
504449.314,4247184.007,-887.149 
504449.314,4246984.007,-906.365 
504449.314,4246784.007,-907.294 
504449.314,4246584.007,-938.701 
504449.314,4246384.007,-947.593 
504449.314,4246184.007,-896.935 
504449.314,4245984.007,-900.27 
504449.314,4245784.007,-943.162 
504449.314,4245584.007,-909.149 
504449.314,4245384.007,-897.611 
504449.314,4245184.007,-892.95 
504449.314,4244984.007,-896.643 
504449.314,4244784.007,-917.523 
504449.314,4244584.007,-924.222 
504449.314,4244384.007,-908.17 
504449.314,4244184.007,-938.547 
504449.314,4243984.007,-915.276 
504449.314,4243784.007,-902.798 
504449.314,4243584.007,-911.383 
504449.314,4243384.007,-913.104 
504449.314,4243184.007,-910.224 
504449.314,4242984.007,-898.07 
504449.314,4242784.007,-883.3 
504449.314,4242584.007,-858.235 
504449.314,4242384.007,-855.679 
504449.314,4242184.007,-853.664 
504449.314,4241984.007,-851.943 
504449.314,4241784.007,-841.635 
504449.314,4241584.007,-818.88 
504449.314,4241384.007,-804.313 
504449.314,4241184.007,-792.376 
504449.314,4240984.007,-784.206 
504449.314,4240784.007,-779.537 
504449.314,4240584.007,-775.004 
504449.314,4240384.007,-770.497 
504449.314,4240184.007,-766.555 
504449.314,4239984.007,-758.672 
504449.314,4239784.007,-750.996 
504449.314,4239584.007,-742.304 
504449.314,4239384.007,-731.4 
504449.314,4239184.007,-722.041 
504449.314,4238984.007,-710.61 
504449.314,4238784.007,-698.888 
504449.314,4238584.007,-688.361 
504449.314,4238384.007,-682.267 
504449.314,4238184.007,-724.207 
504449.314,4237984.007,-732.548 
504449.314,4237784.007,-723.196 
504449.314,4237584.007,-722.093 
504449.314,4237384.007,-758.855 
504449.314,4237184.007,-789.729 
504449.314,4236984.007,-790.141 
504449.314,4236784.007,-778.432 
504449.314,4236584.007,-717.878 
504449.314,4236384.007,-711.633 
504449.314,4236184.007,-715.892 
504449.314,4235984.007,-716.457 
504449.314,4235784.007,-712.767 
504449.314,4235584.007,-707.875 
504449.314,4235384.007,-702.715 
504449.314,4235184.007,-696.117 
504449.314,4234984.007,-687.802 
504449.314,4234784.007,-680.363 
504449.314,4234584.007,-671.83 
504449.314,4234384.007,-661.852 
504449.314,4234184.007,-649.98 
504449.314,4233984.007,-638.126 
504449.314,4233784.007,-624.253 
504449.314,4233584.007,-614.371 
504449.314,4233384.007,-603.364 
504449.314,4233184.007,-588.876 
504449.314,4232984.007,-578.81 
504449.314,4232784.007,-567.275 
504449.314,4230584.007,-563.626 
504449.314,4230384.007,-588.552 
504449.314,4230184.007,-604.542 
504449.314,4229984.007,-557.233 
504649.314,4270184.007,-566.201 
504649.314,4269984.007,-584.38 
504649.314,4269784.007,-618.365 
504649.314,4269584.007,-655.836 
504649.314,4269384.007,-665.354 
504649.314,4269184.007,-681.248 
504649.314,4268984.007,-695.998 
504649.314,4268784.007,-733.879 
504649.314,4268584.007,-739.047 
504649.314,4268384.007,-745.113 
504649.314,4268184.007,-745.994 
504649.314,4267984.007,-766.898 
504649.314,4267784.007,-792.848 
504649.314,4267584.007,-794.162 
504649.314,4267384.007,-775.187 
504649.314,4267184.007,-838.205 
504649.314,4266984.007,-825.618 
504649.314,4266784.007,-892.741 
504649.314,4266584.007,-945.266 
504649.314,4266384.007,-982.066 
504649.314,4266184.007,-1012.044 
504649.314,4265984.007,-1054.961 
504649.314,4265784.007,-1092.802 
504649.314,4265584.007,-1093.732 
504649.314,4265384.007,-1096.26 
504649.314,4265184.007,-1099.134 
504649.314,4264984.007,-1104.182 
504649.314,4264784.007,-1103.023 
504649.314,4264584.007,-1101.333 
504649.314,4264384.007,-1100.308 
504649.314,4264184.007,-1099.548 
504649.314,4263984.007,-1103.204 
504649.314,4263784.007,-1105.862 
504649.314,4263584.007,-1105.795 
504649.314,4263384.007,-1110.025 
504649.314,4263184.007,-1108.013 
504649.314,4262984.007,-1103.743 
504649.314,4262784.007,-1096.709 
504649.314,4262584.007,-1102.821 
504649.314,4262384.007,-1100.021 
504649.314,4262184.007,-1099.136 
504649.314,4261984.007,-1095.865 
504649.314,4261784.007,-1081.078 
504649.314,4261584.007,-1094.872 
504649.314,4261384.007,-1098.612 
504649.314,4261184.007,-1095.49 
504649.314,4260984.007,-1085.152 
504649.314,4260784.007,-1072.959 
504649.314,4260584.007,-1053.329 
504649.314,4260384.007,-1013.734 
504649.314,4260184.007,-1030.395 
504649.314,4259984.007,-1020.638 
504649.314,4259784.007,-1009.824 
504649.314,4259584.007,-1013.42 
504649.314,4259384.007,-1030.802 
504649.314,4259184.007,-1068.422 
504649.314,4258984.007,-1080.861 
504649.314,4258784.007,-1082.428 
504649.314,4258584.007,-1074.891 
504649.314,4258384.007,-1056.882 
504649.314,4258184.007,-1045.122 
504649.314,4257984.007,-1049.621 
504649.314,4257784.007,-1055.842 
504649.314,4257584.007,-1055.405 
504649.314,4257384.007,-1045.815 
504649.314,4257184.007,-1039.045 
504649.314,4256984.007,-1032.201 
504649.314,4256784.007,-1031.039 
504649.314,4256584.007,-1028.112 
504649.314,4256384.007,-1044.394 
504649.314,4256184.007,-1051.602 
504649.314,4255984.007,-1053.537 
504649.314,4255784.007,-1049.561 
504649.314,4255584.007,-1047.603 
504649.314,4255384.007,-1046.307 
504649.314,4255184.007,-1044.586 
504649.314,4254984.007,-1036.531 
504649.314,4254784.007,-1028.778 
504649.314,4254584.007,-1021.769 
504649.314,4254384.007,-1018.856 
504649.314,4254184.007,-1016.736 
504649.314,4253984.007,-1014.838 
504649.314,4253784.007,-1012.546 
504649.314,4253584.007,-1009.983 
504649.314,4253384.007,-1010.213 
504649.314,4253184.007,-1010.097 
504649.314,4252984.007,-1011.742 
504649.314,4252784.007,-999.948 
504649.314,4252584.007,-949.692 
504649.314,4252384.007,-948.653 
504649.314,4252184.007,-954.319 
504649.314,4251984.007,-956.714 
504649.314,4251784.007,-960.63 
504649.314,4251584.007,-979.09 
504649.314,4251384.007,-968.134 
504649.314,4251184.007,-959.782 
504649.314,4250984.007,-952.22 
504649.314,4250784.007,-950.555 
504649.314,4250584.007,-951.513 
504649.314,4250384.007,-926.62 
504649.314,4250184.007,-947.959 
504649.314,4249984.007,-911.643 
504649.314,4249784.007,-926.412 
504649.314,4249584.007,-935.109 
504649.314,4249384.007,-945.782 
504649.314,4249184.007,-959.949 
504649.314,4248984.007,-934.441 
504649.314,4248784.007,-949.598 
504649.314,4248584.007,-980.92 
504649.314,4248384.007,-965.401 
504649.314,4248184.007,-949.34 
504649.314,4247984.007,-932.311 
504649.314,4247784.007,-937.556 
504649.314,4247584.007,-947.289 
504649.314,4247384.007,-934.872 
504649.314,4247184.007,-882.979 
504649.314,4246984.007,-908.403 
504649.314,4246784.007,-945.134 
504649.314,4246584.007,-945.088 
504649.314,4246384.007,-928.03 
504649.314,4246184.007,-908.01 
504649.314,4245984.007,-918.652 
504649.314,4245784.007,-950.199 
504649.314,4245584.007,-916.049 
504649.314,4245384.007,-906.384 
504649.314,4245184.007,-904.625 
504649.314,4244984.007,-909.01 
504649.314,4244784.007,-923.42 
504649.314,4244584.007,-945.138 
504649.314,4244384.007,-895.585 
504649.314,4244184.007,-941.445 
504649.314,4243984.007,-913.488 
504649.314,4243784.007,-912.966 
504649.314,4243584.007,-919.736 
504649.314,4243384.007,-920.783 
504649.314,4243184.007,-917.622 
504649.314,4242984.007,-891.278 
504649.314,4242784.007,-885.03 
504649.314,4242584.007,-883.029 
504649.314,4242384.007,-855.918 
504649.314,4242184.007,-849.051 
504649.314,4241984.007,-847.764 
504649.314,4241784.007,-845.494 
504649.314,4241584.007,-826.762 
504649.314,4241384.007,-808.687 
504649.314,4241184.007,-795.331 
504649.314,4240984.007,-783.497 
504649.314,4240784.007,-777.214 
504649.314,4240584.007,-771.122 
504649.314,4240384.007,-765.333 
504649.314,4240184.007,-759.371 
504649.314,4239984.007,-755.693 
504649.314,4239784.007,-750.129 
504649.314,4239584.007,-741.107 
504649.314,4239384.007,-729.985 
504649.314,4239184.007,-720.25 
504649.314,4238984.007,-707.556 
504649.314,4238784.007,-696.926 
504649.314,4238584.007,-686.5 
504649.314,4238384.007,-678.724 
504649.314,4238184.007,-672.259 
504649.314,4237984.007,-691.395 
504649.314,4237784.007,-697.36 
504649.314,4237584.007,-706.167 
504649.314,4237384.007,-738.568 
504649.314,4237184.007,-775.792 
504649.314,4236984.007,-785.265 
504649.314,4236784.007,-783.382 
504649.314,4236584.007,-767.786 
504649.314,4236384.007,-721.176 
504649.314,4236184.007,-703.957 
504649.314,4235984.007,-705.288 
504649.314,4235784.007,-702.762 
504649.314,4235584.007,-700.97 
504649.314,4235384.007,-695.056 
504649.314,4235184.007,-691.924 
504649.314,4234984.007,-684.582 
504649.314,4234784.007,-678.388 
504649.314,4234584.007,-669.164 
504649.314,4234384.007,-661.067 
504649.314,4234184.007,-648.095 
504649.314,4233984.007,-636.69 
504649.314,4233784.007,-624.012 
504649.314,4233584.007,-614.603 
504649.314,4233384.007,-603.863 
504649.314,4233184.007,-592.641 
504649.314,4232984.007,-581.406 
504649.314,4232784.007,-568.671 
504649.314,4232584.007,-553.162 
504649.314,4230384.007,-554.105 
504649.314,4230184.007,-597.593 
504649.314,4229984.007,-563.619 
504849.314,4269984.007,-578.447 
504849.314,4269784.007,-623.116 
504849.314,4269584.007,-639.386 
504849.314,4269384.007,-652.224 
504849.314,4269184.007,-667.944 
504849.314,4268984.007,-694.732 
504849.314,4268784.007,-706.319 
504849.314,4268584.007,-714.324 
504849.314,4268384.007,-712.312 
504849.314,4268184.007,-704.51 
504849.314,4267984.007,-733.744 
504849.314,4267784.007,-750.561 
504849.314,4267584.007,-722.501 
504849.314,4267384.007,-721.099 
504849.314,4267184.007,-797.278 
504849.314,4266984.007,-850.579 
504849.314,4266784.007,-866.687 
504849.314,4266584.007,-946.687 
504849.314,4266384.007,-943.355 
504849.314,4266184.007,-979.206 
504849.314,4265984.007,-1053.339 
504849.314,4265784.007,-1095.818 
504849.314,4265584.007,-1099.821 
504849.314,4265384.007,-1103.36 
504849.314,4265184.007,-1107.596 
504849.314,4264984.007,-1106.049 
504849.314,4264784.007,-1101.931 
504849.314,4264584.007,-1099.145 
504849.314,4264384.007,-1099.29 
504849.314,4264184.007,-1101.287 
504849.314,4263984.007,-1104.668 
504849.314,4263784.007,-1107.299 
504849.314,4263584.007,-1109.945 
504849.314,4263384.007,-1110.877 
504849.314,4263184.007,-1107.829 
504849.314,4262984.007,-1107.751 
504849.314,4262784.007,-1108.723 
504849.314,4262584.007,-1103.829 
504849.314,4262384.007,-1102.036 
504849.314,4262184.007,-1095.904 
504849.314,4261984.007,-1095.999 
504849.314,4261784.007,-1083.743 
504849.314,4261584.007,-1089.788 
504849.314,4261384.007,-1099.962 
504849.314,4261184.007,-1096.341 
504849.314,4260984.007,-1083.871 
504849.314,4260784.007,-1057.76 
504849.314,4260584.007,-1028.831 
504849.314,4260384.007,-1029.291 
504849.314,4260184.007,-1071.541 
504849.314,4259984.007,-1066.916 
504849.314,4259784.007,-1038.259 
504849.314,4259584.007,-1044.522 
504849.314,4259384.007,-1070.78 
504849.314,4259184.007,-1083.555 
504849.314,4258984.007,-1083.681 
504849.314,4258784.007,-1085.633 
504849.314,4258584.007,-1082.59 
504849.314,4258384.007,-1057.801 
504849.314,4258184.007,-1049.928 
504849.314,4257984.007,-1057.095 
504849.314,4257784.007,-1063.381 
504849.314,4257584.007,-1060.189 
504849.314,4257384.007,-1048.685 
504849.314,4257184.007,-1039.547 
504849.314,4256984.007,-1039 
504849.314,4256784.007,-1038.553 
504849.314,4256584.007,-1033.266 
504849.314,4256384.007,-1053.839 
504849.314,4256184.007,-1059.885 
504849.314,4255984.007,-1060.881 
504849.314,4255784.007,-1056.022 
504849.314,4255584.007,-1055.689 
504849.314,4255384.007,-1055.035 
504849.314,4255184.007,-1049.885 
504849.314,4254984.007,-1042.129 
504849.314,4254784.007,-1037.465 
504849.314,4254584.007,-1030.487 
504849.314,4254384.007,-1029.231 
504849.314,4254184.007,-1023.724 
504849.314,4253984.007,-1023.584 
504849.314,4253784.007,-1020.751 
504849.314,4253584.007,-1019.463 
504849.314,4253384.007,-1020.862 
504849.314,4253184.007,-1016.606 
504849.314,4252984.007,-1020.087 
504849.314,4252784.007,-965.577 
504849.314,4252584.007,-949.482 
504849.314,4252384.007,-967.457 
504849.314,4252184.007,-978.814 
504849.314,4251984.007,-978.082 
504849.314,4251784.007,-989.015 
504849.314,4251584.007,-986.582 
504849.314,4251384.007,-976.589 
504849.314,4251184.007,-971.031 
504849.314,4250984.007,-965.298 
504849.314,4250784.007,-962.82 
504849.314,4250584.007,-961.818 
504849.314,4250384.007,-952.25 
504849.314,4250184.007,-962.375 
504849.314,4249984.007,-928.772 
504849.314,4249784.007,-939.148 
504849.314,4249584.007,-946.804 
504849.314,4249384.007,-961.291 
504849.314,4249184.007,-962.207 
504849.314,4248984.007,-939.335 
504849.314,4248784.007,-959.444 
504849.314,4248584.007,-985.945 
504849.314,4248384.007,-963.536 
504849.314,4248184.007,-956.617 
504849.314,4247984.007,-949.242 
504849.314,4247784.007,-947.994 
504849.314,4247584.007,-956.542 
504849.314,4247384.007,-943.179 
504849.314,4247184.007,-934.42 
504849.314,4246984.007,-913.597 
504849.314,4246784.007,-919.411 
504849.314,4246584.007,-977.375 
504849.314,4246384.007,-940.213 
504849.314,4246184.007,-921.91 
504849.314,4245984.007,-929.817 
504849.314,4245784.007,-944.658 
504849.314,4245584.007,-936.859 
504849.314,4245384.007,-916.805 
504849.314,4245184.007,-913.707 
504849.314,4244984.007,-914.996 
504849.314,4244784.007,-934.514 
504849.314,4244584.007,-951.94 
504849.314,4244384.007,-908.029 
504849.314,4244184.007,-954.756 
504849.314,4243984.007,-922.446 
504849.314,4243784.007,-915.852 
504849.314,4243584.007,-924.307 
504849.314,4243384.007,-928.007 
504849.314,4243184.007,-927.039 
504849.314,4242984.007,-923.715 
504849.314,4242784.007,-916.139 
504849.314,4242584.007,-899.512 
504849.314,4242384.007,-873.67 
504849.314,4242184.007,-844.097 
504849.314,4241984.007,-840.609 
504849.314,4241784.007,-844.841 
504849.314,4241584.007,-838.387 
504849.314,4241384.007,-814.601 
504849.314,4241184.007,-798.443 
504849.314,4240984.007,-786.267 
504849.314,4240784.007,-776.463 
504849.314,4240584.007,-769.493 
504849.314,4240384.007,-762.557 
504849.314,4240184.007,-756.011 
504849.314,4239984.007,-747.648 
504849.314,4239784.007,-744.426 
504849.314,4239584.007,-737.011 
504849.314,4239384.007,-727.603 
504849.314,4239184.007,-717.901 
504849.314,4238984.007,-707.068 
504849.314,4238784.007,-693.979 
504849.314,4238584.007,-684.861 
504849.314,4238384.007,-676.233 
504849.314,4238184.007,-669.49 
504849.314,4237984.007,-662.398 
504849.314,4237784.007,-678.194 
504849.314,4237584.007,-699.283 
504849.314,4237384.007,-714.885 
504849.314,4237184.007,-739.968 
504849.314,4236984.007,-768.676 
504849.314,4236784.007,-773.02 
504849.314,4236584.007,-765.899 
504849.314,4236384.007,-757.264 
504849.314,4236184.007,-716.246 
504849.314,4235984.007,-696.793 
504849.314,4235784.007,-694.447 
504849.314,4235584.007,-695.035 
504849.314,4235384.007,-691.392 
504849.314,4235184.007,-686.426 
504849.314,4234984.007,-681.341 
504849.314,4234784.007,-674.073 
504849.314,4234584.007,-666.395 
504849.314,4234384.007,-658.992 
504849.314,4234184.007,-647.49 
504849.314,4233984.007,-635.762 
504849.314,4233784.007,-623.883 
504849.314,4233584.007,-613.232 
504849.314,4233384.007,-603.185 
504849.314,4233184.007,-590.987 
504849.314,4232984.007,-578.39 
504849.314,4232784.007,-565.2 
504849.314,4232584.007,-552.362 
504849.314,4230184.007,-558.111 
504849.314,4229984.007,-573.146 
505049.314,4270184.007,-561.51 
505049.314,4269984.007,-585.173 
505049.314,4269784.007,-616.976 
505049.314,4269584.007,-634.714 
505049.314,4269384.007,-660.347 
505049.314,4269184.007,-675.581 
505049.314,4268984.007,-687.05 
505049.314,4268784.007,-669.58 
505049.314,4268584.007,-671.95 
505049.314,4268384.007,-695.895 
505049.314,4268184.007,-698.552 
505049.314,4267984.007,-710.536 
505049.314,4267784.007,-732.874 
505049.314,4267584.007,-714.426 
505049.314,4267384.007,-749.953 
505049.314,4267184.007,-834.723 
505049.314,4266984.007,-893.356 
505049.314,4266784.007,-935.06 
505049.314,4266584.007,-967.216 
505049.314,4266384.007,-995.268 
505049.314,4266184.007,-1019.823 
505049.314,4265984.007,-1083.327 
505049.314,4265784.007,-1101.077 
505049.314,4265584.007,-1104.525 
505049.314,4265384.007,-1107.285 
505049.314,4265184.007,-1106.841 
505049.314,4264984.007,-1103.829 
505049.314,4264784.007,-1101.323 
505049.314,4264584.007,-1099.518 
505049.314,4264384.007,-1098.351 
505049.314,4264184.007,-1099.682 
505049.314,4263984.007,-1103.956 
505049.314,4263784.007,-1105.55 
505049.314,4263584.007,-1105.646 
505049.314,4263384.007,-1108.078 
505049.314,4263184.007,-1107.327 
505049.314,4262984.007,-1105.534 
505049.314,4262784.007,-1106.017 
505049.314,4262584.007,-1105.281 
505049.314,4262384.007,-1102.649 
505049.314,4262184.007,-1097.183 
505049.314,4261984.007,-1097.861 
505049.314,4261784.007,-1099.181 
505049.314,4261584.007,-1097.499 
505049.314,4261384.007,-1100.497 
505049.314,4261184.007,-1094.435 
505049.314,4260984.007,-1075.792 
505049.314,4260784.007,-1047.707 
505049.314,4260584.007,-1047.564 
505049.314,4260384.007,-1087.126 
505049.314,4260184.007,-1098.637 
505049.314,4259984.007,-1082.432 
505049.314,4259784.007,-1060.679 
505049.314,4259584.007,-1071.653 
505049.314,4259384.007,-1087.177 
505049.314,4259184.007,-1088.74 
505049.314,4258984.007,-1088.323 
505049.314,4258784.007,-1087.199 
505049.314,4258584.007,-1085.274 
505049.314,4258384.007,-1058.14 
505049.314,4258184.007,-1056.379 
505049.314,4257984.007,-1062.347 
505049.314,4257784.007,-1069.719 
505049.314,4257584.007,-1060.342 
505049.314,4257384.007,-1048.351 
505049.314,4257184.007,-1044.034 
505049.314,4256984.007,-1042.838 
505049.314,4256784.007,-1042.832 
505049.314,4256584.007,-1040.294 
505049.314,4256384.007,-1060.115 
505049.314,4256184.007,-1066.638 
505049.314,4255984.007,-1067.135 
505049.314,4255784.007,-1062.688 
505049.314,4255584.007,-1064.172 
505049.314,4255384.007,-1061.757 
505049.314,4255184.007,-1057.468 
505049.314,4254984.007,-1049.682 
505049.314,4254784.007,-1043.59 
505049.314,4254584.007,-1038.136 
505049.314,4254384.007,-1039.893 
505049.314,4254184.007,-1030.157 
505049.314,4253984.007,-1033.354 
505049.314,4253784.007,-1029.932 
505049.314,4253584.007,-1029.019 
505049.314,4253384.007,-1027.172 
505049.314,4253184.007,-1026.052 
505049.314,4252984.007,-1017.805 
505049.314,4252784.007,-955.712 
505049.314,4252584.007,-956.757 
505049.314,4252384.007,-985.68 
505049.314,4252184.007,-993.52 
505049.314,4251984.007,-991.663 
505049.314,4251784.007,-1003.653 
505049.314,4251584.007,-992.752 
505049.314,4251384.007,-990.176 
505049.314,4251184.007,-983.126 
505049.314,4250984.007,-978.813 
505049.314,4250784.007,-972.919 
505049.314,4250584.007,-972.619 
505049.314,4250384.007,-978.74 
505049.314,4250184.007,-972.195 
505049.314,4249984.007,-937.656 
505049.314,4249784.007,-947.745 
505049.314,4249584.007,-957.558 
505049.314,4249384.007,-977.638 
505049.314,4249184.007,-961.333 
505049.314,4248984.007,-949.838 
505049.314,4248784.007,-972.243 
505049.314,4248584.007,-998.72 
505049.314,4248384.007,-944.369 
505049.314,4248184.007,-958.325 
505049.314,4247984.007,-963.466 
505049.314,4247784.007,-959.765 
505049.314,4247584.007,-968.284 
505049.314,4247384.007,-942.71 
505049.314,4247184.007,-946.373 
505049.314,4246984.007,-943.604 
505049.314,4246784.007,-939.217 
505049.314,4246584.007,-985.411 
505049.314,4246384.007,-959.532 
505049.314,4246184.007,-988.48 
505049.314,4245984.007,-975.272 
505049.314,4245784.007,-959.078 
505049.314,4245584.007,-934.862 
505049.314,4245384.007,-924.641 
505049.314,4245184.007,-921.969 
505049.314,4244984.007,-922.073 
505049.314,4244784.007,-936.756 
505049.314,4244584.007,-946.133 
505049.314,4244384.007,-952.528 
505049.314,4244184.007,-944.083 
505049.314,4243984.007,-926.544 
505049.314,4243784.007,-917.379 
505049.314,4243584.007,-930.411 
505049.314,4243384.007,-933.234 
505049.314,4243184.007,-933.488 
505049.314,4242984.007,-929.329 
505049.314,4242784.007,-922.525 
505049.314,4242584.007,-905.405 
505049.314,4242384.007,-893.639 
505049.314,4242184.007,-867.171 
505049.314,4241984.007,-838.308 
505049.314,4241784.007,-847.071 
505049.314,4241584.007,-844.081 
505049.314,4241384.007,-828.085 
505049.314,4241184.007,-807.53 
505049.314,4240984.007,-794.932 
505049.314,4240784.007,-780.983 
505049.314,4240584.007,-772.58 
505049.314,4240384.007,-762.309 
505049.314,4240184.007,-754.779 
505049.314,4239984.007,-745.651 
505049.314,4239784.007,-738.466 
505049.314,4239584.007,-731.735 
505049.314,4239384.007,-721.438 
505049.314,4239184.007,-712.603 
505049.314,4238984.007,-702.471 
505049.314,4238784.007,-694.01 
505049.314,4238584.007,-683.192 
505049.314,4238384.007,-673.822 
505049.314,4238184.007,-666.596 
505049.314,4237984.007,-658.852 
505049.314,4237784.007,-658.327 
505049.314,4237584.007,-684.152 
505049.314,4237384.007,-698.69 
505049.314,4237184.007,-715.479 
505049.314,4236984.007,-749.868 
505049.314,4236784.007,-761.05 
505049.314,4236584.007,-759.105 
505049.314,4236384.007,-752.344 
505049.314,4236184.007,-735.569 
505049.314,4235984.007,-697.453 
505049.314,4235784.007,-692.557 
505049.314,4235584.007,-692.893 
505049.314,4235384.007,-686.734 
505049.314,4235184.007,-680.106 
505049.314,4234984.007,-676.096 
505049.314,4234784.007,-669.788 
505049.314,4234584.007,-665.106 
505049.314,4234384.007,-656.377 
505049.314,4234184.007,-645.884 
505049.314,4233984.007,-632.792 
505049.314,4233784.007,-621.628 
505049.314,4233584.007,-610.75 
505049.314,4233384.007,-599.191 
505049.314,4233184.007,-588.425 
505049.314,4232984.007,-574.722 
505049.314,4232784.007,-559.21 
505249.314,4270584.007,-552.666 
505249.314,4270384.007,-571.947 
505249.314,4270184.007,-595.145 
505249.314,4269984.007,-613.531 
505249.314,4269784.007,-630.922 
505249.314,4269584.007,-648.771 
505249.314,4269384.007,-661.856 
505249.314,4269184.007,-667.577 
505249.314,4268984.007,-661.163 
505249.314,4268784.007,-653.173 
505249.314,4268584.007,-655.667 
505249.314,4268384.007,-700.183 
505249.314,4268184.007,-717.143 
505249.314,4267984.007,-743.246 
505249.314,4267784.007,-773.586 
505249.314,4267584.007,-774.682 
505249.314,4267384.007,-795.748 
505249.314,4267184.007,-869.611 
505249.314,4266984.007,-918.428 
505249.314,4266784.007,-958.861 
505249.314,4266584.007,-998.773 
505249.314,4266384.007,-1029.519 
505249.314,4266184.007,-1064.172 
505249.314,4265984.007,-1089.267 
505249.314,4265784.007,-1102.183 
505249.314,4265584.007,-1107.333 
505249.314,4265384.007,-1105.782 
505249.314,4265184.007,-1105.298 
505249.314,4264984.007,-1101.92 
505249.314,4264784.007,-1100.819 
505249.314,4264584.007,-1100.329 
505249.314,4264384.007,-1099.521 
505249.314,4264184.007,-1100.136 
505249.314,4263984.007,-1103.377 
505249.314,4263784.007,-1105.703 
505249.314,4263584.007,-1106.147 
505249.314,4263384.007,-1108.205 
505249.314,4263184.007,-1107.238 
505249.314,4262984.007,-1106.311 
505249.314,4262784.007,-1105.601 
505249.314,4262584.007,-1104.771 
505249.314,4262384.007,-1100.691 
505249.314,4262184.007,-1095.436 
505249.314,4261984.007,-1097.48 
505249.314,4261784.007,-1101.325 
505249.314,4261584.007,-1103.17 
505249.314,4261384.007,-1101.575 
505249.314,4261184.007,-1094.986 
505249.314,4260984.007,-1081.995 
505249.314,4260784.007,-1076.738 
505249.314,4260584.007,-1099.907 
505249.314,4260384.007,-1105.346 
505249.314,4260184.007,-1098.641 
505249.314,4259984.007,-1083.869 
505249.314,4259784.007,-1064.867 
505249.314,4259584.007,-1091.083 
505249.314,4259384.007,-1091.614 
505249.314,4259184.007,-1092.916 
505249.314,4258984.007,-1091.752 
505249.314,4258784.007,-1088.504 
505249.314,4258584.007,-1085.121 
505249.314,4258384.007,-1085.363 
505249.314,4258184.007,-1073.115 
505249.314,4257984.007,-1073.409 
505249.314,4257784.007,-1069.964 
505249.314,4257584.007,-1060.304 
505249.314,4257384.007,-1050.324 
505249.314,4257184.007,-1048.107 
505249.314,4256984.007,-1048.346 
505249.314,4256784.007,-1044.165 
505249.314,4256584.007,-1043.203 
505249.314,4256384.007,-1064.906 
505249.314,4256184.007,-1073.427 
505249.314,4255984.007,-1073.95 
505249.314,4255784.007,-1067.435 
505249.314,4255584.007,-1074.741 
505249.314,4255384.007,-1070.048 
505249.314,4255184.007,-1061.621 
505249.314,4254984.007,-1057.376 
505249.314,4254784.007,-1050.349 
505249.314,4254584.007,-1047.691 
505249.314,4254384.007,-1044.621 
505249.314,4254184.007,-1040.929 
505249.314,4253984.007,-1042.492 
505249.314,4253784.007,-1040.97 
505249.314,4253584.007,-1039.88 
505249.314,4253384.007,-1035.342 
505249.314,4253184.007,-1033.897 
505249.314,4252984.007,-980.613 
505249.314,4252784.007,-957.918 
505249.314,4252584.007,-978.459 
505249.314,4252384.007,-998.04 
505249.314,4252184.007,-1007.043 
505249.314,4251984.007,-1019.494 
505249.314,4251784.007,-1011.889 
505249.314,4251584.007,-1005.959 
505249.314,4251384.007,-998.436 
505249.314,4251184.007,-993.743 
505249.314,4250984.007,-989.613 
505249.314,4250784.007,-982.968 
505249.314,4250584.007,-983.674 
505249.314,4250384.007,-986.523 
505249.314,4250184.007,-985.035 
505249.314,4249984.007,-950.155 
505249.314,4249784.007,-956.632 
505249.314,4249584.007,-961.752 
505249.314,4249384.007,-996.555 
505249.314,4249184.007,-965.227 
505249.314,4248984.007,-958.75 
505249.314,4248784.007,-980.779 
505249.314,4248584.007,-1013.187 
505249.314,4248384.007,-951.103 
505249.314,4248184.007,-964.719 
505249.314,4247984.007,-974.707 
505249.314,4247784.007,-969.654 
505249.314,4247584.007,-970.84 
505249.314,4247384.007,-955.243 
505249.314,4247184.007,-957.024 
505249.314,4246984.007,-957.177 
505249.314,4246784.007,-949.585 
505249.314,4246584.007,-990.662 
505249.314,4246384.007,-1002.891 
505249.314,4246184.007,-954.771 
505249.314,4245984.007,-948.606 
505249.314,4245784.007,-969.585 
505249.314,4245584.007,-917.204 
505249.314,4245384.007,-930.85 
505249.314,4245184.007,-929.48 
505249.314,4244984.007,-928.676 
505249.314,4244784.007,-929.211 
505249.314,4244584.007,-956.884 
505249.314,4244384.007,-950.986 
505249.314,4244184.007,-944.543 
505249.314,4243984.007,-944.777 
505249.314,4243784.007,-925.943 
505249.314,4243584.007,-938.033 
505249.314,4243384.007,-939.669 
505249.314,4243184.007,-940.422 
505249.314,4242984.007,-937.126 
505249.314,4242784.007,-930.278 
505249.314,4242584.007,-924.928 
505249.314,4242384.007,-913.041 
505249.314,4242184.007,-880.127 
505249.314,4241984.007,-858.182 
505249.314,4241784.007,-861.513 
505249.314,4241584.007,-853.282 
505249.314,4241384.007,-836.675 
505249.314,4241184.007,-819.356 
505249.314,4240984.007,-806.136 
505249.314,4240784.007,-792.837 
505249.314,4240584.007,-782.413 
505249.314,4240384.007,-769.725 
505249.314,4240184.007,-754.777 
505249.314,4239984.007,-741.14 
505249.314,4239784.007,-729.962 
505249.314,4239584.007,-719.701 
505249.314,4239384.007,-712.599 
505249.314,4239184.007,-705.357 
505249.314,4238984.007,-697.714 
505249.314,4238784.007,-690.192 
505249.314,4238584.007,-680.345 
505249.314,4238384.007,-667.881 
505249.314,4238184.007,-658.597 
505249.314,4237984.007,-651.842 
505249.314,4237784.007,-648.816 
505249.314,4237584.007,-665.731 
505249.314,4237384.007,-678.364 
505249.314,4237184.007,-697.354 
505249.314,4236984.007,-721.258 
505249.314,4236784.007,-732.322 
505249.314,4236584.007,-747.876 
505249.314,4236384.007,-748.384 
505249.314,4236184.007,-743.263 
505249.314,4235984.007,-718.456 
505249.314,4235784.007,-689.835 
505249.314,4235584.007,-687.478 
505249.314,4235384.007,-680.945 
505249.314,4235184.007,-675.119 
505249.314,4234984.007,-670.229 
505249.314,4234784.007,-664.757 
505249.314,4234584.007,-661.248 
505249.314,4234384.007,-653.789 
505249.314,4234184.007,-641.495 
505249.314,4233984.007,-628.988 
505249.314,4233784.007,-617.133 
505249.314,4233584.007,-605.922 
505249.314,4233384.007,-594.601 
505249.314,4233184.007,-583.886 
505249.314,4232984.007,-572.034 
505249.314,4232784.007,-558.346 
505449.314,4270584.007,-555.503 
505449.314,4270384.007,-576.425 
505449.314,4270184.007,-611.066 
505449.314,4269984.007,-627.907 
505449.314,4269784.007,-630.268 
505449.314,4269584.007,-644.419 
505449.314,4269384.007,-651.041 
505449.314,4269184.007,-643.939 
505449.314,4268984.007,-645.687 
505449.314,4268784.007,-652.983 
505449.314,4268584.007,-659.189 
505449.314,4268384.007,-708.725 
505449.314,4268184.007,-735.372 
505449.314,4267984.007,-757.889 
505449.314,4267784.007,-804.939 
505449.314,4267584.007,-826.513 
505449.314,4267384.007,-848.185 
505449.314,4267184.007,-895.076 
505449.314,4266984.007,-953.644 
505449.314,4266784.007,-983.508 
505449.314,4266584.007,-1019.122 
505449.314,4266384.007,-1044.179 
505449.314,4266184.007,-1075.62 
505449.314,4265984.007,-1090.5 
505449.314,4265784.007,-1101.823 
505449.314,4265584.007,-1103.4 
505449.314,4265384.007,-1104.258 
505449.314,4265184.007,-1103.601 
505449.314,4264984.007,-1102.77 
505449.314,4264784.007,-1101.576 
505449.314,4264584.007,-1100.672 
505449.314,4264384.007,-1100.177 
505449.314,4264184.007,-1101.281 
505449.314,4263984.007,-1104.008 
505449.314,4263784.007,-1106.49 
505449.314,4263584.007,-1107.276 
505449.314,4263384.007,-1108.301 
505449.314,4263184.007,-1107.008 
505449.314,4262984.007,-1106.589 
505449.314,4262784.007,-1105.64 
505449.314,4262584.007,-1104.329 
505449.314,4262384.007,-1103.382 
505449.314,4262184.007,-1101.611 
505449.314,4261984.007,-1096.827 
505449.314,4261784.007,-1103.045 
505449.314,4261584.007,-1102.531 
505449.314,4261384.007,-1102.913 
505449.314,4261184.007,-1096.934 
505449.314,4260984.007,-1102.054 
505449.314,4260784.007,-1096.568 
505449.314,4260584.007,-1101.253 
505449.314,4260384.007,-1102.6 
505449.314,4260184.007,-1096.686 
505449.314,4259984.007,-1080.348 
505449.314,4259784.007,-1091.476 
505449.314,4259584.007,-1096.927 
505449.314,4259384.007,-1095.418 
505449.314,4259184.007,-1093.784 
505449.314,4258984.007,-1092.255 
505449.314,4258784.007,-1088.304 
505449.314,4258584.007,-1081.775 
505449.314,4258384.007,-1079.465 
505449.314,4258184.007,-1079.092 
505449.314,4257984.007,-1080.32 
505449.314,4257784.007,-1069.124 
505449.314,4257584.007,-1061.485 
505449.314,4257384.007,-1055.654 
505449.314,4257184.007,-1053.973 
505449.314,4256984.007,-1051.965 
505449.314,4256784.007,-1048.205 
505449.314,4256584.007,-1047.126 
505449.314,4256384.007,-1068.743 
505449.314,4256184.007,-1079.772 
505449.314,4255984.007,-1079.888 
505449.314,4255784.007,-1079.976 
505449.314,4255584.007,-1083.259 
505449.314,4255384.007,-1074.969 
505449.314,4255184.007,-1069.701 
505449.314,4254984.007,-1061.499 
505449.314,4254784.007,-1059.277 
505449.314,4254584.007,-1057.596 
505449.314,4254384.007,-1049.192 
505449.314,4254184.007,-1051.676 
505449.314,4253984.007,-1044.501 
505449.314,4253784.007,-1051.362 
505449.314,4253584.007,-1049.773 
505449.314,4253384.007,-1046.773 
505449.314,4253184.007,-1023.045 
505449.314,4252984.007,-980.836 
505449.314,4252784.007,-975.771 
505449.314,4252584.007,-1005.036 
505449.314,4252384.007,-1020.877 
505449.314,4252184.007,-1012.129 
505449.314,4251984.007,-1026.685 
505449.314,4251784.007,-1020.838 
505449.314,4251584.007,-1015.469 
505449.314,4251384.007,-1010.536 
505449.314,4251184.007,-1005.264 
505449.314,4250984.007,-992.37 
505449.314,4250784.007,-993.828 
505449.314,4250584.007,-995.222 
505449.314,4250384.007,-994.96 
505449.314,4250184.007,-1005.557 
505449.314,4249984.007,-974.647 
505449.314,4249784.007,-965.495 
505449.314,4249584.007,-969.506 
505449.314,4249384.007,-1008.156 
505449.314,4249184.007,-970.178 
505449.314,4248984.007,-977.272 
505449.314,4248784.007,-1008.116 
505449.314,4248584.007,-995.802 
505449.314,4248384.007,-956.194 
505449.314,4248184.007,-967.248 
505449.314,4247984.007,-980.996 
505449.314,4247784.007,-984.806 
505449.314,4247584.007,-972.83 
505449.314,4247384.007,-968.634 
505449.314,4247184.007,-965.633 
505449.314,4246984.007,-967.369 
505449.314,4246784.007,-959.476 
505449.314,4246584.007,-996.275 
505449.314,4246384.007,-992.225 
505449.314,4246184.007,-962.379 
505449.314,4245984.007,-929.385 
505449.314,4245784.007,-920.681 
505449.314,4245584.007,-933.689 
505449.314,4245384.007,-934.494 
505449.314,4245184.007,-934.53 
505449.314,4244984.007,-937.017 
505449.314,4244784.007,-935.663 
505449.314,4244584.007,-957.239 
505449.314,4244384.007,-972.247 
505449.314,4244184.007,-950.641 
505449.314,4243984.007,-963.639 
505449.314,4243784.007,-934.525 
505449.314,4243584.007,-946.228 
505449.314,4243384.007,-946.075 
505449.314,4243184.007,-944.808 
505449.314,4242984.007,-944.713 
505449.314,4242784.007,-937.505 
505449.314,4242584.007,-930.747 
505449.314,4242384.007,-923.049 
505449.314,4242184.007,-909.817 
505449.314,4241984.007,-897.634 
505449.314,4241784.007,-890.39 
505449.314,4241584.007,-866.75 
505449.314,4241384.007,-847.474 
505449.314,4241184.007,-831.559 
505449.314,4240984.007,-817.286 
505449.314,4240784.007,-804.24 
505449.314,4240584.007,-791.476 
505449.314,4240384.007,-777.582 
505449.314,4240184.007,-759.856 
505449.314,4239984.007,-739.04 
505449.314,4239784.007,-723.654 
505449.314,4239584.007,-713.06 
505449.314,4239384.007,-703.952 
505449.314,4239184.007,-697.049 
505449.314,4238984.007,-690.611 
505449.314,4238784.007,-683.764 
505449.314,4238584.007,-677.703 
505449.314,4238384.007,-662.21 
505449.314,4238184.007,-650.682 
505449.314,4237984.007,-643.567 
505449.314,4237784.007,-635.962 
505449.314,4237584.007,-640.203 
505449.314,4237384.007,-653.056 
505449.314,4237184.007,-657.58 
505449.314,4236984.007,-680.338 
505449.314,4236784.007,-685.049 
505449.314,4236584.007,-719.81 
505449.314,4236384.007,-743.017 
505449.314,4236184.007,-740.761 
505449.314,4235984.007,-732.23 
505449.314,4235784.007,-704.772 
505449.314,4235584.007,-670.229 
505449.314,4235384.007,-669.135 
505449.314,4235184.007,-668.74 
505449.314,4234984.007,-664.147 
505449.314,4234784.007,-663.048 
505449.314,4234584.007,-659.228 
505449.314,4234384.007,-651.616 
505449.314,4234184.007,-640.201 
505449.314,4233984.007,-627.759 
505449.314,4233784.007,-614.378 
505449.314,4233584.007,-603.309 
505449.314,4233384.007,-591.174 
505449.314,4233184.007,-579.58 
505449.314,4232984.007,-568.483 
505449.314,4232784.007,-556.472 
505649.314,4270384.007,-574.336 
505649.314,4270184.007,-611.742 
505649.314,4269984.007,-631.744 
505649.314,4269784.007,-646.658 
505649.314,4269584.007,-651.202 
505649.314,4269384.007,-665.329 
505649.314,4269184.007,-681.243 
505649.314,4268984.007,-690.601 
505649.314,4268784.007,-700.212 
505649.314,4268584.007,-707.319 
505649.314,4268384.007,-704.287 
505649.314,4268184.007,-734.056 
505649.314,4267984.007,-761.947 
505649.314,4267784.007,-823.59 
505649.314,4267584.007,-878.721 
505649.314,4267384.007,-895.298 
505649.314,4267184.007,-923.841 
505649.314,4266984.007,-951.724 
505649.314,4266784.007,-983.411 
505649.314,4266584.007,-1023.891 
505649.314,4266384.007,-1062.181 
505649.314,4266184.007,-1085.278 
505649.314,4265984.007,-1090.157 
505649.314,4265784.007,-1091.99 
505649.314,4265584.007,-1097.867 
505649.314,4265384.007,-1099.483 
505649.314,4265184.007,-1100.634 
505649.314,4264984.007,-1101.949 
505649.314,4264784.007,-1101.135 
505649.314,4264584.007,-1101.786 
505649.314,4264384.007,-1103.718 
505649.314,4264184.007,-1103.436 
