507524.314,4273409.007,-137.367 
507524.314,4273359.007,-137.108 
507524.314,4273309.007,-136.665 
507524.314,4273259.007,-135.382 
507524.314,4273209.007,-134.378 
507524.314,4273159.007,-133.549 
507524.314,4273109.007,-132.563 
507524.314,4273059.007,-131.748 
507524.314,4273009.007,-131.846 
507524.314,4272959.007,-131.845 
507524.314,4272909.007,-132.387 
507524.314,4272859.007,-133.519 
507524.314,4272809.007,-135.303 
507524.314,4272759.007,-136.016 
507524.314,4272709.007,-137.191 
507524.314,4272659.007,-139.149 
507524.314,4272609.007,-142.531 
507524.314,4272559.007,-149.326 
507524.314,4272509.007,-159.974 
507524.314,4272459.007,-176.345 
507524.314,4272409.007,-188.49 
507524.314,4272359.007,-193.315 
507524.314,4272309.007,-192.622 
507524.314,4272259.007,-190.43 
507524.314,4272209.007,-191.983 
507524.314,4272159.007,-196.436 
507524.314,4272009.007,-199.622 
507524.314,4226259.007,-199.885 
507524.314,4226209.007,-199.204 
507524.314,4226159.007,-197.429 
507524.314,4226109.007,-195.716 
507524.314,4226059.007,-193.503 
507524.314,4226009.007,-191.027 
507524.314,4225959.007,-188.318 
507524.314,4225909.007,-185.197 
507524.314,4225859.007,-182.419 
507524.314,4225809.007,-178.408 
507524.314,4225759.007,-172.057 
507524.314,4225709.007,-156.336 
507524.314,4225659.007,-142.77 
507524.314,4225609.007,-136.425 
507524.314,4225559.007,-132.608 
507524.314,4225509.007,-130.59 
507524.314,4225459.007,-128.992 
507524.314,4225409.007,-127.587 
507524.314,4225359.007,-126.286 
507524.314,4225309.007,-124.788 
507524.314,4225259.007,-123.324 
507524.314,4225209.007,-122.095 
507524.314,4225159.007,-120.794 
507524.314,4225109.007,-119.293 
507524.314,4225059.007,-117.566 
507524.314,4225009.007,-116.393 
507524.314,4224959.007,-114.818 
507524.314,4224909.007,-113.895 
507524.314,4224859.007,-112.592 
507524.314,4224809.007,-111.218 
507524.314,4224759.007,-109.891 
507524.314,4224709.007,-108.59 
507524.314,4224659.007,-107.27 
507524.314,4224609.007,-106.024 
507524.314,4224559.007,-104.897 
507524.314,4224509.007,-103.597 
507524.314,4224459.007,-102.874 
507524.314,4224409.007,-102.324 
507524.314,4224359.007,-101.8 
507524.314,4224309.007,-101.299 
507524.314,4224259.007,-100.6 
507524.314,4224209.007,-99.9 
507524.314,4224159.007,-99.474 
507524.314,4224109.007,-98.699 
507524.314,4224059.007,-97.798 
507524.314,4224009.007,-97.077 
507524.314,4223959.007,-95.951 
507524.314,4223909.007,-94.628 
507524.314,4223859.007,-93.852 
507524.314,4223809.007,-92.9 
507524.314,4223759.007,-92.401 
507524.314,4223709.007,-91.577 
507524.314,4223659.007,-90.301 
507524.314,4223609.007,-88.925 
507524.314,4223559.007,-89.024 
507524.314,4223509.007,-88.6 
507524.314,4223459.007,-87.826 
507524.314,4223409.007,-87.598 
507524.314,4223359.007,-86.978 
507524.314,4223309.007,-86.961 
507524.314,4223259.007,-86.279 
507524.314,4223209.007,-85.719 
507524.314,4223159.007,-84.974 
507524.314,4223109.007,-84.328 
507524.314,4223059.007,-83.335 
507524.314,4223009.007,-82.601 
507524.314,4222959.007,-81.18 
507524.314,4222909.007,-81.22 
507524.314,4222859.007,-80.477 
507524.314,4222809.007,-79.774 
507524.314,4222759.007,-78.912 
507524.314,4222709.007,-78.157 
507524.314,4222659.007,-77.666 
507524.314,4222609.007,-76.728 
507524.314,4222559.007,-75.75 
507524.314,4222509.007,-74.689 
507524.314,4222459.007,-73.964 
507524.314,4222409.007,-72.893 
507524.314,4222359.007,-72.355 
507524.314,4222309.007,-71.643 
507524.314,4222259.007,-70.345 
507524.314,4222209.007,-69.681 
507524.314,4222159.007,-68.884 
507524.314,4222109.007,-67.877 
507524.314,4222059.007,-66.958 
507524.314,4222009.007,-65.946 
507524.314,4221959.007,-65.064 
507524.314,4221909.007,-64.095 
507524.314,4221859.007,-63.22 
507524.314,4221809.007,-62.278 
507524.314,4221759.007,-61.361 
507524.314,4221709.007,-60.657 
507524.314,4221659.007,-59.708 
507524.314,4221609.007,-58.731 
507524.314,4221559.007,-58.073 
507524.314,4221509.007,-57.245 
507524.314,4221459.007,-56.278 
507524.314,4221409.007,-55.544 
507524.314,4221359.007,-54.771 
507524.314,4221309.007,-54.141 
507524.314,4221259.007,-53.42 
507524.314,4221209.007,-52.648 
507524.314,4221159.007,-51.321 
507524.314,4221109.007,-50.979 
507524.314,4221059.007,-50.314 
507524.314,4221009.007,-49.438 
507524.314,4220959.007,-48.638 
507524.314,4220909.007,-47.418 
507524.314,4220859.007,-45.693 
507524.314,4220809.007,-46.213 
507524.314,4220759.007,-45.453 
507524.314,4220709.007,-44.577 
507524.314,4220659.007,-43.827 
507524.314,4220609.007,-42.917 
507524.314,4220559.007,-41.947 
507524.314,4220509.007,-41.06 
507524.314,4220459.007,-40.039 
507524.314,4220409.007,-39.063 
507524.314,4220359.007,-38.031 
507524.314,4220309.007,-37.011 
507524.314,4220259.007,-35.896 
507524.314,4220209.007,-34.776 
507524.314,4220159.007,-33.506 
507524.314,4220109.007,-32.232 
507524.314,4220059.007,-30.883 
507524.314,4220009.007,-28.474 
507574.314,4274209.007,-100.548 
507574.314,4274159.007,-102.877 
507574.314,4274109.007,-104.562 
507574.314,4274059.007,-105.987 
507574.314,4274009.007,-107.547 
507574.314,4273959.007,-108.887 
507574.314,4273909.007,-110.589 
507574.314,4273859.007,-112.719 
507574.314,4273809.007,-115.863 
507574.314,4273759.007,-119.992 
507574.314,4273709.007,-124.692 
507574.314,4273659.007,-128.862 
507574.314,4273609.007,-132.26 
507574.314,4273559.007,-135.305 
507574.314,4273509.007,-137.507 
507574.314,4273459.007,-139.034 
507574.314,4273409.007,-140.46 
507574.314,4273359.007,-141.251 
507574.314,4273309.007,-140.998 
507574.314,4273259.007,-139.814 
507574.314,4273209.007,-138.239 
507574.314,4273159.007,-136.996 
507574.314,4273109.007,-135.922 
507574.314,4273059.007,-134.993 
507574.314,4273009.007,-133.994 
507574.314,4272959.007,-134.335 
507574.314,4272909.007,-134.677 
507574.314,4272859.007,-136.016 
507574.314,4272809.007,-137.003 
507574.314,4272759.007,-138.437 
507574.314,4272709.007,-140.093 
507574.314,4272659.007,-142.58 
507574.314,4272609.007,-147.425 
507574.314,4272559.007,-155.549 
507574.314,4272509.007,-165.985 
507574.314,4272459.007,-176.488 
507574.314,4272409.007,-193.284 
507574.314,4226159.007,-199.558 
507574.314,4226109.007,-197.259 
507574.314,4226059.007,-194.914 
507574.314,4226009.007,-192.301 
507574.314,4225959.007,-189.701 
507574.314,4225909.007,-186.663 
507574.314,4225859.007,-183.593 
507574.314,4225809.007,-179.408 
507574.314,4225759.007,-173.382 
507574.314,4225709.007,-161.077 
507574.314,4225659.007,-146.353 
507574.314,4225609.007,-137.397 
507574.314,4225559.007,-133.451 
507574.314,4225509.007,-130.914 
507574.314,4225459.007,-129.185 
507574.314,4225409.007,-127.563 
507574.314,4225359.007,-126.017 
507574.314,4225309.007,-124.61 
507574.314,4225259.007,-123.366 
507574.314,4225209.007,-122.065 
507574.314,4225159.007,-120.488 
507574.314,4225109.007,-118.882 
507574.314,4225059.007,-117.241 
507574.314,4225009.007,-116.113 
507574.314,4224959.007,-114.871 
507574.314,4224909.007,-113.771 
507574.314,4224859.007,-112.495 
507574.314,4224809.007,-111.291 
507574.314,4224759.007,-109.696 
507574.314,4224709.007,-108.699 
507574.314,4224659.007,-107.42 
507574.314,4224609.007,-106.393 
507574.314,4224559.007,-105.141 
507574.314,4224509.007,-103.995 
507574.314,4224459.007,-103.076 
507574.314,4224409.007,-102.305 
507574.314,4224359.007,-101.922 
507574.314,4224309.007,-101.398 
507574.314,4224259.007,-100.698 
507574.314,4224209.007,-100 
507574.314,4224159.007,-99.5 
507574.314,4224109.007,-98.799 
507574.314,4224059.007,-97.999 
507574.314,4224009.007,-96.851 
507574.314,4223959.007,-95.251 
507574.314,4223909.007,-94.152 
507574.314,4223859.007,-93.224 
507574.314,4223809.007,-92.9 
507574.314,4223759.007,-92 
507574.314,4223709.007,-91.301 
507574.314,4223659.007,-90.6 
507574.314,4223609.007,-90.024 
507574.314,4223559.007,-89.526 
507574.314,4223509.007,-89.126 
507574.314,4223459.007,-88.328 
507574.314,4223409.007,-87.602 
507574.314,4223359.007,-86.724 
507574.314,4223309.007,-87.096 
507574.314,4223259.007,-86.438 
507574.314,4223209.007,-85.757 
507574.314,4223159.007,-85.312 
507574.314,4223109.007,-84.304 
507574.314,4223059.007,-83.824 
507574.314,4223009.007,-83.005 
507574.314,4222959.007,-81.929 
507574.314,4222909.007,-81.401 
507574.314,4222859.007,-80.305 
507574.314,4222809.007,-79.96 
507574.314,4222759.007,-79.592 
507574.314,4222709.007,-79.088 
507574.314,4222659.007,-78.078 
507574.314,4222609.007,-77.109 
507574.314,4222559.007,-76.021 
507574.314,4222509.007,-75.229 
507574.314,4222459.007,-74.374 
507574.314,4222409.007,-74.065 
507574.314,4222359.007,-72.754 
507574.314,4222309.007,-71.721 
507574.314,4222259.007,-71.097 
507574.314,4222209.007,-70.249 
507574.314,4222159.007,-69.192 
507574.314,4222109.007,-68.208 
507574.314,4222059.007,-67.305 
507574.314,4222009.007,-66.355 
507574.314,4221959.007,-65.309 
507574.314,4221909.007,-64.266 
507574.314,4221859.007,-63.402 
507574.314,4221809.007,-62.738 
507574.314,4221759.007,-61.807 
507574.314,4221709.007,-60.843 
507574.314,4221659.007,-60.025 
507574.314,4221609.007,-59.366 
507574.314,4221559.007,-58.492 
507574.314,4221509.007,-57.598 
507574.314,4221459.007,-56.738 
507574.314,4221409.007,-55.992 
507574.314,4221359.007,-55.108 
507574.314,4221309.007,-54.361 
507574.314,4221259.007,-53.564 
507574.314,4221209.007,-52.756 
507574.314,4221159.007,-51.263 
507574.314,4221109.007,-51.2 
507574.314,4221059.007,-50.714 
507574.314,4221009.007,-49.814 
507574.314,4220959.007,-48.929 
507574.314,4220909.007,-47.794 
507574.314,4220859.007,-46.244 
507574.314,4220809.007,-46.444 
507574.314,4220759.007,-45.651 
507574.314,4220709.007,-44.839 
507574.314,4220659.007,-43.986 
507574.314,4220609.007,-43.115 
507574.314,4220559.007,-42.194 
507574.314,4220509.007,-41.241 
507574.314,4220459.007,-40.252 
507574.314,4220409.007,-39.254 
507574.314,4220359.007,-38.218 
507574.314,4220309.007,-37.191 
507574.314,4220259.007,-36.088 
507574.314,4220209.007,-34.937 
507574.314,4220159.007,-33.729 
507574.314,4220109.007,-32.516 
507574.314,4220059.007,-30.657 
507624.314,4274209.007,-102.005 
507624.314,4274159.007,-103.775 
507624.314,4274109.007,-105.275 
507624.314,4274059.007,-106.86 
507624.314,4274009.007,-108.234 
507624.314,4273959.007,-109.759 
507624.314,4273909.007,-111.589 
507624.314,4273859.007,-113.949 
507624.314,4273809.007,-117.678 
507624.314,4273759.007,-122.207 
507624.314,4273709.007,-126.805 
507624.314,4273659.007,-130.56 
507624.314,4273609.007,-133.835 
507624.314,4273559.007,-136.917 
507624.314,4273509.007,-139.604 
507624.314,4273459.007,-141.948 
507624.314,4273409.007,-143.864 
507624.314,4273359.007,-145.488 
507624.314,4273309.007,-146.238 
507624.314,4273259.007,-145.842 
507624.314,4273209.007,-144.642 
507624.314,4273159.007,-142.672 
507624.314,4273109.007,-141.284 
507624.314,4273059.007,-139.955 
507624.314,4273009.007,-138.939 
507624.314,4272959.007,-138.341 
507624.314,4272909.007,-138.538 
507624.314,4272859.007,-139.092 
507624.314,4272809.007,-140.708 
507624.314,4272759.007,-142.852 
507624.314,4272709.007,-146.057 
507624.314,4272659.007,-150.785 
507624.314,4272609.007,-156.894 
507624.314,4272559.007,-163.257 
507624.314,4272509.007,-172.238 
507624.314,4272459.007,-184.433 
507624.314,4272409.007,-196.993 
507624.314,4226109.007,-198.883 
507624.314,4226059.007,-195.744 
507624.314,4226009.007,-192.769 
507624.314,4225959.007,-190.277 
507624.314,4225909.007,-187.426 
507624.314,4225859.007,-184.708 
507624.314,4225809.007,-180.279 
507624.314,4225759.007,-174.16 
507624.314,4225709.007,-164.919 
507624.314,4225659.007,-153.261 
507624.314,4225609.007,-140.166 
507624.314,4225559.007,-134.039 
507624.314,4225509.007,-130.902 
507624.314,4225459.007,-128.992 
507624.314,4225409.007,-127.415 
507624.314,4225359.007,-125.798 
507624.314,4225309.007,-124.374 
507624.314,4225259.007,-122.869 
507624.314,4225209.007,-121.565 
507624.314,4225159.007,-120.192 
507624.314,4225109.007,-118.794 
507624.314,4225059.007,-117.094 
507624.314,4225009.007,-116.107 
507624.314,4224959.007,-114.719 
507624.314,4224909.007,-113.599 
507624.314,4224859.007,-112.495 
507624.314,4224809.007,-111.391 
507624.314,4224759.007,-110.191 
507624.314,4224709.007,-108.942 
507624.314,4224659.007,-107.773 
507624.314,4224609.007,-106.62 
507624.314,4224559.007,-105.499 
507624.314,4224509.007,-104.321 
507624.314,4224459.007,-103.372 
507624.314,4224409.007,-102.723 
507624.314,4224359.007,-102.023 
507624.314,4224309.007,-101.598 
507624.314,4224259.007,-100.798 
507624.314,4224209.007,-100.1 
507624.314,4224159.007,-99.524 
507624.314,4224109.007,-98.823 
507624.314,4224059.007,-97.999 
507624.314,4224009.007,-96.999 
507624.314,4223959.007,-95.699 
507624.314,4223909.007,-94.424 
507624.314,4223859.007,-93.2 
507624.314,4223809.007,-92.752 
507624.314,4223759.007,-92.1 
507624.314,4223709.007,-91.824 
507624.314,4223659.007,-91.449 
507624.314,4223609.007,-90.824 
507624.314,4223559.007,-90.3 
507624.314,4223509.007,-89.402 
507624.314,4223459.007,-88.326 
507624.314,4223409.007,-87.153 
507624.314,4223359.007,-86.548 
507624.314,4223309.007,-87.346 
507624.314,4223259.007,-86.705 
507624.314,4223209.007,-85.249 
507624.314,4223159.007,-84.727 
507624.314,4223109.007,-84.003 
507624.314,4223059.007,-83.797 
507624.314,4223009.007,-83.277 
507624.314,4222959.007,-82.705 
507624.314,4222909.007,-82.024 
507624.314,4222859.007,-81.147 
507624.314,4222809.007,-80.329 
507624.314,4222759.007,-80.348 
507624.314,4222709.007,-79.295 
507624.314,4222659.007,-78.245 
507624.314,4222609.007,-77.388 
507624.314,4222559.007,-76.604 
507624.314,4222509.007,-75.96 
507624.314,4222459.007,-75.403 
507624.314,4222409.007,-73.879 
507624.314,4222359.007,-73.17 
507624.314,4222309.007,-72.067 
507624.314,4222259.007,-71.366 
507624.314,4222209.007,-70.452 
507624.314,4222159.007,-69.49 
507624.314,4222109.007,-68.591 
507624.314,4222059.007,-67.5 
507624.314,4222009.007,-66.444 
507624.314,4221959.007,-65.669 
507624.314,4221909.007,-64.839 
507624.314,4221859.007,-63.766 
507624.314,4221809.007,-62.945 
507624.314,4221759.007,-62.183 
507624.314,4221709.007,-61.474 
507624.314,4221659.007,-60.607 
507624.314,4221609.007,-59.69 
507624.314,4221559.007,-58.742 
507624.314,4221509.007,-58.019 
507624.314,4221459.007,-57.15 
507624.314,4221409.007,-56.312 
507624.314,4221359.007,-55.453 
507624.314,4221309.007,-54.651 
507624.314,4221259.007,-53.901 
507624.314,4221209.007,-53.17 
507624.314,4221159.007,-51.931 
507624.314,4221109.007,-51.376 
507624.314,4221059.007,-50.903 
507624.314,4221009.007,-50.103 
507624.314,4220959.007,-49.238 
507624.314,4220909.007,-48.173 
507624.314,4220859.007,-46.791 
507624.314,4220809.007,-46.751 
507624.314,4220759.007,-45.916 
507624.314,4220709.007,-45.099 
507624.314,4220659.007,-44.249 
507624.314,4220609.007,-43.342 
507624.314,4220559.007,-42.417 
507624.314,4220509.007,-41.537 
507624.314,4220459.007,-40.535 
507624.314,4220409.007,-39.559 
507624.314,4220359.007,-38.501 
507624.314,4220309.007,-37.387 
507624.314,4220259.007,-36.319 
507624.314,4220209.007,-35.093 
507624.314,4220159.007,-34.142 
507624.314,4220109.007,-32.24 
507674.314,4274209.007,-103.175 
507674.314,4274159.007,-104.603 
507674.314,4274109.007,-106.032 
507674.314,4274059.007,-107.359 
507674.314,4274009.007,-108.859 
507674.314,4273959.007,-110.489 
507674.314,4273909.007,-112.606 
507674.314,4273859.007,-115.665 
507674.314,4273809.007,-119.924 
507674.314,4273759.007,-124.937 
507674.314,4273709.007,-129.178 
507674.314,4273659.007,-132.448 
507674.314,4273609.007,-135.66 
507674.314,4273559.007,-138.518 
507674.314,4273509.007,-141.02 
507674.314,4273459.007,-143.717 
507674.314,4273409.007,-146.292 
507674.314,4273359.007,-148.494 
507674.314,4273309.007,-149.934 
507674.314,4273259.007,-150.807 
507674.314,4273209.007,-150.611 
507674.314,4273159.007,-149.567 
507674.314,4273109.007,-148.572 
507674.314,4273059.007,-147.286 
507674.314,4273009.007,-145.887 
507674.314,4272959.007,-144.512 
507674.314,4272909.007,-144.196 
507674.314,4272859.007,-144.613 
507674.314,4272809.007,-146.352 
507674.314,4272759.007,-149.408 
507674.314,4272709.007,-154.032 
507674.314,4272659.007,-159.909 
507674.314,4272609.007,-165.28 
507674.314,4272559.007,-169.956 
507674.314,4272509.007,-177.523 
507674.314,4272459.007,-193.249 
507674.314,4226109.007,-199.189 
507674.314,4226059.007,-196.036 
507674.314,4226009.007,-192.803 
507674.314,4225959.007,-190.67 
507674.314,4225909.007,-188.104 
507674.314,4225859.007,-185.169 
507674.314,4225809.007,-180.76 
507674.314,4225759.007,-175.467 
507674.314,4225709.007,-168.082 
507674.314,4225659.007,-158.415 
507674.314,4225609.007,-144.469 
507674.314,4225559.007,-135.081 
507674.314,4225509.007,-131.278 
507674.314,4225459.007,-129.083 
507674.314,4225409.007,-127.285 
507674.314,4225359.007,-125.562 
507674.314,4225309.007,-123.962 
507674.314,4225259.007,-122.587 
507674.314,4225209.007,-121.317 
507674.314,4225159.007,-120.165 
507674.314,4225109.007,-118.689 
507674.314,4225059.007,-117.188 
507674.314,4225009.007,-115.621 
507674.314,4224959.007,-114.74 
507674.314,4224909.007,-113.918 
507674.314,4224859.007,-112.795 
507674.314,4224809.007,-111.595 
507674.314,4224759.007,-110.399 
507674.314,4224709.007,-109.1 
507674.314,4224659.007,-107.896 
507674.314,4224609.007,-106.896 
507674.314,4224559.007,-105.697 
507674.314,4224509.007,-104.622 
507674.314,4224459.007,-103.87 
507674.314,4224409.007,-102.8 
507674.314,4224359.007,-102.347 
507674.314,4224309.007,-101.7 
507674.314,4224259.007,-100.996 
507674.314,4224209.007,-100.198 
507674.314,4224159.007,-99.599 
507674.314,4224109.007,-98.899 
507674.314,4224059.007,-98.099 
507674.314,4224009.007,-97.199 
507674.314,4223959.007,-96.223 
507674.314,4223909.007,-94.124 
507674.314,4223859.007,-92.948 
507674.314,4223809.007,-92.848 
507674.314,4223759.007,-93.543 
507674.314,4223709.007,-94.547 
507674.314,4223659.007,-94.325 
507674.314,4223609.007,-92.45 
507674.314,4223559.007,-91.202 
507674.314,4223509.007,-89.978 
507674.314,4223459.007,-89.302 
507674.314,4223409.007,-88.231 
507674.314,4223359.007,-88.358 
507674.314,4223309.007,-86.8 
507674.314,4223259.007,-86.102 
507674.314,4223209.007,-85.301 
507674.314,4223159.007,-84.904 
507674.314,4223109.007,-84.308 
507674.314,4223059.007,-83.7 
507674.314,4223009.007,-83.203 
507674.314,4222959.007,-82.777 
507674.314,4222909.007,-82.205 
507674.314,4222859.007,-81.695 
507674.314,4222809.007,-80.924 
507674.314,4222759.007,-79.901 
507674.314,4222709.007,-78.8 
507674.314,4222659.007,-78.691 
507674.314,4222609.007,-78.037 
507674.314,4222559.007,-77.876 
507674.314,4222509.007,-76.417 
507674.314,4222459.007,-75.56 
507674.314,4222409.007,-74.325 
507674.314,4222359.007,-73.468 
507674.314,4222309.007,-72.432 
507674.314,4222259.007,-71.615 
507674.314,4222209.007,-70.612 
507674.314,4222159.007,-69.646 
507674.314,4222109.007,-68.654 
507674.314,4222059.007,-67.735 
507674.314,4222009.007,-67.012 
507674.314,4221959.007,-66.009 
507674.314,4221909.007,-65.147 
507674.314,4221859.007,-64.213 
507674.314,4221809.007,-63.556 
507674.314,4221759.007,-62.812 
507674.314,4221709.007,-61.856 
507674.314,4221659.007,-60.898 
507674.314,4221609.007,-59.982 
507674.314,4221559.007,-59.165 
507674.314,4221509.007,-58.373 
507674.314,4221459.007,-57.584 
507674.314,4221409.007,-56.749 
507674.314,4221359.007,-55.858 
507674.314,4221309.007,-54.977 
507674.314,4221259.007,-54.126 
507674.314,4221209.007,-53.362 
507674.314,4221159.007,-51.397 
507674.314,4221109.007,-51.734 
507674.314,4221059.007,-51.138 
507674.314,4221009.007,-50.438 
507674.314,4220959.007,-49.625 
507674.314,4220909.007,-48.338 
507674.314,4220859.007,-46.43 
507674.314,4220809.007,-46.875 
507674.314,4220759.007,-46.127 
507674.314,4220709.007,-45.332 
507674.314,4220659.007,-44.474 
507674.314,4220609.007,-43.525 
507674.314,4220559.007,-42.637 
507674.314,4220509.007,-41.811 
507674.314,4220459.007,-40.771 
507674.314,4220409.007,-39.767 
507674.314,4220359.007,-38.749 
507674.314,4220309.007,-38.229 
507674.314,4220259.007,-36.884 
507674.314,4220209.007,-34.929 
507674.314,4220159.007,-33.628 
507724.314,4274209.007,-104.76 
507724.314,4274159.007,-106.287 
507724.314,4274109.007,-106.805 
507724.314,4274059.007,-108.147 
507724.314,4274009.007,-109.574 
507724.314,4273959.007,-111.374 
507724.314,4273909.007,-113.92 
507724.314,4273859.007,-117.807 
507724.314,4273809.007,-122.964 
507724.314,4273759.007,-127.995 
507724.314,4273709.007,-131.575 
507724.314,4273659.007,-134.563 
507724.314,4273609.007,-137.632 
507724.314,4273559.007,-140.16 
507724.314,4273509.007,-142.718 
507724.314,4273459.007,-144.988 
507724.314,4273409.007,-147.214 
507724.314,4273359.007,-150.174 
507724.314,4273309.007,-152 
507724.314,4273259.007,-153.272 
507724.314,4273209.007,-153.617 
507724.314,4273159.007,-153.547 
507724.314,4273109.007,-153.131 
507724.314,4273059.007,-152.533 
507724.314,4273009.007,-151.421 
507724.314,4272959.007,-150.063 
507724.314,4272909.007,-149.362 
507724.314,4272859.007,-149.617 
507724.314,4272809.007,-150.816 
507724.314,4272759.007,-153.343 
507724.314,4272709.007,-157.487 
507724.314,4272659.007,-164.208 
507724.314,4272609.007,-173.008 
507724.314,4272559.007,-181.513 
507724.314,4272509.007,-190.72 
507724.314,4226109.007,-198.82 
507724.314,4226059.007,-195.944 
507724.314,4226009.007,-193.155 
507724.314,4225959.007,-190.701 
507724.314,4225909.007,-188.244 
507724.314,4225859.007,-185.026 
507724.314,4225809.007,-180.653 
507724.314,4225759.007,-175.552 
507724.314,4225709.007,-169.477 
507724.314,4225659.007,-161.137 
507724.314,4225609.007,-146.559 
507724.314,4225559.007,-135.981 
507724.314,4225509.007,-131.8 
507724.314,4225459.007,-129.185 
507724.314,4225409.007,-127.185 
507724.314,4225359.007,-125.462 
507724.314,4225309.007,-123.908 
507724.314,4225259.007,-122.515 
507724.314,4225209.007,-121.387 
507724.314,4225159.007,-119.988 
507724.314,4225109.007,-118.488 
507724.314,4225059.007,-116.919 
507724.314,4225009.007,-116.217 
507724.314,4224959.007,-114.728 
507724.314,4224909.007,-113.996 
507724.314,4224859.007,-112.992 
507724.314,4224809.007,-111.797 
507724.314,4224759.007,-110.597 
507724.314,4224709.007,-109.399 
507724.314,4224659.007,-108.223 
507724.314,4224609.007,-107 
507724.314,4224559.007,-106.099 
507724.314,4224509.007,-105.073 
507724.314,4224459.007,-104.194 
507724.314,4224409.007,-103.197 
507724.314,4224359.007,-102.498 
507724.314,4224309.007,-101.798 
507724.314,4224259.007,-100.999 
507724.314,4224209.007,-100.2 
507724.314,4224159.007,-99.699 
507724.314,4224109.007,-98.975 
507724.314,4224059.007,-98.075 
507724.314,4224009.007,-97.299 
507724.314,4223959.007,-96.775 
507724.314,4223909.007,-95.847 
507724.314,4223859.007,-94.519 
507724.314,4223809.007,-95.547 
507724.314,4223759.007,-95.4 
507724.314,4223709.007,-95.001 
507724.314,4223659.007,-94.6 
507724.314,4223609.007,-94.176 
507724.314,4223559.007,-92.526 
507724.314,4223509.007,-91.102 
507724.314,4223459.007,-90 
507724.314,4223409.007,-88.534 
507724.314,4223359.007,-87.877 
507724.314,4223309.007,-87.203 
507724.314,4223259.007,-86.525 
507724.314,4223209.007,-85.774 
507724.314,4223159.007,-85.13 
507724.314,4223109.007,-84.607 
507724.314,4223059.007,-83.927 
507724.314,4223009.007,-83.304 
507724.314,4222959.007,-82.828 
507724.314,4222909.007,-82.3 
507724.314,4222859.007,-81.705 
507724.314,4222809.007,-80.805 
507724.314,4222759.007,-79.811 
507724.314,4222709.007,-79.324 
507724.314,4222659.007,-78.976 
507724.314,4222609.007,-78.556 
507724.314,4222559.007,-77.666 
507724.314,4222509.007,-76.506 
507724.314,4222459.007,-75.674 
507724.314,4222409.007,-74.751 
507724.314,4222359.007,-73.698 
507724.314,4222309.007,-72.522 
507724.314,4222259.007,-71.66 
507724.314,4222209.007,-70.627 
507724.314,4222159.007,-69.81 
507724.314,4222109.007,-69.045 
507724.314,4222059.007,-68.114 
507724.314,4222009.007,-67.221 
507724.314,4221959.007,-66.392 
507724.314,4221909.007,-65.602 
507724.314,4221859.007,-64.804 
507724.314,4221809.007,-64.021 
507724.314,4221759.007,-63.221 
507724.314,4221709.007,-62.264 
507724.314,4221659.007,-61.304 
507724.314,4221609.007,-60.334 
507724.314,4221559.007,-59.456 
507724.314,4221509.007,-58.705 
507724.314,4221459.007,-57.917 
507724.314,4221409.007,-57.047 
507724.314,4221359.007,-56.213 
507724.314,4221309.007,-55.367 
507724.314,4221259.007,-54.561 
507724.314,4221209.007,-53.733 
507724.314,4221159.007,-52.424 
507724.314,4221109.007,-52.024 
507724.314,4221059.007,-51.414 
507724.314,4221009.007,-50.759 
507724.314,4220959.007,-49.714 
507724.314,4220909.007,-48.429 
507724.314,4220859.007,-46.426 
507724.314,4220809.007,-47.146 
507724.314,4220759.007,-46.355 
507724.314,4220709.007,-45.524 
507724.314,4220659.007,-44.639 
507724.314,4220609.007,-43.846 
507724.314,4220559.007,-42.831 
507724.314,4220509.007,-41.925 
507724.314,4220459.007,-40.925 
507724.314,4220409.007,-39.911 
507724.314,4220359.007,-38.853 
507724.314,4220309.007,-37.769 
507724.314,4220259.007,-36.614 
507724.314,4220209.007,-35.632 
507774.314,4274209.007,-105.245 
507774.314,4274159.007,-106.645 
507774.314,4274109.007,-107.96 
507774.314,4274059.007,-109.032 
507774.314,4274009.007,-110.374 
507774.314,4273959.007,-112.306 
507774.314,4273909.007,-115.58 
507774.314,4273859.007,-120.581 
507774.314,4273809.007,-126.324 
507774.314,4273759.007,-130.694 
507774.314,4273709.007,-134.062 
507774.314,4273659.007,-136.787 
507774.314,4273609.007,-139.62 
507774.314,4273559.007,-142.128 
507774.314,4273509.007,-144.618 
507774.314,4273459.007,-146.302 
507774.314,4273409.007,-148.474 
507774.314,4273359.007,-150.999 
507774.314,4273309.007,-153.273 
507774.314,4273259.007,-154.144 
507774.314,4273209.007,-154.659 
507774.314,4273159.007,-154.832 
507774.314,4273109.007,-154.215 
507774.314,4273059.007,-153.487 
507774.314,4273009.007,-152.687 
507774.314,4272959.007,-151.46 
507774.314,4272909.007,-150.586 
507774.314,4272859.007,-150.639 
507774.314,4272809.007,-151.855 
507774.314,4272759.007,-154.396 
507774.314,4272709.007,-158.563 
507774.314,4272659.007,-165.845 
507774.314,4272609.007,-176.544 
507774.314,4272559.007,-187.911 
507774.314,4226109.007,-198.397 
507774.314,4226059.007,-195.668 
507774.314,4226009.007,-193 
507774.314,4225959.007,-190.893 
507774.314,4225909.007,-188.449 
507774.314,4225859.007,-185.687 
507774.314,4225809.007,-182 
507774.314,4225759.007,-177.134 
507774.314,4225709.007,-171.461 
507774.314,4225659.007,-162.837 
507774.314,4225609.007,-147.389 
507774.314,4225559.007,-136.564 
507774.314,4225509.007,-132.078 
507774.314,4225459.007,-129.479 
507774.314,4225409.007,-127.285 
507774.314,4225359.007,-125.537 
507774.314,4225309.007,-123.991 
507774.314,4225259.007,-122.592 
507774.314,4225209.007,-121.394 
507774.314,4225159.007,-120.017 
507774.314,4225109.007,-118.888 
507774.314,4225059.007,-117.518 
507774.314,4225009.007,-116.407 
507774.314,4224959.007,-115.095 
507774.314,4224909.007,-114.219 
507774.314,4224859.007,-113.192 
507774.314,4224809.007,-111.999 
507774.314,4224759.007,-110.987 
507774.314,4224709.007,-109.7 
507774.314,4224659.007,-108.519 
507774.314,4224609.007,-107.42 
507774.314,4224559.007,-106.297 
507774.314,4224509.007,-105.199 
507774.314,4224459.007,-104.223 
507774.314,4224409.007,-103.298 
507774.314,4224359.007,-102.598 
507774.314,4224309.007,-101.921 
507774.314,4224259.007,-101.024 
507774.314,4224209.007,-100.325 
507774.314,4224159.007,-99.799 
507774.314,4224109.007,-99.099 
507774.314,4224059.007,-98.324 
507774.314,4224009.007,-97.4 
507774.314,4223959.007,-96.8 
507774.314,4223909.007,-95.9 
507774.314,4223859.007,-96.052 
507774.314,4223809.007,-95.8 
507774.314,4223759.007,-95.324 
507774.314,4223709.007,-94.976 
507774.314,4223659.007,-94.477 
507774.314,4223609.007,-93.9 
507774.314,4223559.007,-93.125 
507774.314,4223509.007,-91.904 
507774.314,4223459.007,-90.128 
507774.314,4223409.007,-88.602 
507774.314,4223359.007,-88.328 
507774.314,4223309.007,-87.477 
507774.314,4223259.007,-86.6 
507774.314,4223209.007,-86.124 
507774.314,4223159.007,-85.397 
507774.314,4223109.007,-84.804 
507774.314,4223059.007,-84.004 
507774.314,4223009.007,-83.505 
507774.314,4222959.007,-83.076 
507774.314,4222909.007,-82.376 
507774.314,4222859.007,-81.529 
507774.314,4222809.007,-81.2 
507774.314,4222759.007,-80.405 
507774.314,4222709.007,-79.601 
507774.314,4222659.007,-78.809 
507774.314,4222609.007,-78.195 
507774.314,4222559.007,-77.714 
507774.314,4222509.007,-76.955 
507774.314,4222459.007,-75.837 
507774.314,4222409.007,-74.709 
507774.314,4222359.007,-73.621 
507774.314,4222309.007,-72.749 
507774.314,4222259.007,-71.67 
507774.314,4222209.007,-70.893 
507774.314,4222159.007,-70.171 
507774.314,4222109.007,-69.196 
507774.314,4222059.007,-68.482 
507774.314,4222009.007,-67.614 
507774.314,4221959.007,-66.888 
507774.314,4221909.007,-66.038 
507774.314,4221859.007,-65.074 
507774.314,4221809.007,-64.229 
507774.314,4221759.007,-63.39 
507774.314,4221709.007,-62.711 
507774.314,4221659.007,-61.602 
507774.314,4221609.007,-60.74 
507774.314,4221559.007,-59.826 
507774.314,4221509.007,-58.99 
507774.314,4221459.007,-58.085 
507774.314,4221409.007,-57.341 
507774.314,4221359.007,-56.475 
507774.314,4221309.007,-55.694 
507774.314,4221259.007,-54.805 
507774.314,4221209.007,-54.083 
507774.314,4221159.007,-51.901 
507774.314,4221109.007,-52.11 
507774.314,4221059.007,-51.6 
507774.314,4221009.007,-50.714 
507774.314,4220959.007,-49.849 
507774.314,4220909.007,-48.738 
507774.314,4220859.007,-47.009 
507774.314,4220809.007,-47.383 
507774.314,4220759.007,-46.555 
507774.314,4220709.007,-45.76 
507774.314,4220659.007,-44.861 
507774.314,4220609.007,-43.98 
507774.314,4220559.007,-43.062 
507774.314,4220509.007,-42.119 
507774.314,4220459.007,-41.107 
507774.314,4220409.007,-40.055 
507774.314,4220359.007,-38.971 
507774.314,4220309.007,-37.902 
507774.314,4220259.007,-36.759 
507774.314,4220209.007,-35.564 
507774.314,4220159.007,-34.511 
507824.314,4274209.007,-105.459 
507824.314,4274159.007,-106.957 
507824.314,4274109.007,-108.045 
507824.314,4274059.007,-109.357 
507824.314,4274009.007,-110.976 
507824.314,4273959.007,-113.623 
507824.314,4273909.007,-117.979 
507824.314,4273859.007,-123.953 
507824.314,4273809.007,-129.279 
507824.314,4273759.007,-133.077 
507824.314,4273709.007,-136.26 
507824.314,4273659.007,-139.132 
507824.314,4273609.007,-141.703 
507824.314,4273559.007,-143.988 
507824.314,4273509.007,-146.086 
507824.314,4273459.007,-147.777 
507824.314,4273409.007,-149.573 
507824.314,4273359.007,-151.586 
507824.314,4273309.007,-153.987 
507824.314,4273259.007,-155.573 
507824.314,4273209.007,-156.162 
507824.314,4273159.007,-156.146 
507824.314,4273109.007,-155.2 
507824.314,4273059.007,-154.172 
507824.314,4273009.007,-153.058 
507824.314,4272959.007,-151.672 
507824.314,4272909.007,-150.686 
507824.314,4272859.007,-150.514 
507824.314,4272809.007,-151.653 
507824.314,4272759.007,-153.935 
507824.314,4272709.007,-157.258 
507824.314,4272659.007,-162.806 
507824.314,4272609.007,-171.939 
507824.314,4272559.007,-182.986 
507824.314,4272509.007,-192.664 
507824.314,4272459.007,-199.075 
507824.314,4226109.007,-198.694 
507824.314,4226059.007,-196.194 
507824.314,4226009.007,-193.692 
507824.314,4225959.007,-191.511 
507824.314,4225909.007,-189.063 
507824.314,4225859.007,-186.388 
507824.314,4225809.007,-183.488 
507824.314,4225759.007,-179.408 
507824.314,4225709.007,-173.685 
507824.314,4225659.007,-165.058 
507824.314,4225609.007,-148.834 
507824.314,4225559.007,-136.93 
507824.314,4225509.007,-132.694 
507824.314,4225459.007,-129.73 
507824.314,4225409.007,-127.579 
507824.314,4225359.007,-125.715 
507824.314,4225309.007,-124.186 
507824.314,4225259.007,-122.692 
507824.314,4225209.007,-121.489 
507824.314,4225159.007,-120.194 
507824.314,4225109.007,-118.688 
507824.314,4225059.007,-117.494 
507824.314,4225009.007,-116.217 
507824.314,4224959.007,-115.493 
507824.314,4224909.007,-114.395 
507824.314,4224859.007,-113.392 
507824.314,4224809.007,-112.223 
507824.314,4224759.007,-111.092 
507824.314,4224709.007,-109.923 
507824.314,4224659.007,-108.797 
507824.314,4224609.007,-107.696 
507824.314,4224559.007,-106.421 
507824.314,4224509.007,-105.496 
507824.314,4224459.007,-104.52 
507824.314,4224409.007,-103.799 
507824.314,4224359.007,-102.921 
507824.314,4224309.007,-102.222 
507824.314,4224259.007,-101.423 
507824.314,4224209.007,-100.724 
507824.314,4224159.007,-100.223 
507824.314,4224109.007,-99.323 
507824.314,4224059.007,-98.423 
507824.314,4224009.007,-97.323 
507824.314,4223959.007,-96.6 
507824.314,4223909.007,-96.2 
507824.314,4223859.007,-95.7 
507824.314,4223809.007,-95.5 
507824.314,4223759.007,-95.077 
507824.314,4223709.007,-94.7 
507824.314,4223659.007,-94.2 
507824.314,4223609.007,-93.701 
507824.314,4223559.007,-92.802 
507824.314,4223509.007,-92.378 
507824.314,4223459.007,-91.828 
507824.314,4223409.007,-90.005 
507824.314,4223359.007,-88.928 
507824.314,4223309.007,-87.847 
507824.314,4223259.007,-87 
507824.314,4223209.007,-86.401 
507824.314,4223159.007,-85.304 
507824.314,4223109.007,-84.824 
507824.314,4223059.007,-84.027 
507824.314,4223009.007,-83.6 
507824.314,4222959.007,-83 
507824.314,4222909.007,-82.427 
507824.314,4222859.007,-81.727 
507824.314,4222809.007,-81.295 
507824.314,4222759.007,-80.405 
507824.314,4222709.007,-79.5 
507824.314,4222659.007,-78.628 
507824.314,4222609.007,-78.008 
507824.314,4222559.007,-78.057 
507824.314,4222509.007,-76.817 
507824.314,4222459.007,-75.907 
507824.314,4222409.007,-74.002 
507824.314,4222359.007,-73.46 
507824.314,4222309.007,-72.484 
507824.314,4222259.007,-71.63 
507824.314,4222209.007,-70.654 
507824.314,4222159.007,-69.906 
507824.314,4222109.007,-69.4 
507824.314,4222059.007,-68.891 
507824.314,4222009.007,-68.135 
507824.314,4221959.007,-67.191 
507824.314,4221909.007,-66.257 
507824.314,4221859.007,-65.335 
507824.314,4221809.007,-64.377 
507824.314,4221759.007,-63.699 
507824.314,4221709.007,-62.95 
507824.314,4221659.007,-61.891 
507824.314,4221609.007,-60.9 
507824.314,4221559.007,-60.069 
507824.314,4221509.007,-59.222 
507824.314,4221459.007,-58.386 
507824.314,4221409.007,-57.618 
507824.314,4221359.007,-56.779 
507824.314,4221309.007,-55.925 
507824.314,4221259.007,-55.051 
507824.314,4221209.007,-54.233 
507824.314,4221159.007,-52.6 
507824.314,4221109.007,-52.224 
507824.314,4221059.007,-51.734 
507824.314,4221009.007,-50.994 
507824.314,4220959.007,-50.129 
507824.314,4220909.007,-49.049 
507824.314,4220859.007,-47.55 
507824.314,4220809.007,-47.522 
507824.314,4220759.007,-46.748 
507824.314,4220709.007,-45.873 
507824.314,4220659.007,-44.964 
507824.314,4220609.007,-44.069 
507824.314,4220559.007,-43.204 
507824.314,4220509.007,-42.27 
507824.314,4220459.007,-41.303 
507824.314,4220409.007,-40.312 
507824.314,4220359.007,-39.29 
507824.314,4220309.007,-38.135 
507824.314,4220259.007,-36.893 
507824.314,4220209.007,-35.741 
507824.314,4220159.007,-34.538 
507874.314,4274209.007,-105.63 
507874.314,4274159.007,-106.957 
507874.314,4274109.007,-108.23 
507874.314,4274059.007,-109.759 
507874.314,4274009.007,-111.891 
507874.314,4273959.007,-115.839 
507874.314,4273909.007,-121.636 
507874.314,4273859.007,-126.906 
507874.314,4273809.007,-131.159 
507874.314,4273759.007,-134.847 
507874.314,4273709.007,-138.044 
507874.314,4273659.007,-141.017 
507874.314,4273609.007,-143.59 
507874.314,4273559.007,-145.617 
507874.314,4273509.007,-147.649 
507874.314,4273459.007,-149.086 
507874.314,4273409.007,-150.675 
507874.314,4273359.007,-152.487 
507874.314,4273309.007,-154.713 
507874.314,4273259.007,-156.999 
507874.314,4273209.007,-157.972 
507874.314,4273159.007,-157.944 
507874.314,4273109.007,-156.16 
507874.314,4273059.007,-154.36 
507874.314,4273009.007,-153.072 
507874.314,4272959.007,-151.855 
507874.314,4272909.007,-150.799 
507874.314,4272859.007,-150.527 
507874.314,4272809.007,-151.313 
507874.314,4272759.007,-152.409 
507874.314,4272709.007,-153.878 
507874.314,4272659.007,-156.213 
507874.314,4272609.007,-159.459 
507874.314,4272559.007,-164.924 
507874.314,4272509.007,-171.148 
507874.314,4272459.007,-180.804 
507874.314,4272409.007,-186.098 
507874.314,4272359.007,-192.028 
507874.314,4226109.007,-199.993 
507874.314,4226059.007,-197.526 
507874.314,4226009.007,-195.071 
507874.314,4225959.007,-192.596 
507874.314,4225909.007,-189.894 
507874.314,4225859.007,-187.178 
507874.314,4225809.007,-184.405 
507874.314,4225759.007,-180.878 
507874.314,4225709.007,-176.015 
507874.314,4225659.007,-168.047 
507874.314,4225609.007,-152.164 
507874.314,4225559.007,-138.148 
507874.314,4225509.007,-133.494 
507874.314,4225459.007,-130.4 
507874.314,4225409.007,-128.007 
507874.314,4225359.007,-126.069 
507874.314,4225309.007,-124.298 
507874.314,4225259.007,-122.888 
507874.314,4225209.007,-121.492 
507874.314,4225159.007,-120.213 
507874.314,4225109.007,-118.864 
507874.314,4225059.007,-117.472 
507874.314,4225009.007,-116.294 
507874.314,4224959.007,-115.495 
507874.314,4224909.007,-114.619 
507874.314,4224859.007,-113.596 
507874.314,4224809.007,-112.597 
507874.314,4224759.007,-111.397 
507874.314,4224709.007,-110.22 
507874.314,4224659.007,-109.196 
507874.314,4224609.007,-108.094 
507874.314,4224559.007,-106.797 
507874.314,4224509.007,-105.295 
507874.314,4224459.007,-104.499 
507874.314,4224409.007,-104 
507874.314,4224359.007,-103.298 
507874.314,4224309.007,-102.4 
507874.314,4224259.007,-101.722 
507874.314,4224209.007,-101.147 
507874.314,4224159.007,-100.675 
507874.314,4224109.007,-99.622 
507874.314,4224059.007,-98.699 
507874.314,4224009.007,-97.599 
507874.314,4223959.007,-96.7 
507874.314,4223909.007,-96.323 
507874.314,4223859.007,-96.1 
507874.314,4223809.007,-95.677 
507874.314,4223759.007,-95.001 
507874.314,4223709.007,-94.501 
507874.314,4223659.007,-94.3 
507874.314,4223609.007,-93.678 
507874.314,4223559.007,-92.702 
507874.314,4223509.007,-91.902 
507874.314,4223459.007,-91.404 
507874.314,4223409.007,-90.905 
507874.314,4223359.007,-88.903 
507874.314,4223309.007,-88.303 
507874.314,4223259.007,-87.203 
507874.314,4223209.007,-86.327 
507874.314,4223159.007,-85.804 
507874.314,4223109.007,-85.123 
507874.314,4223059.007,-84.401 
507874.314,4223009.007,-83.728 
507874.314,4222959.007,-83.227 
507874.314,4222909.007,-82.506 
507874.314,4222859.007,-81.927 
507874.314,4222809.007,-81.235 
507874.314,4222759.007,-80.505 
507874.314,4222709.007,-79.729 
507874.314,4222659.007,-78.822 
507874.314,4222609.007,-77.93 
507874.314,4222559.007,-77.778 
507874.314,4222509.007,-76.229 
507874.314,4222459.007,-75.236 
507874.314,4222409.007,-74.629 
507874.314,4222359.007,-73.631 
507874.314,4222309.007,-72.931 
507874.314,4222259.007,-72.232 
507874.314,4222209.007,-71.522 
507874.314,4222159.007,-70.73 
507874.314,4222109.007,-69.717 
507874.314,4222059.007,-68.63 
507874.314,4222009.007,-67.809 
507874.314,4221959.007,-67.1 
507874.314,4221909.007,-66.444 
507874.314,4221859.007,-65.632 
507874.314,4221809.007,-64.722 
507874.314,4221759.007,-63.996 
507874.314,4221709.007,-63.127 
507874.314,4221659.007,-62.189 
507874.314,4221609.007,-61.193 
507874.314,4221559.007,-60.237 
507874.314,4221509.007,-59.467 
507874.314,4221459.007,-58.616 
507874.314,4221409.007,-57.931 
507874.314,4221359.007,-57.066 
507874.314,4221309.007,-56.141 
507874.314,4221259.007,-55.221 
507874.314,4221209.007,-54.47 
507874.314,4221159.007,-52.866 
507874.314,4221109.007,-52.48 
507874.314,4221059.007,-52.114 
507874.314,4221009.007,-51.248 
507874.314,4220959.007,-50.414 
507874.314,4220909.007,-49.315 
507874.314,4220859.007,-48.038 
507874.314,4220809.007,-47.76 
507874.314,4220759.007,-46.956 
507874.314,4220709.007,-46.051 
507874.314,4220659.007,-45.156 
507874.314,4220609.007,-44.297 
507874.314,4220559.007,-43.298 
507874.314,4220509.007,-42.374 
507874.314,4220459.007,-41.562 
507874.314,4220409.007,-40.481 
507874.314,4220359.007,-39.494 
507874.314,4220309.007,-38.29 
507874.314,4220259.007,-37.034 
507874.314,4220209.007,-35.85 
507874.314,4220159.007,-34.629 
507924.314,4274209.007,-105.519 
507924.314,4274159.007,-106.917 
507924.314,4274109.007,-108.072 
507924.314,4274059.007,-110.176 
507924.314,4274009.007,-113.713 
507924.314,4273959.007,-119.381 
507924.314,4273909.007,-125.433 
507924.314,4273859.007,-129.69 
507924.314,4273809.007,-132.762 
507924.314,4273759.007,-135.944 
507924.314,4273709.007,-139.217 
507924.314,4273659.007,-142.417 
507924.314,4273609.007,-145.1 
507924.314,4273559.007,-147.044 
507924.314,4273509.007,-149.071 
507924.314,4273459.007,-150.49 
507924.314,4273409.007,-151.973 
507924.314,4273359.007,-153.6 
507924.314,4273309.007,-155.801 
507924.314,4273259.007,-158.401 
507924.314,4273209.007,-159.774 
507924.314,4273159.007,-159.73 
507924.314,4273109.007,-157.187 
507924.314,4273059.007,-155.059 
507924.314,4273009.007,-153.214 
507924.314,4272959.007,-151.987 
507924.314,4272909.007,-151.205 
507924.314,4272859.007,-151.271 
507924.314,4272809.007,-151.847 
507924.314,4272759.007,-152.13 
507924.314,4272709.007,-152.069 
507924.314,4272659.007,-151.398 
507924.314,4272609.007,-151.276 
507924.314,4272559.007,-152.127 
507924.314,4272509.007,-151.727 
507924.314,4272459.007,-158.77 
507924.314,4272409.007,-169.181 
507924.314,4272359.007,-184.334 
507924.314,4272309.007,-199.88 
507924.314,4226059.007,-199.092 
507924.314,4226009.007,-196.061 
507924.314,4225959.007,-193.222 
507924.314,4225909.007,-190.404 
507924.314,4225859.007,-187.971 
507924.314,4225809.007,-185.095 
507924.314,4225759.007,-182.063 
507924.314,4225709.007,-178.049 
507924.314,4225659.007,-171.118 
507924.314,4225609.007,-157.381 
507924.314,4225559.007,-140.61 
507924.314,4225509.007,-134.692 
507924.314,4225459.007,-131.1 
507924.314,4225409.007,-128.558 
507924.314,4225359.007,-126.464 
507924.314,4225309.007,-124.71 
507924.314,4225259.007,-123.093 
507924.314,4225209.007,-121.694 
507924.314,4225159.007,-120.294 
507924.314,4225109.007,-118.994 
507924.314,4225059.007,-117.673 
507924.314,4225009.007,-116.617 
507924.314,4224959.007,-115.895 
507924.314,4224909.007,-114.995 
507924.314,4224859.007,-113.895 
507924.314,4224809.007,-112.795 
507924.314,4224759.007,-111.822 
507924.314,4224709.007,-110.813 
507924.314,4224659.007,-109.493 
507924.314,4224609.007,-108.393 
507924.314,4224559.007,-107.023 
507924.314,4224509.007,-105.5 
507924.314,4224459.007,-104.623 
507924.314,4224409.007,-104.197 
507924.314,4224359.007,-103.7 
507924.314,4224309.007,-102.998 
507924.314,4224259.007,-102 
507924.314,4224209.007,-101.298 
507924.314,4224159.007,-100.599 
507924.314,4224109.007,-99.799 
507924.314,4224059.007,-99 
507924.314,4224009.007,-97.523 
507924.314,4223959.007,-96.676 
507924.314,4223909.007,-96.5 
507924.314,4223859.007,-96.3 
507924.314,4223809.007,-95.5 
507924.314,4223759.007,-95.323 
507924.314,4223709.007,-94.676 
507924.314,4223659.007,-94.2 
507924.314,4223609.007,-93.477 
507924.314,4223559.007,-92.502 
507924.314,4223509.007,-91.301 
507924.314,4223459.007,-90.902 
507924.314,4223409.007,-90.652 
507924.314,4223359.007,-90.177 
507924.314,4223309.007,-88.626 
507924.314,4223259.007,-87.627 
507924.314,4223209.007,-86.703 
507924.314,4223159.007,-85.801 
507924.314,4223109.007,-85.2 
507924.314,4223059.007,-84.604 
507924.314,4223009.007,-83.904 
507924.314,4222959.007,-83.182 
507924.314,4222909.007,-82.7 
507924.314,4222859.007,-81.905 
507924.314,4222809.007,-81.428 
507924.314,4222759.007,-80.7 
507924.314,4222709.007,-79.806 
507924.314,4222659.007,-79.128 
507924.314,4222609.007,-78.403 
507924.314,4222559.007,-77.623 
507924.314,4222509.007,-76.5 
507924.314,4222459.007,-75.807 
507924.314,4222409.007,-74.925 
507924.314,4222359.007,-74.207 
507924.314,4222309.007,-73.702 
507924.314,4222259.007,-73.03 
507924.314,4222209.007,-72.23 
507924.314,4222159.007,-71.11 
507924.314,4222109.007,-70.13 
507924.314,4222059.007,-69.132 
507924.314,4222009.007,-68.111 
507924.314,4221959.007,-66.947 
507924.314,4221909.007,-66.605 
507924.314,4221859.007,-65.802 
507924.314,4221809.007,-64.863 
507924.314,4221759.007,-64.075 
507924.314,4221709.007,-63.243 
507924.314,4221659.007,-62.528 
507924.314,4221609.007,-61.566 
507924.314,4221559.007,-60.547 
507924.314,4221509.007,-59.548 
507924.314,4221459.007,-58.781 
507924.314,4221409.007,-57.981 
507924.314,4221359.007,-57.085 
507924.314,4221309.007,-56.217 
507924.314,4221259.007,-55.406 
507924.314,4221209.007,-54.603 
507924.314,4221159.007,-53.447 
507924.314,4221109.007,-52.734 
507924.314,4221059.007,-52.314 
507924.314,4221009.007,-51.462 
507924.314,4220959.007,-50.614 
507924.314,4220909.007,-49.415 
507924.314,4220859.007,-47.862 
507924.314,4220809.007,-47.937 
507924.314,4220759.007,-46.967 
507924.314,4220709.007,-46.089 
507924.314,4220659.007,-45.131 
507924.314,4220609.007,-44.271 
507924.314,4220559.007,-43.324 
507924.314,4220509.007,-42.321 
507924.314,4220459.007,-41.469 
507924.314,4220409.007,-40.39 
507924.314,4220359.007,-39.578 
507924.314,4220309.007,-38.337 
507924.314,4220259.007,-37.082 
507924.314,4220209.007,-35.909 
507924.314,4220159.007,-34.691 
507974.314,4274209.007,-105.33 
507974.314,4274159.007,-106.744 
507974.314,4274109.007,-108.144 
507974.314,4274059.007,-110.661 
507974.314,4274009.007,-114.994 
507974.314,4273959.007,-121.661 
507974.314,4273909.007,-126.961 
507974.314,4273859.007,-131.404 
507974.314,4273809.007,-135.032 
507974.314,4273759.007,-138.232 
507974.314,4273709.007,-140.934 
507974.314,4273659.007,-143.474 
507974.314,4273609.007,-145.989 
507974.314,4273559.007,-148.287 
507974.314,4273509.007,-150.173 
507974.314,4273459.007,-151.787 
507974.314,4273409.007,-153.297 
507974.314,4273359.007,-154.901 
507974.314,4273309.007,-156.928 
507974.314,4273259.007,-159.932 
507974.314,4273209.007,-162.005 
507974.314,4273159.007,-162.245 
507974.314,4273109.007,-159.088 
507974.314,4273059.007,-156.289 
507974.314,4273009.007,-154.403 
507974.314,4272959.007,-153.019 
507974.314,4272909.007,-152.686 
507974.314,4272859.007,-153.433 
507974.314,4272809.007,-154.753 
507974.314,4272759.007,-154.521 
507974.314,4272709.007,-153.476 
507974.314,4272659.007,-151.245 
507974.314,4272609.007,-149.357 
507974.314,4272559.007,-147.811 
