660343.672,4385294.345,-152.26 
660343.672,4385194.345,-137.4 
660443.672,4405994.345,-299.47 
660443.672,4405894.345,-292.55 
660443.672,4405794.345,-286.5 
660443.672,4405694.345,-279.9 
660443.672,4405594.345,-274.5 
660443.672,4405494.345,-270.47 
660443.672,4405394.345,-267.84 
660443.672,4405294.345,-266.45 
660443.672,4405194.345,-267.98 
660443.672,4405094.345,-268.99 
660443.672,4404994.345,-271 
660443.672,4404894.345,-274.33 
660443.672,4404794.345,-277 
660443.672,4404694.345,-279.96 
660443.672,4404594.345,-282.66 
660443.672,4404494.345,-284.98 
660443.672,4404394.345,-288.09 
660443.672,4404294.345,-290.85 
660443.672,4404194.345,-292.62 
660443.672,4404094.345,-294.45 
660443.672,4403994.345,-296.81 
660443.672,4403894.345,-297.15 
660443.672,4403794.345,-296.61 
660443.672,4403694.345,-296.05 
660443.672,4403594.345,-294.18 
660443.672,4403494.345,-292.34 
660443.672,4403394.345,-289.41 
660443.672,4403294.345,-285.02 
660443.672,4403194.345,-281.22 
660443.672,4403094.345,-277.42 
660443.672,4402994.345,-273.18 
660443.672,4402894.345,-268.91 
660443.672,4402794.345,-264.88 
660443.672,4402694.345,-260.92 
660443.672,4402594.345,-257.56 
660443.672,4402494.345,-253.86 
660443.672,4402394.345,-248.19 
660443.672,4402294.345,-242.38 
660443.672,4402194.345,-239.35 
660443.672,4402094.345,-235.46 
660443.672,4401994.345,-230.76 
660443.672,4401894.345,-226.36 
660443.672,4401794.345,-222.92 
660443.672,4401694.345,-221.82 
660443.672,4401594.345,-225.16 
660443.672,4401494.345,-232.67 
660443.672,4401394.345,-241.5 
660443.672,4401294.345,-255.09 
660443.672,4401194.345,-266.41 
660443.672,4401094.345,-269.16 
660443.672,4400994.345,-269.34 
660443.672,4400894.345,-273.53 
660443.672,4400794.345,-277.95 
660443.672,4400694.345,-281.54 
660443.672,4400594.345,-284.09 
660443.672,4400494.345,-285.49 
660443.672,4400394.345,-287.22 
660443.672,4400294.345,-287.21 
660443.672,4400194.345,-286.78 
660443.672,4400094.345,-287.21 
660443.672,4399994.345,-286.83 
660443.672,4399894.345,-286.47 
660443.672,4399794.345,-286.97 
660443.672,4399694.345,-286.47 
660443.672,4399594.345,-287.41 
660443.672,4399494.345,-285.4 
660443.672,4399394.345,-279.65 
660443.672,4399294.345,-275.79 
660443.672,4399194.345,-273.56 
660443.672,4399094.345,-275.57 
660443.672,4398994.345,-278.02 
660443.672,4398894.345,-280.61 
660443.672,4398794.345,-281.78 
660443.672,4398694.345,-282.65 
660443.672,4398594.345,-283.57 
660443.672,4398494.345,-284.89 
660443.672,4398394.345,-285.59 
660443.672,4398294.345,-286.3 
660443.672,4398194.345,-286.81 
660443.672,4398094.345,-288.62 
660443.672,4397994.345,-290.84 
660443.672,4397894.345,-293.95 
660443.672,4397794.345,-297.17 
660443.672,4397694.345,-300.62 
660443.672,4397594.345,-305.94 
660443.672,4397494.345,-309.3 
660443.672,4397394.345,-314.02 
660443.672,4397294.345,-320.53 
660443.672,4397194.345,-329.72 
660443.672,4397094.345,-340.53 
660443.672,4396994.345,-356.67 
660443.672,4396894.345,-371.26 
660443.672,4396794.345,-388.1 
660443.672,4396694.345,-402.44 
660443.672,4396594.345,-409.79 
660443.672,4396494.345,-420.54 
660443.672,4396394.345,-430.09 
660443.672,4396294.345,-439.76 
660443.672,4396194.345,-452.51 
660443.672,4396094.345,-460.5 
660443.672,4395994.345,-463.17 
660443.672,4395894.345,-473.32 
660443.672,4395794.345,-487.81 
660443.672,4395694.345,-498.51 
660443.672,4395594.345,-502.48 
660443.672,4395494.345,-505.9 
660443.672,4395394.345,-511.66 
660443.672,4395294.345,-515.87 
660443.672,4395194.345,-522.24 
660443.672,4395094.345,-525.69 
660443.672,4394994.345,-529.97 
660443.672,4394894.345,-534.11 
660443.672,4394794.345,-535.52 
660443.672,4394694.345,-541.71 
660443.672,4394594.345,-547.38 
660443.672,4394494.345,-552.44 
660443.672,4394394.345,-555.48 
660443.672,4394294.345,-553.81 
660443.672,4394194.345,-555.81 
660443.672,4394094.345,-558.47 
660443.672,4393994.345,-560.9 
660443.672,4393894.345,-563.76 
660443.672,4393794.345,-567.15 
660443.672,4393694.345,-568.78 
660443.672,4393594.345,-570.94 
660443.672,4393494.345,-574.34 
660443.672,4393394.345,-577.25 
660443.672,4393294.345,-581.71 
660443.672,4393194.345,-586.39 
660443.672,4393094.345,-591.39 
660443.672,4392994.345,-593.55 
660443.672,4392894.345,-596.91 
660443.672,4392794.345,-601.97 
660443.672,4392694.345,-608.37 
660443.672,4392594.345,-615 
660443.672,4390394.345,-614.88 
660443.672,4390294.345,-611.3 
660443.672,4390194.345,-607.57 
660443.672,4390094.345,-604.36 
660443.672,4389994.345,-601.14 
660443.672,4389894.345,-596.54 
660443.672,4389794.345,-591.03 
660443.672,4389694.345,-588.65 
660443.672,4389594.345,-584.54 
660443.672,4389494.345,-581.59 
660443.672,4389394.345,-579.13 
660443.672,4389294.345,-576.29 
660443.672,4389194.345,-573.36 
660443.672,4389094.345,-569.07 
660443.672,4388994.345,-563.89 
660443.672,4388894.345,-560.97 
660443.672,4388794.345,-557.93 
660443.672,4388694.345,-554.86 
660443.672,4388594.345,-552.54 
660443.672,4388494.345,-551.18 
660443.672,4388394.345,-547.26 
660443.672,4388294.345,-540.9 
660443.672,4388194.345,-533.37 
660443.672,4388094.345,-526.39 
660443.672,4387994.345,-515.85 
660443.672,4387894.345,-507.04 
660443.672,4387794.345,-501.57 
660443.672,4387694.345,-496.88 
660443.672,4387594.345,-494.14 
660443.672,4387494.345,-490.81 
660443.672,4387394.345,-485.22 
660443.672,4387294.345,-478.01 
660443.672,4387194.345,-471.18 
660443.672,4387094.345,-462.15 
660443.672,4386994.345,-450.59 
660443.672,4386894.345,-430.29 
660443.672,4386794.345,-408.98 
660443.672,4386694.345,-398.26 
660443.672,4386594.345,-387.29 
660443.672,4386494.345,-378.17 
660443.672,4386394.345,-387.56 
660443.672,4386294.345,-390.93 
660443.672,4386194.345,-381.19 
660443.672,4386094.345,-342.34 
660443.672,4385994.345,-310.24 
660443.672,4385894.345,-294.02 
660443.672,4385794.345,-284.17 
660443.672,4385694.345,-262.52 
660443.672,4385594.345,-225.09 
660443.672,4385494.345,-197.12 
660443.672,4385394.345,-189.54 
660443.672,4385294.345,-159.9 
660443.672,4385194.345,-141.51 
660543.672,4405994.345,-313.08 
660543.672,4405894.345,-304.91 
660543.672,4405794.345,-297.86 
660543.672,4405694.345,-294.41 
660543.672,4405594.345,-286.63 
660543.672,4405494.345,-280.28 
660543.672,4405394.345,-275.56 
660543.672,4405294.345,-273.78 
660543.672,4405194.345,-272.96 
660543.672,4405094.345,-275.53 
660543.672,4404994.345,-278.27 
660543.672,4404894.345,-281.27 
660543.672,4404794.345,-283.39 
660543.672,4404694.345,-285.92 
660543.672,4404594.345,-287.36 
660543.672,4404494.345,-289.48 
660543.672,4404394.345,-291.92 
660543.672,4404294.345,-295.08 
660543.672,4404194.345,-298.02 
660543.672,4404094.345,-299.35 
660543.672,4403994.345,-299.68 
660543.672,4403894.345,-301.81 
660543.672,4403794.345,-300.95 
660543.672,4403694.345,-299.88 
660543.672,4403594.345,-297.71 
660543.672,4403494.345,-295.01 
660543.672,4403394.345,-291.92 
660543.672,4403294.345,-287.91 
660543.672,4403194.345,-283.22 
660543.672,4403094.345,-279.58 
660543.672,4402994.345,-274.95 
660543.672,4402894.345,-270.58 
660543.672,4402794.345,-265.89 
660543.672,4402694.345,-261.82 
660543.672,4402594.345,-259.46 
660543.672,4402494.345,-254.78 
660543.672,4402394.345,-250.1 
660543.672,4402294.345,-244.42 
660543.672,4402194.345,-239.13 
660543.672,4402094.345,-234.92 
660543.672,4401994.345,-230.43 
660543.672,4401894.345,-226.35 
660543.672,4401794.345,-222.62 
660543.672,4401694.345,-221.02 
660543.672,4401594.345,-224.38 
660543.672,4401494.345,-231.22 
660543.672,4401394.345,-240.52 
660543.672,4401294.345,-254.93 
660543.672,4401194.345,-268.92 
660543.672,4401094.345,-273.11 
660543.672,4400994.345,-272.77 
660543.672,4400894.345,-273.99 
660543.672,4400794.345,-280.46 
660543.672,4400694.345,-282.59 
660543.672,4400594.345,-284 
660543.672,4400494.345,-286.48 
660543.672,4400394.345,-288.01 
660543.672,4400294.345,-288.95 
660543.672,4400194.345,-289.88 
660543.672,4400094.345,-290.25 
660543.672,4399994.345,-290.22 
660543.672,4399894.345,-288.97 
660543.672,4399794.345,-288.52 
660543.672,4399694.345,-290.27 
660543.672,4399594.345,-287.89 
660543.672,4399494.345,-292.51 
660543.672,4399394.345,-286.17 
660543.672,4399294.345,-279.57 
660543.672,4399194.345,-276.88 
660543.672,4399094.345,-279.46 
660543.672,4398994.345,-281.2 
660543.672,4398894.345,-283.69 
660543.672,4398794.345,-286.07 
660543.672,4398694.345,-286.78 
660543.672,4398594.345,-287.44 
660543.672,4398494.345,-288.48 
660543.672,4398394.345,-288.73 
660543.672,4398294.345,-288.79 
660543.672,4398194.345,-289.83 
660543.672,4398094.345,-291 
660543.672,4397994.345,-293.33 
660543.672,4397894.345,-295.97 
660543.672,4397794.345,-298.6 
660543.672,4397694.345,-302.69 
660543.672,4397594.345,-306.08 
660543.672,4397494.345,-312.27 
660543.672,4397394.345,-317.49 
660543.672,4397294.345,-322.73 
660543.672,4397194.345,-329.42 
660543.672,4397094.345,-333.76 
660543.672,4396994.345,-343.43 
660543.672,4396894.345,-355.53 
660543.672,4396794.345,-386.15 
660543.672,4396694.345,-395.49 
660543.672,4396594.345,-407.07 
660543.672,4396494.345,-415.43 
660543.672,4396394.345,-425.97 
660543.672,4396294.345,-436.17 
660543.672,4396194.345,-448.43 
660543.672,4396094.345,-456.57 
660543.672,4395994.345,-463.99 
660543.672,4395894.345,-475.21 
660543.672,4395794.345,-484.94 
660543.672,4395694.345,-490.29 
660543.672,4395594.345,-495.19 
660543.672,4395494.345,-502.43 
660543.672,4395394.345,-509.8 
660543.672,4395294.345,-516.78 
660543.672,4395194.345,-520.28 
660543.672,4395094.345,-523.29 
660543.672,4394994.345,-527.1 
660543.672,4394894.345,-531.29 
660543.672,4394794.345,-536.24 
660543.672,4394694.345,-540.33 
660543.672,4394594.345,-541.24 
660543.672,4394494.345,-548.71 
660543.672,4394394.345,-551.84 
660543.672,4394294.345,-555 
660543.672,4394194.345,-554.98 
660543.672,4394094.345,-555.07 
660543.672,4393994.345,-557.24 
660543.672,4393894.345,-560.11 
660543.672,4393794.345,-563.3 
660543.672,4393694.345,-566.45 
660543.672,4393594.345,-569.08 
660543.672,4393494.345,-572.33 
660543.672,4393394.345,-574.87 
660543.672,4393294.345,-580.26 
660543.672,4393194.345,-583.98 
660543.672,4393094.345,-587.14 
660543.672,4392994.345,-590.85 
660543.672,4392894.345,-592.2 
660543.672,4392794.345,-595.28 
660543.672,4392694.345,-600.03 
660543.672,4392594.345,-606.92 
660543.672,4392494.345,-614.56 
660543.672,4390394.345,-617.39 
660543.672,4390294.345,-613.99 
660543.672,4390194.345,-611.38 
660543.672,4390094.345,-608.41 
660543.672,4389994.345,-602.81 
660543.672,4389894.345,-599.16 
660543.672,4389794.345,-595.14 
660543.672,4389694.345,-591.5 
660543.672,4389594.345,-588.3 
660543.672,4389494.345,-585.71 
660543.672,4389394.345,-582.57 
660543.672,4389294.345,-580.48 
660543.672,4389194.345,-575.73 
660543.672,4389094.345,-572.59 
660543.672,4388994.345,-569.49 
660543.672,4388894.345,-565.7 
660543.672,4388794.345,-563.92 
660543.672,4388694.345,-561.41 
660543.672,4388594.345,-559.13 
660543.672,4388494.345,-554.32 
660543.672,4388394.345,-544.34 
660543.672,4388294.345,-538 
660543.672,4388194.345,-532.18 
660543.672,4388094.345,-526.77 
660543.672,4387994.345,-518.66 
660543.672,4387894.345,-511.02 
660543.672,4387794.345,-508.68 
660543.672,4387694.345,-504.53 
660543.672,4387594.345,-498.9 
660543.672,4387494.345,-492.9 
660543.672,4387394.345,-487.45 
660543.672,4387294.345,-480.68 
660543.672,4387194.345,-473.47 
660543.672,4387094.345,-464.1 
660543.672,4386994.345,-451.44 
660543.672,4386894.345,-436.96 
660543.672,4386794.345,-423.28 
660543.672,4386694.345,-408.77 
660543.672,4386594.345,-407.66 
660543.672,4386494.345,-407.39 
660543.672,4386394.345,-408.95 
660543.672,4386294.345,-405.2 
660543.672,4386194.345,-382.04 
660543.672,4386094.345,-355.58 
660543.672,4385994.345,-344.81 
660543.672,4385894.345,-313.48 
660543.672,4385794.345,-275.76 
660543.672,4385694.345,-254.23 
660543.672,4385594.345,-233.12 
660543.672,4385494.345,-208.37 
660543.672,4385394.345,-190.34 
660543.672,4385294.345,-173.33 
660543.672,4385194.345,-144 
660643.672,4405994.345,-323.25 
660643.672,4405894.345,-314.19 
660643.672,4405794.345,-311.02 
660643.672,4405694.345,-305.47 
660643.672,4405594.345,-301.6 
660643.672,4405494.345,-294.77 
660643.672,4405394.345,-287.57 
660643.672,4405294.345,-284.53 
660643.672,4405194.345,-284.24 
660643.672,4405094.345,-285.3 
660643.672,4404994.345,-288.26 
660643.672,4404894.345,-290.39 
660643.672,4404794.345,-291.42 
660643.672,4404694.345,-292.02 
660643.672,4404594.345,-293.61 
660643.672,4404494.345,-295.09 
660643.672,4404394.345,-297.92 
660643.672,4404294.345,-300.35 
660643.672,4404194.345,-303.08 
660643.672,4404094.345,-304.94 
660643.672,4403994.345,-304.34 
660643.672,4403894.345,-305.04 
660643.672,4403794.345,-305.78 
660643.672,4403694.345,-303.64 
660643.672,4403594.345,-301.41 
660643.672,4403494.345,-297.94 
660643.672,4403394.345,-294.38 
660643.672,4403294.345,-290.18 
660643.672,4403194.345,-285.91 
660643.672,4403094.345,-280.48 
660643.672,4402994.345,-275.92 
660643.672,4402894.345,-271.45 
660643.672,4402794.345,-267.35 
660643.672,4402694.345,-263.58 
660643.672,4402594.345,-258.92 
660643.672,4402494.345,-255.09 
660643.672,4402394.345,-250.43 
660643.672,4402294.345,-244.93 
660643.672,4402194.345,-239.05 
660643.672,4402094.345,-234.72 
660643.672,4401994.345,-230.23 
660643.672,4401894.345,-225.66 
660643.672,4401794.345,-222.36 
660643.672,4401694.345,-220.81 
660643.672,4401594.345,-223.58 
660643.672,4401494.345,-231.45 
660643.672,4401394.345,-243.52 
660643.672,4401294.345,-256.79 
660643.672,4401194.345,-272.37 
660643.672,4401094.345,-278.36 
660643.672,4400994.345,-276.9 
660643.672,4400894.345,-278.75 
660643.672,4400794.345,-281.24 
660643.672,4400694.345,-285.99 
660643.672,4400594.345,-285.11 
660643.672,4400494.345,-287.06 
660643.672,4400394.345,-287.78 
660643.672,4400294.345,-290.16 
660643.672,4400194.345,-292.24 
660643.672,4400094.345,-293.64 
660643.672,4399994.345,-293.46 
660643.672,4399894.345,-291.81 
660643.672,4399794.345,-292.6 
660643.672,4399694.345,-293.1 
660643.672,4399594.345,-293.9 
660643.672,4399494.345,-292.81 
660643.672,4399394.345,-289.02 
660643.672,4399294.345,-285.63 
660643.672,4399194.345,-281.65 
660643.672,4399094.345,-282.02 
660643.672,4398994.345,-284 
660643.672,4398894.345,-286.27 
660643.672,4398794.345,-289.09 
660643.672,4398694.345,-290.21 
660643.672,4398594.345,-290.88 
660643.672,4398494.345,-292.19 
660643.672,4398394.345,-291.92 
660643.672,4398294.345,-292.84 
660643.672,4398194.345,-293.31 
660643.672,4398094.345,-293.78 
660643.672,4397994.345,-296.26 
660643.672,4397894.345,-298.75 
660643.672,4397794.345,-301.14 
660643.672,4397694.345,-304.2 
660643.672,4397594.345,-307.16 
660643.672,4397494.345,-312.71 
660643.672,4397394.345,-318 
660643.672,4397294.345,-326.29 
660643.672,4397194.345,-331.32 
660643.672,4397094.345,-333.73 
660643.672,4396994.345,-340.55 
660643.672,4396894.345,-353.32 
660643.672,4396794.345,-379.56 
660643.672,4396694.345,-394.42 
660643.672,4396594.345,-402.52 
660643.672,4396494.345,-413.27 
660643.672,4396394.345,-422.73 
660643.672,4396294.345,-432.71 
660643.672,4396194.345,-443.36 
660643.672,4396094.345,-452.65 
660643.672,4395994.345,-458.27 
660643.672,4395894.345,-457.36 
660643.672,4395794.345,-467.28 
660643.672,4395694.345,-475.26 
660643.672,4395594.345,-485.81 
660643.672,4395494.345,-497.36 
660643.672,4395394.345,-506.65 
660643.672,4395294.345,-513.59 
660643.672,4395194.345,-518.17 
660643.672,4395094.345,-521.35 
660643.672,4394994.345,-524.59 
660643.672,4394894.345,-528.06 
660643.672,4394794.345,-530.84 
660643.672,4394694.345,-535.32 
660643.672,4394594.345,-535.96 
660643.672,4394494.345,-539.27 
660643.672,4394394.345,-546.6 
660643.672,4394294.345,-553.58 
660643.672,4394194.345,-555.43 
660643.672,4394094.345,-552.36 
660643.672,4393994.345,-553.52 
660643.672,4393894.345,-556.99 
660643.672,4393794.345,-560.6 
660643.672,4393694.345,-564.44 
660643.672,4393594.345,-567.26 
660643.672,4393494.345,-570.35 
660643.672,4393394.345,-573.91 
660643.672,4393294.345,-577.3 
660643.672,4393194.345,-580.91 
660643.672,4393094.345,-584.18 
660643.672,4392994.345,-586.84 
660643.672,4392894.345,-588.86 
660643.672,4392794.345,-590.17 
660643.672,4392694.345,-593.43 
660643.672,4392594.345,-597.89 
660643.672,4392494.345,-603.95 
660643.672,4392394.345,-613.11 
660643.672,4390294.345,-617.09 
660643.672,4390194.345,-613.82 
660643.672,4390094.345,-610.48 
660643.672,4389994.345,-605.65 
660643.672,4389894.345,-602.83 
660643.672,4389794.345,-599.09 
660643.672,4389694.345,-596.16 
660643.672,4389594.345,-593.58 
660643.672,4389494.345,-591.91 
660643.672,4389394.345,-587.41 
660643.672,4389294.345,-582.37 
660643.672,4389194.345,-579.65 
660643.672,4389094.345,-577.48 
660643.672,4388994.345,-576.01 
660643.672,4388894.345,-572.9 
660643.672,4388794.345,-569.68 
660643.672,4388694.345,-564.81 
660643.672,4388594.345,-559.75 
660643.672,4388494.345,-552.93 
660643.672,4388394.345,-544.34 
660643.672,4388294.345,-537.81 
660643.672,4388194.345,-532.15 
660643.672,4388094.345,-527.62 
660643.672,4387994.345,-523.56 
660643.672,4387894.345,-516.49 
660643.672,4387794.345,-512.25 
660643.672,4387694.345,-507.51 
660643.672,4387594.345,-500.81 
660643.672,4387494.345,-495.37 
660643.672,4387394.345,-489.25 
660643.672,4387294.345,-484.25 
660643.672,4387194.345,-477.68 
660643.672,4387094.345,-468.82 
660643.672,4386994.345,-455.88 
660643.672,4386894.345,-443.26 
660643.672,4386794.345,-437.07 
660643.672,4386694.345,-443.62 
660643.672,4386594.345,-448.19 
660643.672,4386494.345,-439.22 
660643.672,4386394.345,-427.29 
660643.672,4386294.345,-406 
660643.672,4386194.345,-381.06 
660643.672,4386094.345,-354.49 
660643.672,4385994.345,-325.05 
660643.672,4385894.345,-301.21 
660643.672,4385794.345,-274.7 
660643.672,4385694.345,-252.1 
660643.672,4385594.345,-229.74 
660643.672,4385494.345,-215.04 
660643.672,4385394.345,-200.39 
660643.672,4385294.345,-180.49 
660643.672,4385194.345,-168.05 
660643.672,4385094.345,-148.35 
660743.672,4405994.345,-327.61 
660743.672,4405894.345,-321.11 
660743.672,4405794.345,-318.75 
660743.672,4405694.345,-317.01 
660743.672,4405594.345,-312.44 
660743.672,4405494.345,-306.93 
660743.672,4405394.345,-301.04 
660743.672,4405294.345,-299.68 
660743.672,4405194.345,-299.35 
660743.672,4405094.345,-300.56 
660743.672,4404994.345,-300.82 
660743.672,4404894.345,-300.58 
660743.672,4404794.345,-300.01 
660743.672,4404694.345,-299.85 
660743.672,4404594.345,-300.15 
660743.672,4404494.345,-302.02 
660743.672,4404394.345,-304.25 
660743.672,4404294.345,-306.78 
660743.672,4404194.345,-307.47 
660743.672,4404094.345,-308.81 
660743.672,4403994.345,-309 
660743.672,4403894.345,-308.24 
660743.672,4403794.345,-309.4 
660743.672,4403694.345,-307.37 
660743.672,4403594.345,-304.54 
660743.672,4403494.345,-300.41 
660743.672,4403394.345,-296.17 
660743.672,4403294.345,-291.78 
660743.672,4403194.345,-287.35 
660743.672,4403094.345,-281.68 
660743.672,4402994.345,-276.88 
660743.672,4402894.345,-272.34 
660743.672,4402794.345,-267.91 
660743.672,4402694.345,-262.75 
660743.672,4402594.345,-258.65 
660743.672,4402494.345,-255.55 
660743.672,4402394.345,-251.06 
660743.672,4402294.345,-245.7 
660743.672,4402194.345,-239.18 
660743.672,4402094.345,-234.73 
660743.672,4401994.345,-229.63 
660743.672,4401894.345,-224.73 
660743.672,4401794.345,-221.51 
660743.672,4401694.345,-220.43 
660743.672,4401594.345,-223.03 
660743.672,4401494.345,-229.16 
660743.672,4401394.345,-246.12 
660743.672,4401294.345,-261.03 
660743.672,4401194.345,-274.96 
660743.672,4401094.345,-280.96 
660743.672,4400994.345,-280.57 
660743.672,4400894.345,-281.59 
660743.672,4400794.345,-282.48 
660743.672,4400694.345,-287.09 
660743.672,4400594.345,-287.93 
660743.672,4400494.345,-288.44 
660743.672,4400394.345,-289.14 
660743.672,4400294.345,-290.53 
660743.672,4400194.345,-292.42 
660743.672,4400094.345,-294.12 
660743.672,4399994.345,-294.43 
660743.672,4399894.345,-294.1 
660743.672,4399794.345,-294.33 
660743.672,4399694.345,-295.8 
660743.672,4399594.345,-295.36 
660743.672,4399494.345,-293.94 
660743.672,4399394.345,-296.26 
660743.672,4399294.345,-290.82 
660743.672,4399194.345,-285.82 
660743.672,4399094.345,-284.61 
660743.672,4398994.345,-287.22 
660743.672,4398894.345,-289.87 
660743.672,4398794.345,-291.57 
660743.672,4398694.345,-293.45 
660743.672,4398594.345,-294.2 
660743.672,4398494.345,-295.37 
660743.672,4398394.345,-295.99 
660743.672,4398294.345,-296.17 
660743.672,4398194.345,-296.47 
660743.672,4398094.345,-297.98 
660743.672,4397994.345,-299.3 
660743.672,4397894.345,-300.81 
660743.672,4397794.345,-302.24 
660743.672,4397694.345,-304.66 
660743.672,4397594.345,-309.27 
660743.672,4397494.345,-314.07 
660743.672,4397394.345,-321.15 
660743.672,4397294.345,-326.91 
660743.672,4397194.345,-332.29 
660743.672,4397094.345,-335.21 
660743.672,4396994.345,-340.12 
660743.672,4396894.345,-345.83 
660743.672,4396794.345,-368.65 
660743.672,4396694.345,-390.3 
660743.672,4396594.345,-399.16 
660743.672,4396494.345,-409.34 
660743.672,4396394.345,-418.85 
660743.672,4396294.345,-426.99 
660743.672,4396194.345,-433.82 
660743.672,4396094.345,-437.07 
660743.672,4395994.345,-438.57 
660743.672,4395894.345,-448 
660743.672,4395794.345,-464.21 
660743.672,4395694.345,-478.03 
660743.672,4395594.345,-486.47 
660743.672,4395494.345,-495.37 
660743.672,4395394.345,-503.28 
660743.672,4395294.345,-510.56 
660743.672,4395194.345,-515.66 
660743.672,4395094.345,-518.05 
660743.672,4394994.345,-521.32 
660743.672,4394894.345,-523.48 
660743.672,4394794.345,-525.71 
660743.672,4394694.345,-526.57 
660743.672,4394594.345,-524.76 
660743.672,4394494.345,-531.77 
660743.672,4394394.345,-535.04 
660743.672,4394294.345,-546.96 
660743.672,4394194.345,-549.98 
660743.672,4394094.345,-550.03 
660743.672,4393994.345,-551.91 
660743.672,4393894.345,-553.36 
660743.672,4393794.345,-557.35 
660743.672,4393694.345,-561.89 
660743.672,4393594.345,-565.29 
660743.672,4393494.345,-568.28 
660743.672,4393394.345,-572.5 
660743.672,4393294.345,-575.73 
660743.672,4393194.345,-578.1 
660743.672,4393094.345,-580.59 
660743.672,4392994.345,-582.94 
660743.672,4392894.345,-583.35 
660743.672,4392794.345,-585.81 
660743.672,4392694.345,-588.48 
660743.672,4392594.345,-589.97 
660743.672,4392494.345,-595.42 
660743.672,4392394.345,-601.12 
660743.672,4392294.345,-609.46 
660743.672,4390194.345,-616.94 
660743.672,4390094.345,-611.13 
660743.672,4389994.345,-608.06 
660743.672,4389894.345,-605.87 
660743.672,4389794.345,-603.4 
660743.672,4389694.345,-601.71 
660743.672,4389594.345,-600.04 
660743.672,4389494.345,-595.7 
660743.672,4389394.345,-592.39 
660743.672,4389294.345,-589.06 
660743.672,4389194.345,-588.44 
660743.672,4389094.345,-585.18 
660743.672,4388994.345,-582.5 
660743.672,4388894.345,-579.71 
660743.672,4388794.345,-571.62 
660743.672,4388694.345,-564.87 
660743.672,4388594.345,-557.89 
660743.672,4388494.345,-551.85 
660743.672,4388394.345,-542.83 
660743.672,4388294.345,-537.76 
660743.672,4388194.345,-533.5 
660743.672,4388094.345,-530.63 
660743.672,4387994.345,-526.81 
660743.672,4387894.345,-522.17 
660743.672,4387794.345,-515.44 
660743.672,4387694.345,-508.92 
660743.672,4387594.345,-503.1 
660743.672,4387494.345,-497.71 
660743.672,4387394.345,-492.31 
660743.672,4387294.345,-486.47 
660743.672,4387194.345,-480.97 
660743.672,4387094.345,-470.88 
660743.672,4386994.345,-460.99 
660743.672,4386894.345,-457.53 
660743.672,4386794.345,-464.24 
660743.672,4386694.345,-463.79 
660743.672,4386594.345,-459.32 
660743.672,4386494.345,-444.32 
660743.672,4386394.345,-409.03 
660743.672,4386294.345,-386.55 
660743.672,4386194.345,-363.34 
660743.672,4386094.345,-338.75 
660743.672,4385994.345,-325.76 
660743.672,4385894.345,-304.57 
660743.672,4385794.345,-282.98 
660743.672,4385694.345,-264.03 
660743.672,4385594.345,-252.82 
660743.672,4385494.345,-237.32 
660743.672,4385394.345,-211.32 
660743.672,4385294.345,-205.54 
660743.672,4385194.345,-193.56 
660743.672,4385094.345,-175.57 
660743.672,4384994.345,-145.5 
660743.672,4384894.345,-140.2 
660843.672,4405994.345,-326.3 
660843.672,4405894.345,-322.73 
660843.672,4405794.345,-321.12 
660843.672,4405694.345,-319.05 
660843.672,4405594.345,-317.47 
660843.672,4405494.345,-316.41 
660843.672,4405394.345,-313.8 
660843.672,4405294.345,-312.23 
660843.672,4405194.345,-310.61 
660843.672,4405094.345,-311.51 
660843.672,4404994.345,-312.17 
660843.672,4404894.345,-310.8 
660843.672,4404794.345,-309.48 
660843.672,4404694.345,-309.01 
660843.672,4404594.345,-308.78 
660843.672,4404494.345,-309.51 
660843.672,4404394.345,-311.57 
660843.672,4404294.345,-312.67 
660843.672,4404194.345,-312.97 
660843.672,4404094.345,-311.5 
660843.672,4403994.345,-311.8 
660843.672,4403894.345,-312.4 
660843.672,4403794.345,-312.37 
660843.672,4403694.345,-311.1 
660843.672,4403594.345,-307.04 
660843.672,4403494.345,-302.84 
660843.672,4403394.345,-297.58 
660843.672,4403294.345,-292.38 
660843.672,4403194.345,-287.21 
660843.672,4403094.345,-282.42 
660843.672,4402994.345,-276.95 
660843.672,4402894.345,-271.59 
660843.672,4402794.345,-267.11 
660843.672,4402694.345,-261.92 
660843.672,4402594.345,-256.12 
660843.672,4402494.345,-252.66 
660843.672,4402394.345,-249.37 
660843.672,4402294.345,-245.44 
660843.672,4402194.345,-240.23 
660843.672,4402094.345,-233.96 
660843.672,4401994.345,-228.67 
660843.672,4401894.345,-223.93 
660843.672,4401794.345,-220.93 
660843.672,4401694.345,-220.49 
660843.672,4401594.345,-223.43 
660843.672,4401494.345,-231.39 
660843.672,4401394.345,-245.47 
660843.672,4401294.345,-263.71 
660843.672,4401194.345,-277.75 
660843.672,4401094.345,-281.67 
660843.672,4400994.345,-282.36 
660843.672,4400894.345,-281.9 
660843.672,4400794.345,-282.87 
660843.672,4400694.345,-287.16 
660843.672,4400594.345,-289.95 
660843.672,4400494.345,-289.86 
660843.672,4400394.345,-290.47 
660843.672,4400294.345,-291.25 
660843.672,4400194.345,-292.65 
660843.672,4400094.345,-293.9 
660843.672,4399994.345,-294.15 
660843.672,4399894.345,-294.97 
660843.672,4399794.345,-295.49 
660843.672,4399694.345,-296.73 
660843.672,4399594.345,-297.45 
660843.672,4399494.345,-295.86 
660843.672,4399394.345,-300.77 
660843.672,4399294.345,-296.05 
660843.672,4399194.345,-292.98 
660843.672,4399094.345,-291.16 
660843.672,4398994.345,-291.49 
660843.672,4398894.345,-292.52 
660843.672,4398794.345,-293.83 
660843.672,4398694.345,-296.5 
660843.672,4398594.345,-298.27 
660843.672,4398494.345,-298.8 
660843.672,4398394.345,-299.33 
660843.672,4398294.345,-299.88 
660843.672,4398194.345,-300.6 
660843.672,4398094.345,-301.39 
660843.672,4397994.345,-301.46 
660843.672,4397894.345,-302.23 
660843.672,4397794.345,-303.09 
660843.672,4397694.345,-304.92 
660843.672,4397594.345,-308.95 
660843.672,4397494.345,-313.76 
660843.672,4397394.345,-321.08 
660843.672,4397294.345,-328.58 
660843.672,4397194.345,-331.92 
660843.672,4397094.345,-336.1 
660843.672,4396994.345,-342.6 
660843.672,4396894.345,-345.97 
660843.672,4396794.345,-355.09 
660843.672,4396694.345,-372.41 
660843.672,4396594.345,-390.16 
660843.672,4396494.345,-398.69 
660843.672,4396394.345,-401.8 
660843.672,4396294.345,-407.33 
660843.672,4396194.345,-415 
660843.672,4396094.345,-426.24 
660843.672,4395994.345,-435.91 
660843.672,4395894.345,-454.56 
660843.672,4395794.345,-470.23 
660843.672,4395694.345,-479.2 
660843.672,4395594.345,-486.67 
660843.672,4395494.345,-492.79 
660843.672,4395394.345,-499.83 
660843.672,4395294.345,-507.03 
660843.672,4395194.345,-512.77 
660843.672,4395094.345,-516.02 
660843.672,4394994.345,-517.98 
660843.672,4394894.345,-518.9 
660843.672,4394794.345,-517.73 
660843.672,4394694.345,-516.38 
660843.672,4394594.345,-515.89 
660843.672,4394494.345,-525.13 
660843.672,4394394.345,-525.9 
660843.672,4394294.345,-535.65 
660843.672,4394194.345,-541.97 
660843.672,4394094.345,-545.91 
660843.672,4393994.345,-550.97 
660843.672,4393894.345,-551.99 
660843.672,4393794.345,-555.1 
660843.672,4393694.345,-559.32 
660843.672,4393594.345,-563.79 
660843.672,4393494.345,-567.02 
660843.672,4393394.345,-569.99 
660843.672,4393294.345,-573.28 
660843.672,4393194.345,-576.12 
660843.672,4393094.345,-577.53 
660843.672,4392994.345,-578.66 
660843.672,4392894.345,-579.02 
660843.672,4392794.345,-581.12 
660843.672,4392694.345,-583.77 
660843.672,4392594.345,-585.47 
660843.672,4392494.345,-587.44 
660843.672,4392394.345,-590.39 
660843.672,4392294.345,-596.52 
660843.672,4392194.345,-607.62 
660843.672,4392094.345,-618.66 
660843.672,4390094.345,-613.51 
660843.672,4389994.345,-609.09 
660843.672,4389894.345,-609 
660843.672,4389794.345,-607.11 
660843.672,4389694.345,-605.49 
660843.672,4389594.345,-602.71 
660843.672,4389494.345,-601.37 
660843.672,4389394.345,-599.98 
660843.672,4389294.345,-597.38 
660843.672,4389194.345,-595.74 
660843.672,4389094.345,-591.93 
660843.672,4388994.345,-585.45 
660843.672,4388894.345,-582.24 
660843.672,4388794.345,-573.02 
660843.672,4388694.345,-565.7 
660843.672,4388594.345,-557.45 
660843.672,4388494.345,-551.56 
660843.672,4388394.345,-545.18 
660843.672,4388294.345,-540.52 
660843.672,4388194.345,-537.13 
660843.672,4388094.345,-533.02 
660843.672,4387994.345,-529 
660843.672,4387894.345,-522.68 
660843.672,4387794.345,-514.76 
660843.672,4387694.345,-510.86 
660843.672,4387594.345,-506.84 
660843.672,4387494.345,-501.19 
660843.672,4387394.345,-495.69 
660843.672,4387294.345,-490.15 
660843.672,4387194.345,-481.82 
660843.672,4387094.345,-476.76 
660843.672,4386994.345,-477.61 
660843.672,4386894.345,-478.15 
660843.672,4386794.345,-473.64 
660843.672,4386694.345,-468.12 
660843.672,4386594.345,-459.1 
660843.672,4386494.345,-432.76 
660843.672,4386394.345,-405.81 
660843.672,4386294.345,-397.52 
660843.672,4386194.345,-381.86 
660843.672,4386094.345,-351.02 
660843.672,4385994.345,-330.66 
660843.672,4385894.345,-313.99 
660843.672,4385794.345,-292.72 
660843.672,4385694.345,-277.46 
660843.672,4385594.345,-265.32 
660843.672,4385494.345,-246.34 
660843.672,4385394.345,-235.15 
660843.672,4385294.345,-227.21 
660843.672,4385194.345,-218.34 
660843.672,4385094.345,-185.56 
660843.672,4384994.345,-172.01 
660843.672,4384894.345,-158.94 
660843.672,4384794.345,-140.79 
660843.672,4384694.345,-141.41 
660843.672,4384594.345,-148.27 
660843.672,4384494.345,-142.63 
660943.672,4405994.345,-327.45 
660943.672,4405894.345,-324.97 
660943.672,4405794.345,-321.54 
660943.672,4405694.345,-317.91 
660943.672,4405594.345,-317.41 
660943.672,4405494.345,-317.4 
660943.672,4405394.345,-317.84 
660943.672,4405294.345,-318.98 
660943.672,4405194.345,-318.74 
660943.672,4405094.345,-317.94 
660943.672,4404994.345,-318.41 
660943.672,4404894.345,-318.74 
660943.672,4404794.345,-318.3 
660943.672,4404694.345,-317.5 
660943.672,4404594.345,-317.47 
660943.672,4404494.345,-318.04 
660943.672,4404394.345,-317.84 
660943.672,4404294.345,-317.93 
660943.672,4404194.345,-316.53 
660943.672,4404094.345,-315.2 
660943.672,4403994.345,-314 
660943.672,4403894.345,-314.73 
660943.672,4403794.345,-315.17 
660943.672,4403694.345,-313.4 
660943.672,4403594.345,-309.1 
660943.672,4403494.345,-304.34 
660943.672,4403394.345,-299.14 
660943.672,4403294.345,-293.14 
660943.672,4403194.345,-287.41 
660943.672,4403094.345,-282.31 
660943.672,4402994.345,-276.81 
660943.672,4402894.345,-271.62 
660943.672,4402794.345,-266.39 
660943.672,4402694.345,-260.86 
660943.672,4402594.345,-255.02 
660943.672,4402494.345,-251.18 
660943.672,4402394.345,-249.2 
660943.672,4402294.345,-245.73 
660943.672,4402194.345,-239.67 
660943.672,4402094.345,-233.56 
660943.672,4401994.345,-227.87 
660943.672,4401894.345,-223.26 
660943.672,4401794.345,-220.48 
660943.672,4401694.345,-220.51 
660943.672,4401594.345,-224.06 
660943.672,4401494.345,-231.43 
660943.672,4401394.345,-245.03 
660943.672,4401294.345,-266.77 
660943.672,4401194.345,-277.19 
660943.672,4401094.345,-281.53 
660943.672,4400994.345,-282.23 
660943.672,4400894.345,-283.02 
660943.672,4400794.345,-286.89 
660943.672,4400694.345,-286.31 
660943.672,4400594.345,-290.84 
660943.672,4400494.345,-291.17 
660943.672,4400394.345,-290.76 
660943.672,4400294.345,-291.44 
660943.672,4400194.345,-293.17 
660943.672,4400094.345,-293.65 
660943.672,4399994.345,-294.15 
660943.672,4399894.345,-294.99 
660943.672,4399794.345,-295.59 
660943.672,4399694.345,-296.29 
660943.672,4399594.345,-297.07 
660943.672,4399494.345,-297.81 
660943.672,4399394.345,-299.94 
660943.672,4399294.345,-299.05 
660943.672,4399194.345,-297.23 
660943.672,4399094.345,-295.05 
660943.672,4398994.345,-294.38 
660943.672,4398894.345,-294.55 
660943.672,4398794.345,-296.56 
660943.672,4398694.345,-298.43 
660943.672,4398594.345,-300.54 
660943.672,4398494.345,-301.66 
660943.672,4398394.345,-302.19 
660943.672,4398294.345,-303.02 
660943.672,4398194.345,-303.43 
660943.672,4398094.345,-303.83 
660943.672,4397994.345,-303.17 
660943.672,4397894.345,-302.41 
660943.672,4397794.345,-303.36 
660943.672,4397694.345,-305.44 
660943.672,4397594.345,-308.82 
660943.672,4397494.345,-314.27 
660943.672,4397394.345,-320.3 
660943.672,4397294.345,-328.06 
660943.672,4397194.345,-333.38 
660943.672,4397094.345,-337.65 
660943.672,4396994.345,-344.51 
660943.672,4396894.345,-345.23 
660943.672,4396794.345,-348.52 
660943.672,4396694.345,-359.09 
660943.672,4396594.345,-370.63 
660943.672,4396494.345,-377.71 
660943.672,4396394.345,-388.56 
660943.672,4396294.345,-400.86 
660943.672,4396194.345,-409.8 
660943.672,4396094.345,-422.52 
660943.672,4395994.345,-434.37 
660943.672,4395894.345,-452 
660943.672,4395794.345,-468.83 
660943.672,4395694.345,-478.11 
660943.672,4395594.345,-485.28 
660943.672,4395494.345,-491.82 
660943.672,4395394.345,-497.08 
660943.672,4395294.345,-503.5 
660943.672,4395194.345,-508.09 
660943.672,4395094.345,-512.35 
660943.672,4394994.345,-513.8 
660943.672,4394894.345,-511.94 
660943.672,4394794.345,-509.22 
660943.672,4394694.345,-507.49 
660943.672,4394594.345,-507.72 
660943.672,4394494.345,-511.73 
660943.672,4394394.345,-517.9 
660943.672,4394294.345,-524.04 
660943.672,4394194.345,-534.36 
660943.672,4394094.345,-541.07 
660943.672,4393994.345,-549.08 
660943.672,4393894.345,-550.39 
660943.672,4393794.345,-553.03 
660943.672,4393694.345,-555.89 
660943.672,4393594.345,-560.06 
660943.672,4393494.345,-564.56 
660943.672,4393394.345,-568.09 
660943.672,4393294.345,-570.99 
660943.672,4393194.345,-574.37 
660943.672,4393094.345,-574.97 
660943.672,4392994.345,-574.8 
660943.672,4392894.345,-576.41 
660943.672,4392794.345,-578.99 
660943.672,4392694.345,-580.86 
660943.672,4392594.345,-582.36 
660943.672,4392494.345,-583.1 
660943.672,4392394.345,-582.52 
660943.672,4392294.345,-582.15 
660943.672,4392194.345,-588.19 
660943.672,4392094.345,-598.95 
660943.672,4391994.345,-612.54 
660943.672,4390094.345,-617.18 
660943.672,4389994.345,-614.47 
660943.672,4389894.345,-614.04 
660943.672,4389794.345,-611.12 
660943.672,4389694.345,-607.89 
660943.672,4389594.345,-607.23 
660943.672,4389494.345,-606.76 
660943.672,4389394.345,-605.88 
660943.672,4389294.345,-604.27 
660943.672,4389194.345,-600.25 
660943.672,4389094.345,-595.67 
660943.672,4388994.345,-588.63 
660943.672,4388894.345,-584.75 
660943.672,4388794.345,-576.96 
660943.672,4388694.345,-567.23 
660943.672,4388594.345,-558.35 
660943.672,4388494.345,-553.32 
660943.672,4388394.345,-548.27 
660943.672,4388294.345,-544.28 
660943.672,4388194.345,-540.46 
660943.672,4388094.345,-535.34 
660943.672,4387994.345,-528.15 
660943.672,4387894.345,-521.56 
660943.672,4387794.345,-518.74 
660943.672,4387694.345,-514.56 
660943.672,4387594.345,-510.11 
660943.672,4387494.345,-505.14 
660943.672,4387394.345,-500.84 
660943.672,4387294.345,-493.84 
660943.672,4387194.345,-489.85 
660943.672,4387094.345,-490.17 
660943.672,4386994.345,-488.26 
660943.672,4386894.345,-483.26 
660943.672,4386794.345,-476.49 
660943.672,4386694.345,-462.1 
660943.672,4386594.345,-449.73 
660943.672,4386494.345,-430.64 
660943.672,4386394.345,-422.21 
660943.672,4386294.345,-408.4 
660943.672,4386194.345,-385.66 
660943.672,4386094.345,-358.38 
660943.672,4385994.345,-341.88 
660943.672,4385894.345,-331.49 
660943.672,4385794.345,-321.41 
660943.672,4385694.345,-302.67 
660943.672,4385594.345,-287.54 
660943.672,4385494.345,-284.21 
660943.672,4385394.345,-255.65 
660943.672,4385294.345,-247.64 
660943.672,4385194.345,-217.68 
660943.672,4385094.345,-196.7 
660943.672,4384994.345,-206.74 
660943.672,4384894.345,-181.26 
660943.672,4384794.345,-158.8 
660943.672,4384694.345,-185.15 
660943.672,4384594.345,-190.44 
660943.672,4384494.345,-158.88 
660943.672,4384394.345,-159.21 
660943.672,4384294.345,-158.07 
660943.672,4384194.345,-141.9 
661043.672,4405994.345,-329.37 
661043.672,4405894.345,-326.62 
661043.672,4405794.345,-322.36 
661043.672,4405694.345,-318.04 
661043.672,4405594.345,-318.69 
661043.672,4405494.345,-317.87 
661043.672,4405394.345,-318.09 
661043.672,4405294.345,-317.97 
661043.672,4405194.345,-319.74 
661043.672,4405094.345,-321.52 
661043.672,4404994.345,-323.39 
661043.672,4404894.345,-323.31 
661043.672,4404794.345,-324.77 
661043.672,4404694.345,-324.37 
661043.672,4404594.345,-326.03 
661043.672,4404494.345,-326.27 
661043.672,4404394.345,-325.19 
661043.672,4404294.345,-322.53 
661043.672,4404194.345,-320 
661043.672,4404094.345,-318 
661043.672,4403994.345,-317.27 
661043.672,4403894.345,-317.27 
661043.672,4403794.345,-317.43 
661043.672,4403694.345,-315.67 
661043.672,4403594.345,-312.54 
661043.672,4403494.345,-306.91 
661043.672,4403394.345,-301.27 
661043.672,4403294.345,-295.11 
661043.672,4403194.345,-288.38 
661043.672,4403094.345,-282.85 
661043.672,4402994.345,-277.91 
661043.672,4402894.345,-272.05 
661043.672,4402794.345,-266.62 
661043.672,4402694.345,-260.19 
661043.672,4402594.345,-254.78 
661043.672,4402494.345,-249.49 
661043.672,4402394.345,-248.58 
661043.672,4402294.345,-246.77 
661043.672,4402194.345,-239.21 
661043.672,4402094.345,-232.94 
661043.672,4401994.345,-227.4 
661043.672,4401894.345,-223.02 
661043.672,4401794.345,-220.44 
661043.672,4401694.345,-220.99 
661043.672,4401594.345,-224.72 
661043.672,4401494.345,-232.67 
661043.672,4401394.345,-246.11 
661043.672,4401294.345,-267.3 
661043.672,4401194.345,-278.89 
661043.672,4401094.345,-282.61 
661043.672,4400994.345,-285.03 
661043.672,4400894.345,-284.91 
661043.672,4400794.345,-288.69 
661043.672,4400694.345,-286.38 
661043.672,4400594.345,-290.33 
661043.672,4400494.345,-293.21 
661043.672,4400394.345,-292.33 
661043.672,4400294.345,-293.12 
661043.672,4400194.345,-293.88 
661043.672,4400094.345,-294.7 
661043.672,4399994.345,-295.05 
661043.672,4399894.345,-294.93 
661043.672,4399794.345,-296.37 
661043.672,4399694.345,-297.27 
661043.672,4399594.345,-298.59 
661043.672,4399494.345,-299.98 
661043.672,4399394.345,-301.5 
661043.672,4399294.345,-301.25 
661043.672,4399194.345,-301.62 
661043.672,4399094.345,-298.13 
661043.672,4398994.345,-293.78 
661043.672,4398894.345,-294.46 
661043.672,4398794.345,-298.5 
661043.672,4398694.345,-299.75 
661043.672,4398594.345,-302.09 
661043.672,4398494.345,-303.89 
661043.672,4398394.345,-304.31 
661043.672,4398294.345,-305.03 
661043.672,4398194.345,-304.99 
661043.672,4398094.345,-305 
661043.672,4397994.345,-304.19 
661043.672,4397894.345,-303.05 
661043.672,4397794.345,-302.92 
661043.672,4397694.345,-305.28 
661043.672,4397594.345,-308.53 
661043.672,4397494.345,-313.78 
661043.672,4397394.345,-320.53 
661043.672,4397294.345,-325.82 
661043.672,4397194.345,-332.35 
661043.672,4397094.345,-338.73 
661043.672,4396994.345,-340.59 
661043.672,4396894.345,-345.47 
661043.672,4396794.345,-350.34 
661043.672,4396694.345,-354.01 
661043.672,4396594.345,-362.4 
661043.672,4396494.345,-373.54 
661043.672,4396394.345,-383.88 
661043.672,4396294.345,-395.6 
661043.672,4396194.345,-407.84 
661043.672,4396094.345,-419.41 
661043.672,4395994.345,-430.41 
661043.672,4395894.345,-441.77 
661043.672,4395794.345,-459.18 
661043.672,4395694.345,-473.12 
661043.672,4395594.345,-482.13 
661043.672,4395494.345,-487.21 
661043.672,4395394.345,-492.44 
661043.672,4395294.345,-499.01 
661043.672,4395194.345,-503.69 
661043.672,4395094.345,-507.58 
661043.672,4394994.345,-508.34 
661043.672,4394894.345,-504.89 
661043.672,4394794.345,-501.85 
661043.672,4394694.345,-500.43 
661043.672,4394594.345,-498.78 
661043.672,4394494.345,-501.05 
661043.672,4394394.345,-503.85 
661043.672,4394294.345,-508.06 
661043.672,4394194.345,-522.92 
661043.672,4394094.345,-532.83 
661043.672,4393994.345,-544.57 
661043.672,4393894.345,-550.9 
661043.672,4393794.345,-551.82 
661043.672,4393694.345,-553.17 
661043.672,4393594.345,-556.33 
661043.672,4393494.345,-560.75 
661043.672,4393394.345,-564.61 
661043.672,4393294.345,-568.49 
661043.672,4393194.345,-571.59 
661043.672,4393094.345,-572.65 
661043.672,4392994.345,-572.98 
661043.672,4392894.345,-575.33 
661043.672,4392794.345,-578.83 
661043.672,4392694.345,-581.16 
661043.672,4392594.345,-582.86 
661043.672,4392494.345,-582.43 
661043.672,4392394.345,-581.32 
661043.672,4392294.345,-576.14 
661043.672,4392194.345,-573.34 
661043.672,4392094.345,-578.16 
661043.672,4391994.345,-591.46 
661043.672,4389994.345,-619.48 
661043.672,4389894.345,-618.44 
661043.672,4389794.345,-616.51 
661043.672,4389694.345,-613.97 
661043.672,4389594.345,-614.57 
661043.672,4389494.345,-612.29 
661043.672,4389394.345,-609.74 
661043.672,4389294.345,-608.02 
661043.672,4389194.345,-602.87 
661043.672,4389094.345,-596.7 
661043.672,4388994.345,-591.55 
661043.672,4388894.345,-585.87 
661043.672,4388794.345,-575.73 
661043.672,4388694.345,-568.62 
661043.672,4388594.345,-561.77 
661043.672,4388494.345,-556.9 
661043.672,4388394.345,-551.82 
661043.672,4388294.345,-547.05 
661043.672,4388194.345,-541.14 
661043.672,4388094.345,-535.67 
661043.672,4387994.345,-531.11 
661043.672,4387894.345,-525.28 
661043.672,4387794.345,-521.89 
661043.672,4387694.345,-518.37 
661043.672,4387594.345,-513.06 
661043.672,4387494.345,-509.97 
661043.672,4387394.345,-507.8 
661043.672,4387294.345,-504.43 
661043.672,4387194.345,-500.52 
661043.672,4387094.345,-495.76 
661043.672,4386994.345,-489.8 
661043.672,4386894.345,-481.48 
661043.672,4386794.345,-473.9 
661043.672,4386694.345,-460.29 
661043.672,4386594.345,-446.34 
661043.672,4386494.345,-435.97 
661043.672,4386394.345,-424.91 
661043.672,4386294.345,-401.41 
661043.672,4386194.345,-379.66 
661043.672,4386094.345,-366.08 
661043.672,4385994.345,-354.64 
661043.672,4385894.345,-344.87 
661043.672,4385794.345,-337.82 
661043.672,4385694.345,-321.58 
661043.672,4385594.345,-322.39 
661043.672,4385494.345,-297.07 
661043.672,4385394.345,-271.02 
661043.672,4385294.345,-247.58 
661043.672,4385194.345,-240.01 
661043.672,4385094.345,-229.51 
661043.672,4384994.345,-234.58 
661043.672,4384894.345,-197.67 
661043.672,4384794.345,-206.34 
661043.672,4384694.345,-233.32 
661043.672,4384594.345,-200.72 
661043.672,4384494.345,-186.43 
661043.672,4384394.345,-191.56 
661043.672,4384294.345,-182.35 
661043.672,4384194.345,-159.85 
661043.672,4384094.345,-135.19 
661143.672,4405994.345,-330.2 
661143.672,4405894.345,-328.06 
661143.672,4405794.345,-322.72 
661143.672,4405694.345,-321.25 
661143.672,4405594.345,-318.9 
661143.672,4405494.345,-319.27 
661143.672,4405394.345,-319.21 
661143.672,4405294.345,-319.79 
661143.672,4405194.345,-320.97 
661143.672,4405094.345,-323.85 
661143.672,4404994.345,-325.64 
661143.672,4404894.345,-327.14 
661143.672,4404794.345,-329.33 
661143.672,4404694.345,-331.1 
661143.672,4404594.345,-331.9 
661143.672,4404494.345,-332.06 
661143.672,4404394.345,-330.36 
661143.672,4404294.345,-327.06 
661143.672,4404194.345,-323.56 
661143.672,4404094.345,-321.2 
661143.672,4403994.345,-319.8 
661143.672,4403894.345,-319.53 
661143.672,4403794.345,-319.17 
661143.672,4403694.345,-317.73 
661143.672,4403594.345,-314.47 
661143.672,4403494.345,-309.1 
661143.672,4403394.345,-303.91 
661143.672,4403294.345,-297.38 
661143.672,4403194.345,-290.35 
661143.672,4403094.345,-284.35 
661143.672,4402994.345,-278.78 
661143.672,4402894.345,-272.59 
661143.672,4402794.345,-266.72 
661143.672,4402694.345,-260.39 
661143.672,4402594.345,-253.8 
661143.672,4402494.345,-249.34 
661143.672,4402394.345,-248.3 
661143.672,4402294.345,-243.1 
661143.672,4402194.345,-238.48 
661143.672,4402094.345,-232.33 
661143.672,4401994.345,-226.72 
661143.672,4401894.345,-223.09 
661143.672,4401794.345,-220.61 
661143.672,4401694.345,-221.09 
661143.672,4401594.345,-225.21 
661143.672,4401494.345,-234.2 
661143.672,4401394.345,-249.58 
661143.672,4401294.345,-267.51 
661143.672,4401194.345,-279.78 
661143.672,4401094.345,-283.91 
661143.672,4400994.345,-287.66 
661143.672,4400894.345,-287.72 
661143.672,4400794.345,-290.76 
661143.672,4400694.345,-288.89 
661143.672,4400594.345,-289.21 
661143.672,4400494.345,-294.58 
661143.672,4400394.345,-294.83 
661143.672,4400294.345,-295.19 
661143.672,4400194.345,-295.75 
661143.672,4400094.345,-296.2 
661143.672,4399994.345,-296.04 
661143.672,4399894.345,-296.55 
661143.672,4399794.345,-297.15 
661143.672,4399694.345,-298.46 
661143.672,4399594.345,-300.11 
661143.672,4399494.345,-301.03 
661143.672,4399394.345,-302.17 
661143.672,4399294.345,-302.79 
661143.672,4399194.345,-301.48 
661143.672,4399094.345,-301.63 
661143.672,4398994.345,-301.33 
661143.672,4398894.345,-299.76 
661143.672,4398794.345,-299.59 
661143.672,4398694.345,-301.6 
661143.672,4398594.345,-302.84 
661143.672,4398494.345,-305.85 
661143.672,4398394.345,-306.32 
661143.672,4398294.345,-306.2 
661143.672,4398194.345,-306.01 
661143.672,4398094.345,-305.22 
661143.672,4397994.345,-304.54 
661143.672,4397894.345,-303.49 
661143.672,4397794.345,-302.91 
661143.672,4397694.345,-304.42 
661143.672,4397594.345,-308.31 
661143.672,4397494.345,-312.64 
661143.672,4397394.345,-319.44 
661143.672,4397294.345,-325.63 
661143.672,4397194.345,-331.79 
661143.672,4397094.345,-337.59 
661143.672,4396994.345,-343.87 
661143.672,4396894.345,-345.16 
661143.672,4396794.345,-350.9 
661143.672,4396694.345,-352.52 
661143.672,4396594.345,-359.33 
661143.672,4396494.345,-365.06 
661143.672,4396394.345,-374.67 
661143.672,4396294.345,-386.95 
661143.672,4396194.345,-397.4 
661143.672,4396094.345,-408.58 
