676193.672,4389944.345,-630.49 
676193.672,4389744.345,-670.4 
676193.672,4389544.345,-716.37 
676193.672,4389344.345,-741.1 
676193.672,4389144.345,-752.89 
676193.672,4388944.345,-782.29 
676193.672,4388744.345,-805.33 
676193.672,4388544.345,-819.48 
676193.672,4388344.345,-822.24 
676193.672,4388144.345,-828.62 
676193.672,4387944.345,-829.39 
676193.672,4387744.345,-830.53 
676193.672,4387544.345,-834.55 
676193.672,4387344.345,-838.74 
676193.672,4387144.345,-842.92 
676193.672,4386944.345,-846.45 
676193.672,4386744.345,-845.54 
676193.672,4386544.345,-832.43 
676193.672,4386344.345,-818.32 
676193.672,4386144.345,-800.78 
676193.672,4385944.345,-788.22 
676193.672,4385744.345,-777.48 
676193.672,4385544.345,-771.51 
676193.672,4385344.345,-759.47 
676193.672,4385144.345,-745.61 
676193.672,4384944.345,-732.17 
676193.672,4384744.345,-726.72 
676193.672,4384544.345,-715.19 
676193.672,4384344.345,-695.12 
676193.672,4384144.345,-684.58 
676193.672,4383944.345,-671.14 
676193.672,4383744.345,-661.93 
676193.672,4383544.345,-654.28 
676193.672,4383344.345,-646.84 
676193.672,4383144.345,-646.81 
676193.672,4382944.345,-641.18 
676193.672,4382744.345,-626.53 
676193.672,4382544.345,-614.65 
676193.672,4382344.345,-607.15 
676193.672,4382144.345,-597.18 
676193.672,4381944.345,-600.04 
676193.672,4381744.345,-590.73 
676193.672,4381544.345,-583.17 
676393.672,4405944.345,-766.31 
676393.672,4405744.345,-805.54 
676393.672,4405544.345,-846.1 
676393.672,4405344.345,-876.9 
676393.672,4405144.345,-905.11 
676393.672,4404944.345,-907.49 
676393.672,4404744.345,-914.2 
676393.672,4404544.345,-917.39 
676393.672,4404344.345,-919.11 
676393.672,4404144.345,-921.05 
676393.672,4403944.345,-923.34 
676393.672,4403744.345,-925.75 
676393.672,4403544.345,-928.35 
676393.672,4403344.345,-926.17 
676393.672,4403144.345,-926.89 
676393.672,4402944.345,-930.42 
676393.672,4402744.345,-933.21 
676393.672,4402544.345,-933.96 
676393.672,4402344.345,-927.4 
676393.672,4402144.345,-926.99 
676393.672,4401944.345,-926.82 
676393.672,4401744.345,-924.22 
676393.672,4401544.345,-922.76 
676393.672,4401344.345,-921.58 
676393.672,4401144.345,-923.02 
676393.672,4400944.345,-921.5 
676393.672,4400744.345,-896.69 
676393.672,4400544.345,-891.01 
676393.672,4400344.345,-872.71 
676393.672,4400144.345,-844.85 
676393.672,4399944.345,-796.48 
676393.672,4399744.345,-776.45 
676393.672,4399544.345,-772.49 
676393.672,4399344.345,-748.56 
676393.672,4399144.345,-748.78 
676393.672,4398944.345,-740.06 
676393.672,4398744.345,-734.27 
676393.672,4398544.345,-722.59 
676393.672,4398344.345,-719.95 
676393.672,4398144.345,-713.77 
676393.672,4397944.345,-706.1 
676393.672,4397744.345,-703.91 
676393.672,4397544.345,-698.99 
676393.672,4397344.345,-690.4 
676393.672,4397144.345,-677.33 
676393.672,4396944.345,-667.17 
676393.672,4396744.345,-658.23 
676393.672,4396544.345,-647.31 
676393.672,4396344.345,-631.68 
676393.672,4396144.345,-599.74 
676393.672,4389944.345,-618.68 
676393.672,4389744.345,-668.42 
676393.672,4389544.345,-714.3 
676393.672,4389344.345,-745.26 
676393.672,4389144.345,-760.78 
676393.672,4388944.345,-788.09 
676393.672,4388744.345,-809.49 
676393.672,4388544.345,-823.85 
676393.672,4388344.345,-825.88 
676393.672,4388144.345,-826.16 
676393.672,4387944.345,-829.79 
676393.672,4387744.345,-833.21 
676393.672,4387544.345,-835.54 
676393.672,4387344.345,-843.59 
676393.672,4387144.345,-844.91 
676393.672,4386944.345,-846.28 
676393.672,4386744.345,-848.41 
676393.672,4386544.345,-833.21 
676393.672,4386344.345,-811.95 
676393.672,4386144.345,-797.4 
676393.672,4385944.345,-781.82 
676393.672,4385744.345,-766.37 
676393.672,4385544.345,-751.75 
676393.672,4385344.345,-736.87 
676393.672,4385144.345,-726.33 
676393.672,4384944.345,-717.4 
676393.672,4384744.345,-713.22 
676393.672,4384544.345,-702.34 
676393.672,4384344.345,-692.93 
676393.672,4384144.345,-688.93 
676393.672,4383944.345,-676.13 
676393.672,4383744.345,-668.58 
676393.672,4383544.345,-663.19 
676393.672,4383344.345,-656.16 
676393.672,4383144.345,-645.37 
676393.672,4382944.345,-634.91 
676393.672,4382744.345,-624.21 
676393.672,4382544.345,-616.05 
676393.672,4382344.345,-610.74 
676393.672,4382144.345,-606.41 
676393.672,4381944.345,-600.16 
676393.672,4381744.345,-595.61 
676393.672,4381544.345,-588.29 
676593.672,4405944.345,-732.96 
676593.672,4405744.345,-768.15 
676593.672,4405544.345,-811.22 
676593.672,4405344.345,-845.55 
676593.672,4405144.345,-892.03 
676593.672,4404944.345,-910.79 
676593.672,4404744.345,-916.17 
676593.672,4404544.345,-919.16 
676593.672,4404344.345,-920.56 
676593.672,4404144.345,-921.86 
676593.672,4403944.345,-924.64 
676593.672,4403744.345,-926.19 
676593.672,4403544.345,-927.97 
676593.672,4403344.345,-929.06 
676593.672,4403144.345,-929.68 
676593.672,4402944.345,-932.22 
676593.672,4402744.345,-933.22 
676593.672,4402544.345,-934.09 
676593.672,4402344.345,-933.73 
676593.672,4402144.345,-929.32 
676593.672,4401944.345,-925.96 
676593.672,4401744.345,-928.53 
676593.672,4401544.345,-929.06 
676593.672,4401344.345,-926.91 
676593.672,4401144.345,-921.02 
676593.672,4400944.345,-923.23 
676593.672,4400744.345,-918.63 
676593.672,4400544.345,-910.81 
676593.672,4400344.345,-890.07 
676593.672,4400144.345,-853.47 
676593.672,4399944.345,-817.33 
676593.672,4399744.345,-797.09 
676593.672,4399544.345,-787.36 
676593.672,4399344.345,-772.65 
676593.672,4399144.345,-757.89 
676593.672,4398944.345,-745.76 
676593.672,4398744.345,-740.23 
676593.672,4398544.345,-735.2 
676593.672,4398344.345,-731.54 
676593.672,4398144.345,-728.42 
676593.672,4397944.345,-717.81 
676593.672,4397744.345,-711.11 
676593.672,4397544.345,-701.92 
676593.672,4397344.345,-692.95 
676593.672,4397144.345,-683.66 
676593.672,4396944.345,-677.38 
676593.672,4396744.345,-672 
676593.672,4396544.345,-659.43 
676593.672,4396344.345,-636.47 
676593.672,4396144.345,-604.68 
676593.672,4389944.345,-610.82 
676593.672,4389744.345,-656.17 
676593.672,4389544.345,-697.81 
676593.672,4389344.345,-726.83 
676593.672,4389144.345,-759.26 
676593.672,4388944.345,-781.64 
676593.672,4388744.345,-803.55 
676593.672,4388544.345,-820.67 
676593.672,4388344.345,-826.94 
676593.672,4388144.345,-829.62 
676593.672,4387944.345,-833.07 
676593.672,4387744.345,-833.71 
676593.672,4387544.345,-839 
676593.672,4387344.345,-843.71 
676593.672,4387144.345,-846.52 
676593.672,4386944.345,-850.53 
676593.672,4386744.345,-848.2 
676593.672,4386544.345,-832.77 
676593.672,4386344.345,-801.53 
676593.672,4386144.345,-788.57 
676593.672,4385944.345,-777.24 
676593.672,4385744.345,-774.21 
676593.672,4385544.345,-762.11 
676593.672,4385344.345,-742.84 
676593.672,4385144.345,-721.15 
676593.672,4384944.345,-708.92 
676593.672,4384744.345,-698.32 
676593.672,4384544.345,-691.02 
676593.672,4384344.345,-679.53 
676593.672,4384144.345,-676.4 
676593.672,4383944.345,-666.14 
676593.672,4383744.345,-662.25 
676593.672,4383544.345,-653.53 
676593.672,4383344.345,-644.67 
676593.672,4383144.345,-640.65 
676593.672,4382944.345,-631.35 
676593.672,4382744.345,-625.35 
676593.672,4382544.345,-619.57 
676593.672,4382344.345,-617.2 
676593.672,4382144.345,-607.94 
676593.672,4381944.345,-602.56 
676593.672,4381744.345,-596.12 
676593.672,4381544.345,-590.74 
676593.672,4381344.345,-586.86 
676793.672,4405944.345,-701.49 
676793.672,4405744.345,-733.38 
676793.672,4405544.345,-774 
676793.672,4405344.345,-818.73 
676793.672,4405144.345,-864.87 
676793.672,4404944.345,-912.24 
676793.672,4404744.345,-921.58 
676793.672,4404544.345,-921.75 
676793.672,4404344.345,-923.44 
676793.672,4404144.345,-926.31 
676793.672,4403944.345,-927.01 
676793.672,4403744.345,-928.3 
676793.672,4403544.345,-928.98 
676793.672,4403344.345,-929.83 
676793.672,4403144.345,-932.21 
676793.672,4402944.345,-937.85 
676793.672,4402744.345,-934.6 
676793.672,4402544.345,-934.25 
676793.672,4402344.345,-933.23 
676793.672,4402144.345,-931.46 
676793.672,4401944.345,-932.95 
676793.672,4401744.345,-933.61 
676793.672,4401544.345,-931.2 
676793.672,4401344.345,-927.05 
676793.672,4401144.345,-925.08 
676793.672,4400944.345,-924.4 
676793.672,4400744.345,-919.07 
676793.672,4400544.345,-917.49 
676793.672,4400344.345,-899.69 
676793.672,4400144.345,-872.7 
676793.672,4399944.345,-844.77 
676793.672,4399744.345,-812.46 
676793.672,4399544.345,-796.71 
676793.672,4399344.345,-779.34 
676793.672,4399144.345,-771.17 
676793.672,4398944.345,-762.99 
676793.672,4398744.345,-754.48 
676793.672,4398544.345,-752.27 
676793.672,4398344.345,-744.4 
676793.672,4398144.345,-730.5 
676793.672,4397944.345,-722.5 
676793.672,4397744.345,-717.48 
676793.672,4397544.345,-708.55 
676793.672,4397344.345,-697.66 
676793.672,4397144.345,-690.72 
676793.672,4396944.345,-681.57 
676793.672,4396744.345,-672.83 
676793.672,4396544.345,-657.88 
676793.672,4396344.345,-627.57 
676793.672,4396144.345,-596.79 
676793.672,4389944.345,-607.88 
676793.672,4389744.345,-648.76 
676793.672,4389544.345,-692.01 
676793.672,4389344.345,-723.26 
676793.672,4389144.345,-767.14 
676793.672,4388944.345,-793.26 
676793.672,4388744.345,-814.17 
676793.672,4388544.345,-822.76 
676793.672,4388344.345,-825.68 
676793.672,4388144.345,-828.6 
676793.672,4387944.345,-835.95 
676793.672,4387744.345,-836.27 
676793.672,4387544.345,-838.25 
676793.672,4387344.345,-842.96 
676793.672,4387144.345,-846.54 
676793.672,4386944.345,-847.11 
676793.672,4386744.345,-849.82 
676793.672,4386544.345,-836.94 
676793.672,4386344.345,-798.6 
676793.672,4386144.345,-777.52 
676793.672,4385944.345,-766.51 
676793.672,4385744.345,-760.12 
676793.672,4385544.345,-749.65 
676793.672,4385344.345,-742.01 
676793.672,4385144.345,-730.27 
676793.672,4384944.345,-718.14 
676793.672,4384744.345,-703.26 
676793.672,4384544.345,-690.54 
676793.672,4384344.345,-676.63 
676793.672,4384144.345,-676.56 
676793.672,4383944.345,-666.18 
676793.672,4383744.345,-658.67 
676793.672,4383544.345,-653.3 
676793.672,4383344.345,-645.05 
676793.672,4383144.345,-638.27 
676793.672,4382944.345,-633.6 
676793.672,4382744.345,-627.76 
676793.672,4382544.345,-620.8 
676793.672,4382344.345,-613.61 
676793.672,4382144.345,-605.91 
676793.672,4381944.345,-600.79 
676793.672,4381744.345,-594.8 
676793.672,4381544.345,-592.56 
676793.672,4381344.345,-587.36 
676993.672,4405944.345,-693.32 
676993.672,4405744.345,-731.57 
676993.672,4405544.345,-769.24 
676993.672,4405344.345,-807.5 
676993.672,4405144.345,-858.8 
676993.672,4404944.345,-914.69 
676993.672,4404744.345,-925.64 
676993.672,4404544.345,-924.88 
676993.672,4404344.345,-926.6 
676993.672,4404144.345,-928.27 
676993.672,4403944.345,-930.56 
676993.672,4403744.345,-932.06 
676993.672,4403544.345,-932.27 
676993.672,4403344.345,-932.78 
676993.672,4403144.345,-934.68 
676993.672,4402944.345,-937.35 
676993.672,4402744.345,-937.11 
676993.672,4402544.345,-939.02 
676993.672,4402344.345,-935.42 
676993.672,4402144.345,-940.23 
676993.672,4401944.345,-940.23 
676993.672,4401744.345,-935.65 
676993.672,4401544.345,-934.27 
676993.672,4401344.345,-930.41 
676993.672,4401144.345,-928.91 
676993.672,4400944.345,-928.72 
676993.672,4400744.345,-921.04 
676993.672,4400544.345,-915.8 
676993.672,4400344.345,-908.95 
676993.672,4400144.345,-892.37 
676993.672,4399944.345,-857.24 
676993.672,4399744.345,-846.31 
676993.672,4399544.345,-814.95 
676993.672,4399344.345,-794.93 
676993.672,4399144.345,-779.41 
676993.672,4398944.345,-765.96 
676993.672,4398744.345,-767.46 
676993.672,4398544.345,-763.44 
676993.672,4398344.345,-757.15 
676993.672,4398144.345,-741.84 
676993.672,4397944.345,-733.86 
676993.672,4397744.345,-720.47 
676993.672,4397544.345,-712.8 
676993.672,4397344.345,-706.12 
676993.672,4397144.345,-691.77 
676993.672,4396944.345,-681.75 
676993.672,4396744.345,-671.03 
676993.672,4396544.345,-655.75 
676993.672,4396344.345,-636.13 
676993.672,4396144.345,-609.18 
676993.672,4395944.345,-583.6 
676993.672,4389944.345,-612.26 
676993.672,4389744.345,-652.44 
676993.672,4389544.345,-693.49 
676993.672,4389344.345,-729.07 
676993.672,4389144.345,-768.28 
676993.672,4388944.345,-799.27 
676993.672,4388744.345,-817.47 
676993.672,4388544.345,-821.83 
676993.672,4388344.345,-825.98 
676993.672,4388144.345,-830.09 
676993.672,4387944.345,-834.56 
676993.672,4387744.345,-838.54 
676993.672,4387544.345,-840.46 
676993.672,4387344.345,-843.58 
676993.672,4387144.345,-852.29 
676993.672,4386944.345,-852.82 
676993.672,4386744.345,-850.53 
676993.672,4386544.345,-827.87 
676993.672,4386344.345,-791.46 
676993.672,4386144.345,-771.54 
676993.672,4385944.345,-759.18 
676993.672,4385744.345,-749.48 
676993.672,4385544.345,-737.19 
676993.672,4385344.345,-740.92 
676993.672,4385144.345,-720.09 
676993.672,4384944.345,-710.78 
676993.672,4384744.345,-701.33 
676993.672,4384544.345,-689.36 
676993.672,4384344.345,-680.55 
676993.672,4384144.345,-676.26 
676993.672,4383944.345,-665.97 
676993.672,4383744.345,-657.16 
676993.672,4383544.345,-653.33 
676993.672,4383344.345,-646.14 
676993.672,4383144.345,-636.42 
676993.672,4382944.345,-630.56 
676993.672,4382744.345,-623.6 
676993.672,4382544.345,-616.29 
676993.672,4382344.345,-610.88 
676993.672,4382144.345,-603.99 
676993.672,4381944.345,-600.32 
676993.672,4381744.345,-596.91 
676993.672,4381544.345,-593.82 
676993.672,4381344.345,-588.91 
677193.672,4405944.345,-713.25 
677193.672,4405744.345,-755.31 
677193.672,4405544.345,-795.8 
677193.672,4405344.345,-836.19 
677193.672,4405144.345,-876.88 
677193.672,4404944.345,-921.14 
677193.672,4404744.345,-929.01 
677193.672,4404544.345,-931.51 
677193.672,4404344.345,-932.21 
677193.672,4404144.345,-932.44 
677193.672,4403944.345,-932.15 
677193.672,4403744.345,-934.93 
677193.672,4403544.345,-934.35 
677193.672,4403344.345,-934.72 
677193.672,4403144.345,-936.44 
677193.672,4402944.345,-938.78 
677193.672,4402744.345,-939.03 
677193.672,4402544.345,-938.1 
677193.672,4402344.345,-939.33 
677193.672,4402144.345,-938.79 
677193.672,4401944.345,-937.49 
677193.672,4401744.345,-935.1 
677193.672,4401544.345,-933 
677193.672,4401344.345,-932.86 
677193.672,4401144.345,-926.58 
677193.672,4400944.345,-926.95 
677193.672,4400744.345,-923.08 
677193.672,4400544.345,-919.35 
677193.672,4400344.345,-909.74 
677193.672,4400144.345,-902.37 
677193.672,4399944.345,-887.03 
677193.672,4399744.345,-860.65 
677193.672,4399544.345,-835.25 
677193.672,4399344.345,-821.73 
677193.672,4399144.345,-795.4 
677193.672,4398944.345,-782.04 
677193.672,4398744.345,-774.78 
677193.672,4398544.345,-757.81 
677193.672,4398344.345,-752.78 
677193.672,4398144.345,-746.67 
677193.672,4397944.345,-742.96 
677193.672,4397744.345,-733.62 
677193.672,4397544.345,-721.95 
677193.672,4397344.345,-708.91 
677193.672,4397144.345,-700.07 
677193.672,4396944.345,-682.86 
677193.672,4396744.345,-666.42 
677193.672,4396544.345,-656.19 
677193.672,4396344.345,-643.61 
677193.672,4396144.345,-621.26 
677193.672,4395944.345,-599.59 
677193.672,4390144.345,-586.35 
677193.672,4389944.345,-620.04 
677193.672,4389744.345,-667.85 
677193.672,4389544.345,-700.06 
677193.672,4389344.345,-731.98 
677193.672,4389144.345,-763.02 
677193.672,4388944.345,-792.16 
677193.672,4388744.345,-819.11 
677193.672,4388544.345,-825.8 
677193.672,4388344.345,-826.85 
677193.672,4388144.345,-832.57 
677193.672,4387944.345,-832.69 
677193.672,4387744.345,-839.22 
677193.672,4387544.345,-840.54 
677193.672,4387344.345,-846.04 
677193.672,4387144.345,-851.62 
677193.672,4386944.345,-854.09 
677193.672,4386744.345,-852.65 
677193.672,4386544.345,-836.31 
677193.672,4386344.345,-787.74 
677193.672,4386144.345,-755.91 
677193.672,4385944.345,-744.96 
677193.672,4385744.345,-735.39 
677193.672,4385544.345,-729.74 
677193.672,4385344.345,-712.61 
677193.672,4385144.345,-702.39 
677193.672,4384944.345,-694.6 
677193.672,4384744.345,-687.96 
677193.672,4384544.345,-684.18 
677193.672,4384344.345,-676.44 
677193.672,4384144.345,-666.25 
677193.672,4383944.345,-661.63 
677193.672,4383744.345,-655.14 
677193.672,4383544.345,-647.2 
677193.672,4383344.345,-638 
677193.672,4383144.345,-632.4 
677193.672,4382944.345,-624.82 
677193.672,4382744.345,-619.82 
677193.672,4382544.345,-615.75 
677193.672,4382344.345,-608.39 
677193.672,4382144.345,-604.02 
677193.672,4381944.345,-600.28 
677193.672,4381744.345,-596.66 
677193.672,4381544.345,-594.09 
677193.672,4381344.345,-588.73 
677393.672,4405944.345,-728.25 
677393.672,4405744.345,-770.13 
677393.672,4405544.345,-814.4 
677393.672,4405344.345,-854.5 
677393.672,4405144.345,-904.73 
677393.672,4404944.345,-927.64 
677393.672,4404744.345,-932.2 
677393.672,4404544.345,-934.95 
677393.672,4404344.345,-935.23 
677393.672,4404144.345,-936.27 
677393.672,4403944.345,-937.06 
677393.672,4403744.345,-937.51 
677393.672,4403544.345,-937.16 
677393.672,4403344.345,-935.37 
677393.672,4403144.345,-938.15 
677393.672,4402944.345,-939.36 
677393.672,4402744.345,-942.54 
677393.672,4402544.345,-940.4 
677393.672,4402344.345,-941.07 
677393.672,4402144.345,-938.55 
677393.672,4401944.345,-936.44 
677393.672,4401744.345,-937.32 
677393.672,4401544.345,-933.13 
677393.672,4401344.345,-930.55 
677393.672,4401144.345,-929.52 
677393.672,4400944.345,-926.14 
677393.672,4400744.345,-924.75 
677393.672,4400544.345,-917.37 
677393.672,4400344.345,-915.36 
677393.672,4400144.345,-908.04 
677393.672,4399944.345,-898.65 
677393.672,4399744.345,-884.26 
677393.672,4399544.345,-868.46 
677393.672,4399344.345,-831.31 
677393.672,4399144.345,-814.93 
677393.672,4398944.345,-793.8 
677393.672,4398744.345,-776.1 
677393.672,4398544.345,-767.27 
677393.672,4398344.345,-759.38 
677393.672,4398144.345,-750.01 
677393.672,4397944.345,-745.16 
677393.672,4397744.345,-732.72 
677393.672,4397544.345,-722.4 
677393.672,4397344.345,-710.82 
677393.672,4397144.345,-701.17 
677393.672,4396944.345,-688.64 
677393.672,4396744.345,-680.86 
677393.672,4396544.345,-665.11 
677393.672,4396344.345,-655.86 
677393.672,4396144.345,-641.27 
677393.672,4395944.345,-619.8 
677393.672,4395744.345,-595.44 
677393.672,4390144.345,-591.41 
677393.672,4389944.345,-630.88 
677393.672,4389744.345,-667.67 
677393.672,4389544.345,-713.65 
677393.672,4389344.345,-736.98 
677393.672,4389144.345,-763.82 
677393.672,4388944.345,-793.9 
677393.672,4388744.345,-825.68 
677393.672,4388544.345,-826.82 
677393.672,4388344.345,-829.09 
677393.672,4388144.345,-831.65 
677393.672,4387944.345,-836.43 
677393.672,4387744.345,-838.15 
677393.672,4387544.345,-841.12 
677393.672,4387344.345,-848.7 
677393.672,4387144.345,-852.73 
677393.672,4386944.345,-858.48 
677393.672,4386744.345,-860.4 
677393.672,4386544.345,-841.98 
677393.672,4386344.345,-793.16 
677393.672,4386144.345,-751.88 
677393.672,4385944.345,-726.94 
677393.672,4385744.345,-720.1 
677393.672,4385544.345,-714.45 
677393.672,4385344.345,-696.6 
677393.672,4385144.345,-685.07 
677393.672,4384944.345,-677.56 
677393.672,4384744.345,-677.65 
677393.672,4384544.345,-675.9 
677393.672,4384344.345,-676.46 
677393.672,4384144.345,-659.01 
677393.672,4383944.345,-657.22 
677393.672,4383744.345,-648.07 
677393.672,4383544.345,-643.42 
677393.672,4383344.345,-637.26 
677393.672,4383144.345,-625.65 
677393.672,4382944.345,-620.63 
677393.672,4382744.345,-620.78 
677393.672,4382544.345,-615.61 
677393.672,4382344.345,-609.7 
677393.672,4382144.345,-603.51 
677393.672,4381944.345,-600.05 
677393.672,4381744.345,-596.73 
677393.672,4381544.345,-593.21 
677393.672,4381344.345,-590.46 
677593.672,4405944.345,-750.15 
677593.672,4405744.345,-789.61 
677593.672,4405544.345,-833.43 
677593.672,4405344.345,-873.49 
677593.672,4405144.345,-925.68 
677593.672,4404944.345,-932.87 
677593.672,4404744.345,-935.11 
677593.672,4404544.345,-938.05 
677593.672,4404344.345,-937.47 
677593.672,4404144.345,-938.25 
677593.672,4403944.345,-938.9 
677593.672,4403744.345,-938.46 
677593.672,4403544.345,-937.74 
677593.672,4403344.345,-939.32 
677593.672,4403144.345,-939.81 
677593.672,4402944.345,-943.48 
677593.672,4402744.345,-940.54 
677593.672,4402544.345,-940.62 
677593.672,4402344.345,-941.66 
677593.672,4402144.345,-941.85 
677593.672,4401944.345,-939.69 
677593.672,4401744.345,-940.27 
677593.672,4401544.345,-934.32 
677593.672,4401344.345,-931.79 
677593.672,4401144.345,-930.32 
677593.672,4400944.345,-926.35 
677593.672,4400744.345,-921.59 
677593.672,4400544.345,-918.17 
677593.672,4400344.345,-912.53 
677593.672,4400144.345,-908 
677593.672,4399944.345,-906.42 
677593.672,4399744.345,-895.8 
677593.672,4399544.345,-886.07 
677593.672,4399344.345,-851.6 
677593.672,4399144.345,-822.08 
677593.672,4398944.345,-802.33 
677593.672,4398744.345,-786.23 
677593.672,4398544.345,-774.09 
677593.672,4398344.345,-761.96 
677593.672,4398144.345,-746.71 
677593.672,4397944.345,-742.44 
677593.672,4397744.345,-730.03 
677593.672,4397544.345,-722.9 
677593.672,4397344.345,-706.68 
677593.672,4397144.345,-700.49 
677593.672,4396944.345,-691.92 
677593.672,4396744.345,-682.4 
677593.672,4396544.345,-667.34 
677593.672,4396344.345,-663.43 
677593.672,4396144.345,-648.66 
677593.672,4395944.345,-618.7 
677593.672,4395744.345,-596.89 
677593.672,4390144.345,-598.18 
677593.672,4389944.345,-640.96 
677593.672,4389744.345,-681.8 
677593.672,4389544.345,-728.2 
677593.672,4389344.345,-751.8 
677593.672,4389144.345,-772.62 
677593.672,4388944.345,-802.87 
677593.672,4388744.345,-827.61 
677593.672,4388544.345,-828 
677593.672,4388344.345,-829.15 
677593.672,4388144.345,-832.72 
677593.672,4387944.345,-838.35 
677593.672,4387744.345,-842.31 
677593.672,4387544.345,-846.06 
677593.672,4387344.345,-851.98 
677593.672,4387144.345,-856.48 
677593.672,4386944.345,-859.95 
677593.672,4386744.345,-863.28 
677593.672,4386544.345,-842.42 
677593.672,4386344.345,-794.85 
677593.672,4386144.345,-757.47 
677593.672,4385944.345,-722.99 
677593.672,4385744.345,-698.12 
677593.672,4385544.345,-691.73 
677593.672,4385344.345,-672.04 
677593.672,4385144.345,-670.98 
677593.672,4384944.345,-669.22 
677593.672,4384744.345,-664.42 
677593.672,4384544.345,-659.97 
677593.672,4384344.345,-660.47 
677593.672,4384144.345,-657.05 
677593.672,4383944.345,-653.21 
677593.672,4383744.345,-645.03 
677593.672,4383544.345,-639.01 
677593.672,4383344.345,-633.84 
677593.672,4383144.345,-627.76 
677593.672,4382944.345,-620.58 
677593.672,4382744.345,-616.87 
677593.672,4382544.345,-614.84 
677593.672,4382344.345,-608.57 
677593.672,4382144.345,-605.57 
677593.672,4381944.345,-600.3 
677593.672,4381744.345,-597.57 
677593.672,4381544.345,-591.35 
677593.672,4381344.345,-589.3 
677793.672,4405944.345,-767.61 
677793.672,4405744.345,-807.8 
677793.672,4405544.345,-854.07 
677793.672,4405344.345,-897.25 
677793.672,4405144.345,-927.65 
677793.672,4404944.345,-935.77 
677793.672,4404744.345,-940.56 
677793.672,4404544.345,-939.3 
677793.672,4404344.345,-940.56 
677793.672,4404144.345,-940.53 
677793.672,4403944.345,-941.32 
677793.672,4403744.345,-941.32 
677793.672,4403544.345,-940.82 
677793.672,4403344.345,-939.8 
677793.672,4403144.345,-940.77 
677793.672,4402944.345,-942.95 
677793.672,4402744.345,-945.41 
677793.672,4402544.345,-945.59 
677793.672,4402344.345,-945.29 
677793.672,4402144.345,-943.9 
677793.672,4401944.345,-939.55 
677793.672,4401744.345,-935.92 
677793.672,4401544.345,-934.91 
677793.672,4401344.345,-934.83 
677793.672,4401144.345,-930.83 
677793.672,4400944.345,-926.67 
677793.672,4400744.345,-922.82 
677793.672,4400544.345,-918.18 
677793.672,4400344.345,-913.93 
677793.672,4400144.345,-908.7 
677793.672,4399944.345,-908.29 
677793.672,4399744.345,-900.01 
677793.672,4399544.345,-889.62 
677793.672,4399344.345,-847.84 
677793.672,4399144.345,-821.65 
677793.672,4398944.345,-799.03 
677793.672,4398744.345,-784.57 
677793.672,4398544.345,-767.41 
677793.672,4398344.345,-759.94 
677793.672,4398144.345,-749.86 
677793.672,4397944.345,-741.81 
677793.672,4397744.345,-733.22 
677793.672,4397544.345,-725.76 
677793.672,4397344.345,-716.45 
677793.672,4397144.345,-705.13 
677793.672,4396944.345,-695.3 
677793.672,4396744.345,-685.96 
677793.672,4396544.345,-676.19 
677793.672,4396344.345,-665.61 
677793.672,4396144.345,-642.27 
677793.672,4395944.345,-628.55 
677793.672,4395744.345,-598.15 
677793.672,4390144.345,-614.73 
677793.672,4389944.345,-651.56 
677793.672,4389744.345,-688.87 
677793.672,4389544.345,-731.13 
677793.672,4389344.345,-755.67 
677793.672,4389144.345,-787.72 
677793.672,4388944.345,-816.87 
677793.672,4388744.345,-828.78 
677793.672,4388544.345,-827.27 
677793.672,4388344.345,-829.55 
677793.672,4388144.345,-830.98 
677793.672,4387944.345,-836.62 
677793.672,4387744.345,-841.58 
677793.672,4387544.345,-845.07 
677793.672,4387344.345,-854.14 
677793.672,4387144.345,-860.94 
677793.672,4386944.345,-864.52 
677793.672,4386744.345,-866.75 
677793.672,4386544.345,-850.02 
677793.672,4386344.345,-805.02 
677793.672,4386144.345,-762.8 
677793.672,4385944.345,-729.35 
677793.672,4385744.345,-694.77 
677793.672,4385544.345,-663.1 
677793.672,4385344.345,-655.6 
677793.672,4385144.345,-654.14 
677793.672,4384944.345,-652.14 
677793.672,4384744.345,-648.56 
677793.672,4384544.345,-650.86 
677793.672,4384344.345,-649.78 
677793.672,4384144.345,-647.28 
677793.672,4383944.345,-643.49 
677793.672,4383744.345,-639.61 
677793.672,4383544.345,-636.49 
677793.672,4383344.345,-632.59 
677793.672,4383144.345,-629.8 
677793.672,4382944.345,-620.09 
677793.672,4382744.345,-618.84 
677793.672,4382544.345,-610.72 
677793.672,4382344.345,-607.15 
677793.672,4382144.345,-604.96 
677793.672,4381944.345,-600.45 
677793.672,4381744.345,-595.21 
677793.672,4381544.345,-592.72 
677793.672,4381344.345,-588.77 
677793.672,4381144.345,-581.72 
677993.672,4405944.345,-774.86 
677993.672,4405744.345,-817.82 
677993.672,4405544.345,-868.6 
677993.672,4405344.345,-913.4 
677993.672,4405144.345,-931.2 
677993.672,4404944.345,-934.14 
677993.672,4404744.345,-937.61 
677993.672,4404544.345,-940.9 
677993.672,4404344.345,-942.81 
677993.672,4404144.345,-943.36 
677993.672,4403944.345,-944.1 
677993.672,4403744.345,-943.63 
677993.672,4403544.345,-943.71 
677993.672,4403344.345,-943.08 
677993.672,4403144.345,-943.45 
677993.672,4402944.345,-941.96 
677993.672,4402744.345,-943.78 
677993.672,4402544.345,-943.51 
677993.672,4402344.345,-943.72 
677993.672,4402144.345,-941.87 
677993.672,4401944.345,-941.68 
677993.672,4401744.345,-938.75 
677993.672,4401544.345,-936.36 
677993.672,4401344.345,-934.31 
677993.672,4401144.345,-933.42 
677993.672,4400944.345,-932.98 
677993.672,4400744.345,-925.25 
677993.672,4400544.345,-920.64 
677993.672,4400344.345,-915.7 
677993.672,4400144.345,-913.73 
677993.672,4399944.345,-907.69 
677993.672,4399744.345,-902.38 
677993.672,4399544.345,-886.57 
677993.672,4399344.345,-848.02 
677993.672,4399144.345,-819.84 
677993.672,4398944.345,-796.24 
677993.672,4398744.345,-784.79 
677993.672,4398544.345,-769.84 
677993.672,4398344.345,-756.4 
677993.672,4398144.345,-749.85 
677993.672,4397944.345,-741.42 
677993.672,4397744.345,-732.91 
677993.672,4397544.345,-722.07 
677993.672,4397344.345,-713.13 
677993.672,4397144.345,-699.5 
677993.672,4396944.345,-697.51 
677993.672,4396744.345,-680.51 
677993.672,4396544.345,-667.84 
677993.672,4396344.345,-661.78 
677993.672,4396144.345,-648.2 
677993.672,4395944.345,-626 
677993.672,4395744.345,-588.52 
677993.672,4390344.345,-609.15 
677993.672,4390144.345,-632.72 
677993.672,4389944.345,-666.72 
677993.672,4389744.345,-700.19 
677993.672,4389544.345,-740.51 
677993.672,4389344.345,-771.77 
677993.672,4389144.345,-799.24 
677993.672,4388944.345,-827.72 
677993.672,4388744.345,-831.75 
677993.672,4388544.345,-831.79 
677993.672,4388344.345,-831.91 
677993.672,4388144.345,-831 
677993.672,4387944.345,-833.57 
677993.672,4387744.345,-836.96 
677993.672,4387544.345,-846.4 
677993.672,4387344.345,-850.99 
677993.672,4387144.345,-866.37 
677993.672,4386944.345,-868.84 
677993.672,4386744.345,-868.08 
677993.672,4386544.345,-852.91 
677993.672,4386344.345,-812.33 
677993.672,4386144.345,-790.72 
677993.672,4385944.345,-754.2 
677993.672,4385744.345,-707.2 
677993.672,4385544.345,-673.11 
677993.672,4385344.345,-654.63 
677993.672,4385144.345,-640.38 
677993.672,4384944.345,-639.55 
677993.672,4384744.345,-639.84 
677993.672,4384544.345,-640.37 
677993.672,4384344.345,-639.62 
677993.672,4384144.345,-640.41 
677993.672,4383944.345,-640.75 
677993.672,4383744.345,-632.65 
677993.672,4383544.345,-628.35 
677993.672,4383344.345,-626.33 
677993.672,4383144.345,-626.89 
677993.672,4382944.345,-620.53 
677993.672,4382744.345,-616.53 
677993.672,4382544.345,-616.2 
677993.672,4382344.345,-608.4 
677993.672,4382144.345,-603.72 
677993.672,4381944.345,-600.61 
677993.672,4381744.345,-596.74 
677993.672,4381544.345,-590.06 
677993.672,4381344.345,-586.88 
678193.672,4405944.345,-783.68 
678193.672,4405744.345,-828.15 
678193.672,4405544.345,-874.69 
678193.672,4405344.345,-919.77 
678193.672,4405144.345,-932.08 
678193.672,4404944.345,-935.05 
678193.672,4404744.345,-937.05 
678193.672,4404544.345,-939.95 
678193.672,4404344.345,-943.06 
678193.672,4404144.345,-943.69 
678193.672,4403944.345,-945.15 
678193.672,4403744.345,-947.36 
678193.672,4403544.345,-946.11 
678193.672,4403344.345,-947.82 
678193.672,4403144.345,-946.2 
678193.672,4402944.345,-944.69 
678193.672,4402744.345,-945.34 
678193.672,4402544.345,-944.15 
678193.672,4402344.345,-943.58 
678193.672,4402144.345,-944.05 
678193.672,4401944.345,-942.83 
678193.672,4401744.345,-943.42 
678193.672,4401544.345,-937.32 
678193.672,4401344.345,-936.77 
678193.672,4401144.345,-936.71 
678193.672,4400944.345,-933.54 
678193.672,4400744.345,-927.02 
678193.672,4400544.345,-925.65 
678193.672,4400344.345,-919.91 
678193.672,4400144.345,-915.62 
678193.672,4399944.345,-908.76 
678193.672,4399744.345,-904.59 
678193.672,4399544.345,-890.27 
678193.672,4399344.345,-853.6 
678193.672,4399144.345,-831.64 
678193.672,4398944.345,-800.75 
678193.672,4398744.345,-782.85 
678193.672,4398544.345,-770.4 
678193.672,4398344.345,-759.77 
678193.672,4398144.345,-754.57 
678193.672,4397944.345,-741.91 
678193.672,4397744.345,-731.56 
678193.672,4397544.345,-724.04 
678193.672,4397344.345,-711.51 
678193.672,4397144.345,-696.43 
678193.672,4396944.345,-682.4 
678193.672,4396744.345,-676.96 
678193.672,4396544.345,-665.49 
678193.672,4396344.345,-653.67 
678193.672,4396144.345,-641.1 
678193.672,4395944.345,-608.06 
678193.672,4395744.345,-585.01 
678193.672,4390344.345,-612.17 
678193.672,4390144.345,-648.58 
678193.672,4389944.345,-687.54 
678193.672,4389744.345,-719.35 
678193.672,4389544.345,-759.15 
678193.672,4389344.345,-797.28 
678193.672,4389144.345,-818.32 
678193.672,4388944.345,-834.64 
678193.672,4388744.345,-837.53 
678193.672,4388544.345,-833.86 
678193.672,4388344.345,-834.04 
678193.672,4388144.345,-835.09 
678193.672,4387944.345,-834.44 
678193.672,4387744.345,-839.22 
678193.672,4387544.345,-847.88 
678193.672,4387344.345,-858.1 
678193.672,4387144.345,-873.33 
678193.672,4386944.345,-888.52 
678193.672,4386744.345,-882.22 
678193.672,4386544.345,-862.59 
678193.672,4386344.345,-829.33 
678193.672,4386144.345,-806.54 
678193.672,4385944.345,-785.91 
678193.672,4385744.345,-731.69 
678193.672,4385544.345,-685.59 
678193.672,4385344.345,-664.21 
678193.672,4385144.345,-650.57 
678193.672,4384944.345,-634.93 
678193.672,4384744.345,-633.08 
678193.672,4384544.345,-631.46 
678193.672,4384344.345,-632.76 
678193.672,4384144.345,-632.9 
678193.672,4383944.345,-628.47 
678193.672,4383744.345,-626.8 
678193.672,4383544.345,-623.82 
678193.672,4383344.345,-621.98 
678193.672,4383144.345,-620.88 
678193.672,4382944.345,-616.14 
678193.672,4382744.345,-617.76 
678193.672,4382544.345,-614.89 
678193.672,4382344.345,-611.35 
678193.672,4382144.345,-605.61 
678193.672,4381944.345,-599.97 
678193.672,4381744.345,-598.11 
678193.672,4381544.345,-594.49 
678193.672,4381344.345,-588.71 
678193.672,4381144.345,-580.44 
678393.672,4405944.345,-788.34 
678393.672,4405744.345,-835.48 
678393.672,4405544.345,-882.07 
678393.672,4405344.345,-923.47 
678393.672,4405144.345,-933.34 
678393.672,4404944.345,-936.2 
678393.672,4404744.345,-939.31 
678393.672,4404544.345,-943.54 
678393.672,4404344.345,-944.77 
678393.672,4404144.345,-945.48 
678393.672,4403944.345,-947.8 
678393.672,4403744.345,-946.71 
678393.672,4403544.345,-946.42 
678393.672,4403344.345,-948.21 
678393.672,4403144.345,-947.04 
678393.672,4402944.345,-944.41 
678393.672,4402744.345,-945.24 
678393.672,4402544.345,-944.35 
678393.672,4402344.345,-947.13 
678393.672,4402144.345,-943.14 
678393.672,4401944.345,-944.52 
678393.672,4401744.345,-943.67 
678393.672,4401544.345,-939.13 
678393.672,4401344.345,-941.65 
678393.672,4401144.345,-936.88 
678393.672,4400944.345,-935.93 
678393.672,4400744.345,-933.02 
678393.672,4400544.345,-928.61 
678393.672,4400344.345,-923.03 
678393.672,4400144.345,-919.14 
678393.672,4399944.345,-912.2 
678393.672,4399744.345,-906.62 
678393.672,4399544.345,-894.46 
678393.672,4399344.345,-857.14 
678393.672,4399144.345,-830.18 
678393.672,4398944.345,-804.04 
678393.672,4398744.345,-777.68 
678393.672,4398544.345,-763.45 
678393.672,4398344.345,-759.38 
678393.672,4398144.345,-752.26 
678393.672,4397944.345,-742.2 
678393.672,4397744.345,-730.78 
678393.672,4397544.345,-715.95 
678393.672,4397344.345,-702.12 
678393.672,4397144.345,-689.77 
678393.672,4396944.345,-675.99 
678393.672,4396744.345,-665.34 
678393.672,4396544.345,-653.17 
678393.672,4396344.345,-640.27 
678393.672,4396144.345,-626.18 
678393.672,4395944.345,-596.8 
678393.672,4395744.345,-583.14 
678393.672,4390744.345,-584.73 
678393.672,4390544.345,-611.88 
678393.672,4390344.345,-640.56 
678393.672,4390144.345,-672.01 
678393.672,4389944.345,-707.2 
678393.672,4389744.345,-740.99 
678393.672,4389544.345,-774.76 
678393.672,4389344.345,-804.54 
678393.672,4389144.345,-831.65 
678393.672,4388944.345,-839.64 
678393.672,4388744.345,-838.88 
678393.672,4388544.345,-836.81 
678393.672,4388344.345,-837.87 
678393.672,4388144.345,-835.25 
678393.672,4387944.345,-835.87 
678393.672,4387744.345,-841.89 
678393.672,4387544.345,-847.96 
678393.672,4387344.345,-865.79 
678393.672,4387144.345,-875.69 
678393.672,4386944.345,-882.56 
678393.672,4386744.345,-876.2 
678393.672,4386544.345,-864.78 
678393.672,4386344.345,-831.44 
678393.672,4386144.345,-808.75 
678393.672,4385944.345,-794.1 
678393.672,4385744.345,-760.83 
678393.672,4385544.345,-704.44 
678393.672,4385344.345,-676.5 
678393.672,4385144.345,-667.97 
678393.672,4384944.345,-658.48 
678393.672,4384744.345,-635.88 
678393.672,4384544.345,-629.77 
678393.672,4384344.345,-628.62 
678393.672,4384144.345,-626.92 
678393.672,4383944.345,-625.6 
678393.672,4383744.345,-624.95 
678393.672,4383544.345,-619.77 
678393.672,4383344.345,-619.73 
678393.672,4383144.345,-617.72 
678393.672,4382944.345,-616.76 
678393.672,4382744.345,-614.49 
678393.672,4382544.345,-615.18 
678393.672,4382344.345,-611.6 
678393.672,4382144.345,-607.54 
678393.672,4381944.345,-603.84 
678393.672,4381744.345,-605.08 
678393.672,4381544.345,-594.36 
678393.672,4381344.345,-587.18 
678393.672,4381144.345,-582.63 
678593.672,4405944.345,-797.44 
678593.672,4405744.345,-840.29 
678593.672,4405544.345,-886.45 
678593.672,4405344.345,-923.86 
678593.672,4405144.345,-931.6 
678593.672,4404944.345,-935.57 
678593.672,4404744.345,-939.24 
678593.672,4404544.345,-942.69 
678593.672,4404344.345,-946.16 
678593.672,4404144.345,-946.22 
678593.672,4403944.345,-948.21 
678593.672,4403744.345,-948.77 
678593.672,4403544.345,-949.82 
678593.672,4403344.345,-948.72 
678593.672,4403144.345,-947.38 
678593.672,4402944.345,-948.81 
678593.672,4402744.345,-947.09 
678593.672,4402544.345,-946.3 
678593.672,4402344.345,-946.42 
678593.672,4402144.345,-944.72 
678593.672,4401944.345,-945.33 
678593.672,4401744.345,-941.47 
678593.672,4401544.345,-941.17 
678593.672,4401344.345,-941.29 
678593.672,4401144.345,-941.66 
678593.672,4400944.345,-935.7 
678593.672,4400744.345,-933.88 
678593.672,4400544.345,-933.21 
678593.672,4400344.345,-924.76 
678593.672,4400144.345,-921.77 
678593.672,4399944.345,-917.95 
678593.672,4399744.345,-902.45 
678593.672,4399544.345,-882.89 
678593.672,4399344.345,-856.3 
678593.672,4399144.345,-827.27 
678593.672,4398944.345,-799.33 
678593.672,4398744.345,-771.9 
678593.672,4398544.345,-754.6 
678593.672,4398344.345,-753.24 
678593.672,4398144.345,-745.79 
678593.672,4397944.345,-736.73 
678593.672,4397744.345,-720.91 
678593.672,4397544.345,-708.2 
678593.672,4397344.345,-696.02 
678593.672,4397144.345,-681.17 
678593.672,4396944.345,-670.49 
678593.672,4396744.345,-658.25 
678593.672,4396544.345,-642.23 
678593.672,4396344.345,-625.13 
678593.672,4396144.345,-609.22 
678593.672,4395944.345,-591.67 
678593.672,4390744.345,-616.91 
678593.672,4390544.345,-641.08 
678593.672,4390344.345,-663.45 
678593.672,4390144.345,-698.94 
678593.672,4389944.345,-729.32 
678593.672,4389744.345,-756.51 
678593.672,4389544.345,-789 
678593.672,4389344.345,-815.77 
678593.672,4389144.345,-838.91 
678593.672,4388944.345,-841.28 
678593.672,4388744.345,-843.02 
678593.672,4388544.345,-842.13 
678593.672,4388344.345,-840.98 
678593.672,4388144.345,-841.33 
678593.672,4387944.345,-843.87 
678593.672,4387744.345,-846.02 
678593.672,4387544.345,-850.74 
678593.672,4387344.345,-864.69 
678593.672,4387144.345,-878.66 
678593.672,4386944.345,-884.77 
678593.672,4386744.345,-881.78 
678593.672,4386544.345,-864.43 
678593.672,4386344.345,-826.45 
678593.672,4386144.345,-799.69 
678593.672,4385944.345,-786.86 
678593.672,4385744.345,-772.43 
678593.672,4385544.345,-739.12 
678593.672,4385344.345,-700.93 
678593.672,4385144.345,-683.79 
678593.672,4384944.345,-677.79 
678593.672,4384744.345,-666.35 
678593.672,4384544.345,-649.81 
678593.672,4384344.345,-636.44 
678593.672,4384144.345,-627.55 
678593.672,4383944.345,-624.84 
678593.672,4383744.345,-623.81 
678593.672,4383544.345,-621.55 
678593.672,4383344.345,-620.41 
678593.672,4383144.345,-617.16 
678593.672,4382944.345,-614.8 
678593.672,4382744.345,-612.89 
678593.672,4382544.345,-612.87 
678593.672,4382344.345,-608.64 
678593.672,4382144.345,-607.81 
678593.672,4381944.345,-603.87 
678593.672,4381744.345,-600.38 
678593.672,4381544.345,-598.35 
678593.672,4381344.345,-592.6 
678593.672,4381144.345,-585.27 
678593.672,4380944.345,-582.38 
678793.672,4405944.345,-798.46 
678793.672,4405744.345,-841.34 
678793.672,4405544.345,-885.86 
678793.672,4405344.345,-921.83 
678793.672,4405144.345,-929.2 
678793.672,4404944.345,-934.88 
678793.672,4404744.345,-940.22 
678793.672,4404544.345,-943.38 
678793.672,4404344.345,-944.94 
678793.672,4404144.345,-946.33 
678793.672,4403944.345,-948.86 
678793.672,4403744.345,-948.64 
678793.672,4403544.345,-948.91 
678793.672,4403344.345,-949.92 
678793.672,4403144.345,-949.7 
678793.672,4402944.345,-946.58 
678793.672,4402744.345,-948.29 
678793.672,4402544.345,-949.37 
678793.672,4402344.345,-946.1 
678793.672,4402144.345,-945.24 
678793.672,4401944.345,-945.34 
678793.672,4401744.345,-942.55 
678793.672,4401544.345,-942.58 
678793.672,4401344.345,-941.73 
678793.672,4401144.345,-939.76 
678793.672,4400944.345,-937.53 
678793.672,4400744.345,-935.48 
678793.672,4400544.345,-933.57 
678793.672,4400344.345,-929.37 
678793.672,4400144.345,-927.1 
678793.672,4399944.345,-917.71 
678793.672,4399744.345,-900.44 
678793.672,4399544.345,-877.31 
678793.672,4399344.345,-845.18 
678793.672,4399144.345,-819.21 
678793.672,4398944.345,-787.89 
678793.672,4398744.345,-770.64 
678793.672,4398544.345,-753.43 
678793.672,4398344.345,-743.94 
678793.672,4398144.345,-735.56 
678793.672,4397944.345,-731.58 
678793.672,4397744.345,-718.67 
678793.672,4397544.345,-703.1 
678793.672,4397344.345,-687.82 
678793.672,4397144.345,-671.9 
678793.672,4396944.345,-659.26 
678793.672,4396744.345,-646.74 
678793.672,4396544.345,-635.87 
678793.672,4396344.345,-621.93 
678793.672,4396144.345,-602.01 
678793.672,4395944.345,-587.19 
678793.672,4390944.345,-606.57 
678793.672,4390744.345,-639.13 
678793.672,4390544.345,-666.68 
678793.672,4390344.345,-689.93 
678793.672,4390144.345,-715.89 
678793.672,4389944.345,-750.21 
678793.672,4389744.345,-782.89 
678793.672,4389544.345,-806.03 
678793.672,4389344.345,-835.1 
678793.672,4389144.345,-844.78 
678793.672,4388944.345,-844.79 
678793.672,4388744.345,-847.22 
678793.672,4388544.345,-846.38 
678793.672,4388344.345,-844.68 
678793.672,4388144.345,-845.19 
678793.672,4387944.345,-843.58 
678793.672,4387744.345,-847.45 
678793.672,4387544.345,-859.11 
678793.672,4387344.345,-866.18 
678793.672,4387144.345,-878.02 
678793.672,4386944.345,-886.81 
678793.672,4386744.345,-880.36 
678793.672,4386544.345,-866.63 
678793.672,4386344.345,-825.98 
678793.672,4386144.345,-797.27 
678793.672,4385944.345,-782.58 
678793.672,4385744.345,-767.71 
678793.672,4385544.345,-755.13 
678793.672,4385344.345,-732.12 
678793.672,4385144.345,-715.42 
678793.672,4384944.345,-698.44 
678793.672,4384744.345,-677.86 
678793.672,4384544.345,-673.05 
678793.672,4384344.345,-669.22 
678793.672,4384144.345,-650 
678793.672,4383944.345,-633.76 
678793.672,4383744.345,-629.55 
678793.672,4383544.345,-628.55 
678793.672,4383344.345,-627.45 
678793.672,4383144.345,-624.99 
678793.672,4382944.345,-621.98 
678793.672,4382744.345,-617.23 
678793.672,4382544.345,-615.17 
678793.672,4382344.345,-613.52 
678793.672,4382144.345,-608.74 
678793.672,4381944.345,-608.96 
678793.672,4381744.345,-604.25 
678793.672,4381544.345,-598.61 
678793.672,4381344.345,-592.76 
678793.672,4381144.345,-593.03 
678793.672,4380944.345,-585.37 
678793.672,4380744.345,-581.62 
678993.672,4405944.345,-805.44 
678993.672,4405744.345,-843.69 
678993.672,4405544.345,-887.29 
678993.672,4405344.345,-922.14 
678993.672,4405144.345,-930.13 
678993.672,4404944.345,-933.38 
678993.672,4404744.345,-938.82 
678993.672,4404544.345,-943.86 
678993.672,4404344.345,-945.73 
678993.672,4404144.345,-945.73 
678993.672,4403944.345,-947.42 
678993.672,4403744.345,-948.79 
678993.672,4403544.345,-947.7 
678993.672,4403344.345,-948.47 
678993.672,4403144.345,-948.97 
678993.672,4402944.345,-947.32 
678993.672,4402744.345,-949.1 
678993.672,4402544.345,-947.45 
678993.672,4402344.345,-948.07 
678993.672,4402144.345,-946.32 
678993.672,4401944.345,-946.38 
678993.672,4401744.345,-943.9 
678993.672,4401544.345,-943.56 
678993.672,4401344.345,-943.4 
678993.672,4401144.345,-941.44 
678993.672,4400944.345,-938.46 
678993.672,4400744.345,-937.41 
678993.672,4400544.345,-934.66 
678993.672,4400344.345,-930.81 
678993.672,4400144.345,-924.45 
678993.672,4399944.345,-917.34 
678993.672,4399744.345,-900.67 
678993.672,4399544.345,-874.94 
678993.672,4399344.345,-841.55 
678993.672,4399144.345,-814.45 
678993.672,4398944.345,-786.44 
678993.672,4398744.345,-767.55 
678993.672,4398544.345,-750.38 
678993.672,4398344.345,-740.87 
678993.672,4398144.345,-733.16 
678993.672,4397944.345,-724.27 
678993.672,4397744.345,-714.84 
678993.672,4397544.345,-705.78 
678993.672,4397344.345,-687.66 
678993.672,4397144.345,-671.14 
678993.672,4396944.345,-654.46 
678993.672,4396744.345,-642.87 
678993.672,4396544.345,-627.49 
678993.672,4396344.345,-618.37 
678993.672,4396144.345,-606.2 
678993.672,4395944.345,-589.42 
678993.672,4391144.345,-590.5 
678993.672,4390944.345,-625.33 
678993.672,4390744.345,-657.03 
678993.672,4390544.345,-683.42 
678993.672,4390344.345,-717.83 
678993.672,4390144.345,-749.81 
678993.672,4389944.345,-770.58 
678993.672,4389744.345,-802.72 
678993.672,4389544.345,-829.62 
678993.672,4389344.345,-842 
678993.672,4389144.345,-848.75 
678993.672,4388944.345,-847.88 
678993.672,4388744.345,-848.6 
678993.672,4388544.345,-850.23 
678993.672,4388344.345,-847.79 
678993.672,4388144.345,-847.52 
678993.672,4387944.345,-848.77 
678993.672,4387744.345,-851.91 
678993.672,4387544.345,-862.08 
678993.672,4387344.345,-866.88 
678993.672,4387144.345,-874.78 
678993.672,4386944.345,-887.65 
678993.672,4386744.345,-883.07 
678993.672,4386544.345,-876.57 
678993.672,4386344.345,-846.16 
678993.672,4386144.345,-810.03 
678993.672,4385944.345,-785.88 
678993.672,4385744.345,-767.59 
678993.672,4385544.345,-760.82 
678993.672,4385344.345,-752.97 
678993.672,4385144.345,-738.88 
678993.672,4384944.345,-725.02 
678993.672,4384744.345,-704.36 
678993.672,4384544.345,-690.12 
678993.672,4384344.345,-688.38 
678993.672,4384144.345,-681.95 
678993.672,4383944.345,-664.88 
678993.672,4383744.345,-655.62 
678993.672,4383544.345,-649.04 
678993.672,4383344.345,-645.59 
678993.672,4383144.345,-642.6 
678993.672,4382944.345,-638.09 
678993.672,4382744.345,-631.96 
678993.672,4382544.345,-627.47 
678993.672,4382344.345,-621.68 
678993.672,4382144.345,-616.61 
678993.672,4381944.345,-614.06 
678993.672,4381744.345,-609.21 
678993.672,4381544.345,-603.72 
678993.672,4381344.345,-599.54 
678993.672,4381144.345,-592.01 
678993.672,4380944.345,-591.99 
678993.672,4380744.345,-590.65 
678993.672,4380544.345,-582.65 
678993.672,4380344.345,-580.66 
679193.672,4405944.345,-804.21 
679193.672,4405744.345,-841.32 
679193.672,4405544.345,-879.97 
679193.672,4405344.345,-921.17 
679193.672,4405144.345,-932.04 
679193.672,4404944.345,-935.06 
679193.672,4404744.345,-936.68 
679193.672,4404544.345,-943.39 
679193.672,4404344.345,-944.28 
679193.672,4404144.345,-946.38 
679193.672,4403944.345,-946.05 
679193.672,4403744.345,-947.43 
679193.672,4403544.345,-948.4 
679193.672,4403344.345,-948.96 
679193.672,4403144.345,-949.96 
679193.672,4402944.345,-947.62 
679193.672,4402744.345,-949.27 
679193.672,4402544.345,-948.77 
679193.672,4402344.345,-948.65 
679193.672,4402144.345,-947.66 
679193.672,4401944.345,-947.53 
679193.672,4401744.345,-944.4 
679193.672,4401544.345,-942.7 
679193.672,4401344.345,-942.84 
679193.672,4401144.345,-942.74 
679193.672,4400944.345,-942.29 
679193.672,4400744.345,-939.33 
679193.672,4400544.345,-936.66 
679193.672,4400344.345,-931.68 
679193.672,4400144.345,-927.57 
679193.672,4399944.345,-914.73 
679193.672,4399744.345,-896.03 
679193.672,4399544.345,-865.15 
679193.672,4399344.345,-832.49 
679193.672,4399144.345,-804.61 
679193.672,4398944.345,-779.92 
679193.672,4398744.345,-760.47 
679193.672,4398544.345,-752.96 
679193.672,4398344.345,-740.59 
679193.672,4398144.345,-730.59 
679193.672,4397944.345,-719.69 
679193.672,4397744.345,-706.1 
679193.672,4397544.345,-696.79 
679193.672,4397344.345,-687.8 
