685464.000,4357227.500,-26.172 
685464.000,4357177.500,-26.14 
685464.000,4357127.500,-26.25 
685464.000,4357077.500,-26.367 
685464.000,4357027.500,-26.471 
685464.000,4356977.500,-26.455 
685464.000,4356927.500,-26.656 
685464.000,4356877.500,-26.765 
685464.000,4356827.500,-27.113 
685464.000,4356777.500,-26.702 
685464.000,4356727.500,-27.199 
685464.000,4356677.500,-27.438 
685464.000,4356627.500,-27.692 
685464.000,4356577.500,-27.668 
685464.000,4356527.500,-27.711 
685464.000,4356477.500,-27.854 
685464.000,4356427.500,-27.908 
685464.000,4356377.500,-27.936 
685464.000,4356327.500,-28.301 
685464.000,4356277.500,-28.189 
685464.000,4356227.500,-28.578 
685464.000,4356177.500,-28.78 
685464.000,4356127.500,-29.067 
685464.000,4356077.500,-29.228 
685464.000,4356027.500,-29.767 
685464.000,4355977.500,-29.844 
685464.000,4355927.500,-29.99 
685464.000,4355877.500,-30.186 
685464.000,4355827.500,-30.254 
685464.000,4355777.500,-30.352 
685464.000,4355727.500,-30.886 
685464.000,4355677.500,-30.308 
685464.000,4355627.500,-30.582 
685464.000,4355577.500,-30.73 
685464.000,4355527.500,-30.747 
685464.000,4355477.500,-30.839 
685464.000,4355427.500,-31.146 
685464.000,4355377.500,-31.304 
685464.000,4355327.500,-31.421 
685464.000,4355277.500,-31.684 
685464.000,4355227.500,-31.465 
685464.000,4355177.500,-32.236 
685464.000,4355127.500,-32.031 
685464.000,4355077.500,-32.357 
685464.000,4355027.500,-32.704 
685464.000,4354977.500,-33.25 
685464.000,4354927.500,-33.154 
685464.000,4354877.500,-33.312 
685464.000,4354827.500,-33.499 
685464.000,4354777.500,-33.925 
685464.000,4354727.500,-34.067 
685464.000,4354677.500,-34.566 
685464.000,4354627.500,-34.692 
685464.000,4354577.500,-34.76 
685464.000,4354527.500,-35.115 
685464.000,4354477.500,-35.36 
685464.000,4354427.500,-35.497 
685464.000,4354377.500,-35.819 
685464.000,4354327.500,-36.121 
685464.000,4354277.500,-36.26 
685464.000,4354227.500,-36.592 
685464.000,4354177.500,-36.5 
685464.000,4354127.500,-36.728 
685514.000,4369277.500,-159.68 
685514.000,4369227.500,-159.18 
685514.000,4369177.500,-157.59 
685514.000,4369127.500,-155.94 
685514.000,4369077.500,-153.91 
685514.000,4369027.500,-152.56 
685514.000,4368977.500,-151.07 
685514.000,4368927.500,-149.23 
685514.000,4368877.500,-147.25 
685514.000,4368827.500,-145.66 
685514.000,4368777.500,-144 
685514.000,4368727.500,-142.39 
685514.000,4368677.500,-141.16 
685514.000,4368627.500,-140.03 
685514.000,4368577.500,-138.52 
685514.000,4368527.500,-135.95 
685514.000,4368477.500,-132.86 
685514.000,4368427.500,-130.02 
685514.000,4368377.500,-126.89 
685514.000,4368327.500,-122.38 
685514.000,4368277.500,-119.47 
685514.000,4368227.500,-117.33 
685514.000,4368177.500,-115.64 
685514.000,4368127.500,-114.25 
685514.000,4368077.500,-113.03 
685514.000,4368027.500,-112 
685514.000,4367977.500,-110.97 
685514.000,4367927.500,-110.05 
685514.000,4367877.500,-109.38 
685514.000,4367827.500,-108.6 
685514.000,4367777.500,-107.82 
685514.000,4367727.500,-107.21 
685514.000,4367677.500,-106.64 
685514.000,4367627.500,-105.92 
685514.000,4367577.500,-105.32 
685514.000,4367527.500,-104.92 
685514.000,4367477.500,-104.21 
685514.000,4367427.500,-103.89 
685514.000,4367377.500,-103.29 
685514.000,4367327.500,-102.58 
685514.000,4367277.500,-102.02 
685514.000,4367227.500,-101.66 
685514.000,4367177.500,-101.15 
685514.000,4367127.500,-98.52 
685514.000,4367077.500,-97.46 
685514.000,4367027.500,-97.22 
685514.000,4366977.500,-97.23 
685514.000,4366927.500,-97.8 
685514.000,4366877.500,-97.38 
685514.000,4366827.500,-96.84 
685514.000,4366777.500,-96.3 
685514.000,4366727.500,-95.7 
685514.000,4366677.500,-94.9 
685514.000,4366627.500,-94.15 
685514.000,4366577.500,-93.27 
685514.000,4366527.500,-92.57 
685514.000,4366477.500,-92.06 
685514.000,4366427.500,-91.23 
685514.000,4366377.500,-90.44 
685514.000,4366327.500,-89.46 
685514.000,4366277.500,-89.563 
685514.000,4366227.500,-88.149 
685514.000,4366177.500,-86.868 
685514.000,4366127.500,-86.246 
685514.000,4366077.500,-85.981 
685514.000,4366027.500,-85.284 
685514.000,4365977.500,-84.187 
685514.000,4365927.500,-84.227 
685514.000,4365877.500,-83.093 
685514.000,4365827.500,-81.964 
685514.000,4365777.500,-81.317 
685514.000,4365727.500,-80.829 
685514.000,4365677.500,-79.878 
685514.000,4365627.500,-79.214 
685514.000,4365577.500,-78.459 
685514.000,4365527.500,-77.509 
685514.000,4365477.500,-77.238 
685514.000,4365427.500,-76.097 
685514.000,4365377.500,-75.905 
685514.000,4365327.500,-74.896 
685514.000,4365277.500,-74.582 
685514.000,4365227.500,-74.154 
685514.000,4365177.500,-74.15 
685514.000,4365127.500,-74.135 
685514.000,4365077.500,-75.724 
685514.000,4365027.500,-79.804 
685514.000,4364977.500,-93.813 
685514.000,4364927.500,-117.048 
685514.000,4364877.500,-136.633 
685514.000,4364827.500,-150.372 
685514.000,4364777.500,-150.074 
685514.000,4364727.500,-173.26 
685514.000,4364677.500,-203.625 
685514.000,4364627.500,-214.17 
685514.000,4364577.500,-243.997 
685514.000,4364527.500,-242.563 
685514.000,4364477.500,-243.335 
685514.000,4364427.500,-233.802 
685514.000,4364377.500,-231.587 
685514.000,4364327.500,-208.08 
685514.000,4364277.500,-190.256 
685514.000,4364227.500,-163.914 
685514.000,4364177.500,-151.011 
685514.000,4364127.500,-130.872 
685514.000,4364077.500,-122.126 
685514.000,4364027.500,-120.402 
685514.000,4363977.500,-113.85 
685514.000,4363927.500,-98.813 
685514.000,4363877.500,-89.079 
685514.000,4363827.500,-71.71 
685514.000,4363777.500,-50.151 
685514.000,4363727.500,-29.773 
685514.000,4363677.500,-11.032 
685514.000,4363627.500,-8.074 
685514.000,4362427.500,-11.287 
685514.000,4362377.500,-11.886 
685514.000,4362327.500,-12.269 
685514.000,4362277.500,-13.106 
685514.000,4362227.500,-13.693 
685514.000,4362177.500,-14.507 
685514.000,4362127.500,-14.877 
685514.000,4362077.500,-15.078 
685514.000,4362027.500,-15.506 
685514.000,4361977.500,-16.212 
685514.000,4361927.500,-16.194 
685514.000,4361877.500,-16.659 
685514.000,4361827.500,-16.758 
685514.000,4361777.500,-18.235 
685514.000,4361727.500,-19.004 
685514.000,4361677.500,-19.42 
685514.000,4361627.500,-19.824 
685514.000,4361577.500,-20.753 
685514.000,4361527.500,-21.7 
685514.000,4361477.500,-23.391 
685514.000,4361427.500,-25.217 
685514.000,4361377.500,-32.513 
685514.000,4361327.500,-57.993 
685514.000,4361277.500,-76.635 
685514.000,4361227.500,-95.577 
685514.000,4361177.500,-99.413 
685514.000,4361127.500,-75.29 
685514.000,4361077.500,-74.922 
685514.000,4361027.500,-83.511 
685514.000,4360977.500,-106.822 
685514.000,4360927.500,-113.397 
685514.000,4360877.500,-108.556 
685514.000,4360827.500,-135.908 
685514.000,4360777.500,-133.707 
685514.000,4360727.500,-135.706 
685514.000,4360677.500,-151.428 
685514.000,4360627.500,-163.103 
685514.000,4360577.500,-203.186 
685514.000,4360527.500,-203.214 
685514.000,4360477.500,-174.938 
685514.000,4360427.500,-144.898 
685514.000,4360377.500,-117.508 
685514.000,4360327.500,-80.996 
685514.000,4360277.500,-58.584 
685514.000,4360227.500,-34.209 
685514.000,4360177.500,-31.349 
685514.000,4360127.500,-29.503 
685514.000,4360077.500,-28.616 
685514.000,4360027.500,-27.407 
685514.000,4359977.500,-26.599 
685514.000,4359927.500,-25.876 
685514.000,4359877.500,-25.246 
685514.000,4359827.500,-24.587 
685514.000,4359777.500,-24.183 
685514.000,4359727.500,-24.134 
685514.000,4359677.500,-24.078 
685514.000,4359627.500,-24.211 
685514.000,4359577.500,-24.304 
685514.000,4359527.500,-24.526 
685514.000,4359477.500,-24.605 
685514.000,4359427.500,-24.568 
685514.000,4359377.500,-24.863 
685514.000,4359327.500,-24.86 
685514.000,4359277.500,-24.809 
685514.000,4359227.500,-24.871 
685514.000,4359177.500,-24.935 
685514.000,4359127.500,-24.634 
685514.000,4359077.500,-24.658 
685514.000,4359027.500,-24.488 
685514.000,4358977.500,-24.255 
685514.000,4358927.500,-24.305 
685514.000,4358877.500,-24.373 
685514.000,4358827.500,-24.109 
685514.000,4358777.500,-24.027 
685514.000,4358727.500,-24.036 
685514.000,4358677.500,-24.028 
685514.000,4358627.500,-23.937 
685514.000,4358577.500,-24.066 
685514.000,4358527.500,-24.205 
685514.000,4358477.500,-24.05 
685514.000,4358427.500,-24.645 
685514.000,4358377.500,-24.395 
685514.000,4358327.500,-24.305 
685514.000,4358277.500,-24.409 
685514.000,4358227.500,-24.598 
685514.000,4358177.500,-24.803 
685514.000,4358127.500,-24.906 
685514.000,4358077.500,-24.875 
685514.000,4358027.500,-25.393 
685514.000,4357977.500,-25.255 
685514.000,4357927.500,-25.661 
685514.000,4357877.500,-25.864 
685514.000,4357827.500,-26.005 
685514.000,4357777.500,-26.024 
685514.000,4357727.500,-26.053 
685514.000,4357677.500,-26.268 
685514.000,4357627.500,-26.101 
685514.000,4357577.500,-26.328 
685514.000,4357527.500,-26.473 
685514.000,4357477.500,-26.638 
685514.000,4357427.500,-26.724 
685514.000,4357377.500,-26.774 
685514.000,4357327.500,-26.738 
685514.000,4357277.500,-26.649 
685514.000,4357227.500,-26.796 
685514.000,4357177.500,-27.054 
685514.000,4357127.500,-27.023 
685514.000,4357077.500,-27.123 
685514.000,4357027.500,-27.102 
685514.000,4356977.500,-27.508 
685514.000,4356927.500,-27.507 
685514.000,4356877.500,-27.52 
685514.000,4356827.500,-27.812 
685514.000,4356777.500,-28.026 
685514.000,4356727.500,-27.99 
685514.000,4356677.500,-28.252 
685514.000,4356627.500,-28.459 
685514.000,4356577.500,-28.719 
685514.000,4356527.500,-28.46 
685514.000,4356477.500,-28.994 
685514.000,4356427.500,-28.933 
685514.000,4356377.500,-29.099 
685514.000,4356327.500,-29.086 
685514.000,4356277.500,-29.464 
685514.000,4356227.500,-29.472 
685514.000,4356177.500,-29.79 
685514.000,4356127.500,-30.118 
685514.000,4356077.500,-30.31 
685514.000,4356027.500,-30.437 
685514.000,4355977.500,-30.852 
685514.000,4355927.500,-30.999 
685514.000,4355877.500,-31.035 
685514.000,4355827.500,-31.257 
685514.000,4355777.500,-31.254 
685514.000,4355727.500,-31.34 
685514.000,4355677.500,-31.487 
685514.000,4355627.500,-31.652 
685514.000,4355577.500,-31.586 
685514.000,4355527.500,-31.621 
685514.000,4355477.500,-31.767 
685514.000,4355427.500,-31.999 
685514.000,4355377.500,-32.189 
685514.000,4355327.500,-32.31 
685514.000,4355277.500,-32.451 
685514.000,4355227.500,-32.796 
685514.000,4355177.500,-32.416 
685514.000,4355127.500,-33.107 
685514.000,4355077.500,-33.634 
685514.000,4355027.500,-33.442 
685514.000,4354977.500,-33.804 
685514.000,4354927.500,-34.058 
685514.000,4354877.500,-34.432 
685514.000,4354827.500,-34.542 
685514.000,4354777.500,-34.903 
685514.000,4354727.500,-35.199 
685514.000,4354677.500,-34.951 
685514.000,4354627.500,-35.844 
685514.000,4354577.500,-35.883 
685514.000,4354527.500,-36.146 
685514.000,4354477.500,-36.407 
685514.000,4354427.500,-36.62 
685514.000,4354377.500,-36.893 
685514.000,4354327.500,-36.735 
685514.000,4354277.500,-37.293 
685514.000,4354227.500,-37.823 
685514.000,4354177.500,-37.929 
685564.000,4369177.500,-159.49 
685564.000,4369127.500,-158.6 
685564.000,4369077.500,-157 
685564.000,4369027.500,-155.35 
685564.000,4368977.500,-153.61 
685564.000,4368927.500,-151.96 
685564.000,4368877.500,-150.14 
685564.000,4368827.500,-148.45 
685564.000,4368777.500,-146.65 
685564.000,4368727.500,-144.94 
685564.000,4368677.500,-143.14 
685564.000,4368627.500,-141.74 
685564.000,4368577.500,-140.56 
685564.000,4368527.500,-139.48 
685564.000,4368477.500,-137.72 
685564.000,4368427.500,-135.45 
685564.000,4368377.500,-132.93 
685564.000,4368327.500,-130.18 
685564.000,4368277.500,-125.76 
685564.000,4368227.500,-122.57 
685564.000,4368177.500,-119.63 
685564.000,4368127.500,-117.57 
685564.000,4368077.500,-115.82 
685564.000,4368027.500,-114.19 
685564.000,4367977.500,-113.01 
685564.000,4367927.500,-111.95 
685564.000,4367877.500,-110.9 
685564.000,4367827.500,-109.98 
685564.000,4367777.500,-109.36 
685564.000,4367727.500,-108.78 
685564.000,4367677.500,-108.17 
685564.000,4367627.500,-107.55 
685564.000,4367577.500,-106.75 
685564.000,4367527.500,-106.06 
685564.000,4367477.500,-105.52 
685564.000,4367427.500,-105.04 
685564.000,4367377.500,-104.25 
685564.000,4367327.500,-103.84 
685564.000,4367277.500,-103.05 
685564.000,4367227.500,-102.49 
685564.000,4367177.500,-101.71 
685564.000,4367127.500,-99.86 
685564.000,4367077.500,-98.7 
685564.000,4367027.500,-98.52 
685564.000,4366977.500,-98.01 
685564.000,4366927.500,-97.81 
685564.000,4366877.500,-97.51 
685564.000,4366827.500,-98.05 
685564.000,4366777.500,-97.45 
685564.000,4366727.500,-97.07 
685564.000,4366677.500,-95.88 
685564.000,4366627.500,-95.44 
685564.000,4366577.500,-94.42 
685564.000,4366527.500,-93.82 
685564.000,4366477.500,-92.81 
685564.000,4366427.500,-92.5 
685564.000,4366377.500,-91.36 
685564.000,4366327.500,-90.71 
685564.000,4366277.500,-89.91 
685564.000,4366227.500,-89.14 
685564.000,4366177.500,-88.5 
685564.000,4366127.500,-87.747 
685564.000,4366077.500,-86.979 
685564.000,4366027.500,-86.298 
685564.000,4365977.500,-85.162 
685564.000,4365927.500,-84.439 
685564.000,4365877.500,-83.935 
685564.000,4365827.500,-83.273 
685564.000,4365777.500,-82.708 
685564.000,4365727.500,-81.615 
685564.000,4365677.500,-81.006 
685564.000,4365627.500,-80.129 
685564.000,4365577.500,-79.328 
685564.000,4365527.500,-78.456 
685564.000,4365477.500,-77.917 
685564.000,4365427.500,-77.344 
685564.000,4365377.500,-76.455 
685564.000,4365327.500,-75.776 
685564.000,4365277.500,-75.233 
685564.000,4365227.500,-75.271 
685564.000,4365177.500,-75.184 
685564.000,4365127.500,-75.517 
685564.000,4365077.500,-76.741 
685564.000,4365027.500,-81.501 
685564.000,4364977.500,-107.234 
685564.000,4364927.500,-127.048 
685564.000,4364877.500,-140.388 
685564.000,4364827.500,-153.713 
685564.000,4364777.500,-169.684 
685564.000,4364727.500,-188.727 
685564.000,4364677.500,-206.409 
685564.000,4364627.500,-239.352 
685564.000,4364577.500,-251.556 
685564.000,4364527.500,-251.564 
685564.000,4364477.500,-243.629 
685564.000,4364427.500,-235.766 
685564.000,4364377.500,-227.829 
685564.000,4364327.500,-210.328 
685564.000,4364277.500,-188.547 
685564.000,4364227.500,-166.737 
685564.000,4364177.500,-149.45 
685564.000,4364127.500,-122.381 
685564.000,4364077.500,-113.723 
685564.000,4364027.500,-108.568 
685564.000,4363977.500,-108.134 
685564.000,4363927.500,-106.45 
685564.000,4363877.500,-96.234 
685564.000,4363827.500,-76.486 
685564.000,4363777.500,-52.587 
685564.000,4363727.500,-24.8 
685564.000,4363677.500,-10.318 
685564.000,4363627.500,-7.814 
685564.000,4362527.500,-10.865 
685564.000,4362477.500,-11.321 
685564.000,4362427.500,-12.249 
685564.000,4362377.500,-13.092 
685564.000,4362327.500,-13.291 
685564.000,4362277.500,-14.018 
685564.000,4362227.500,-14.484 
685564.000,4362177.500,-15.223 
685564.000,4362127.500,-15.678 
685564.000,4362077.500,-15.803 
685564.000,4362027.500,-16.531 
685564.000,4361977.500,-16.626 
685564.000,4361927.500,-17.161 
685564.000,4361877.500,-17.51 
685564.000,4361827.500,-17.75 
685564.000,4361777.500,-18.601 
685564.000,4361727.500,-19.743 
685564.000,4361677.500,-20.245 
685564.000,4361627.500,-20.847 
685564.000,4361577.500,-21.708 
685564.000,4361527.500,-22.564 
685564.000,4361477.500,-23.893 
685564.000,4361427.500,-25.701 
685564.000,4361377.500,-30.646 
685564.000,4361327.500,-55.135 
685564.000,4361277.500,-76.754 
685564.000,4361227.500,-94.915 
685564.000,4361177.500,-118.113 
685564.000,4361127.500,-99.595 
685564.000,4361077.500,-97.756 
685564.000,4361027.500,-99.005 
685564.000,4360977.500,-126.74 
685564.000,4360927.500,-128.287 
685564.000,4360877.500,-136.182 
685564.000,4360827.500,-147.045 
685564.000,4360777.500,-154.955 
685564.000,4360727.500,-162.636 
685564.000,4360677.500,-167.323 
685564.000,4360627.500,-173.963 
685564.000,4360527.500,-205.176 
685564.000,4360477.500,-180.942 
685564.000,4360427.500,-159.333 
685564.000,4360377.500,-132.547 
685564.000,4360327.500,-93.924 
685564.000,4360277.500,-62.146 
685564.000,4360227.500,-33.491 
685564.000,4360177.500,-30.44 
685564.000,4360127.500,-29.389 
685564.000,4360077.500,-28.159 
685564.000,4360027.500,-27.19 
685564.000,4359977.500,-26.749 
685564.000,4359927.500,-26.046 
685564.000,4359877.500,-25.383 
685564.000,4359827.500,-24.814 
685564.000,4359777.500,-24.384 
685564.000,4359727.500,-24.25 
685564.000,4359677.500,-24.239 
685564.000,4359627.500,-24.38 
685564.000,4359577.500,-24.619 
685564.000,4359527.500,-24.829 
685564.000,4359477.500,-25.079 
685564.000,4359427.500,-25.222 
685564.000,4359377.500,-25.087 
685564.000,4359327.500,-25.306 
685564.000,4359277.500,-25.306 
685564.000,4359227.500,-25.256 
685564.000,4359177.500,-25.332 
685564.000,4359127.500,-25.236 
685564.000,4359077.500,-24.978 
685564.000,4359027.500,-24.917 
685564.000,4358977.500,-24.917 
685564.000,4358927.500,-24.716 
685564.000,4358877.500,-24.571 
685564.000,4358827.500,-24.603 
685564.000,4358777.500,-24.699 
685564.000,4358727.500,-24.753 
685564.000,4358677.500,-24.188 
685564.000,4358627.500,-24.288 
685564.000,4358577.500,-24.613 
685564.000,4358527.500,-24.683 
685564.000,4358477.500,-24.814 
685564.000,4358427.500,-24.999 
685564.000,4358377.500,-24.69 
685564.000,4358327.500,-24.75 
685564.000,4358277.500,-24.717 
685564.000,4358227.500,-25.256 
685564.000,4358177.500,-25.179 
685564.000,4358127.500,-25.504 
685564.000,4358077.500,-25.718 
685564.000,4358027.500,-25.898 
685564.000,4357977.500,-26.219 
685564.000,4357927.500,-26.315 
685564.000,4357877.500,-26.451 
685564.000,4357827.500,-26.601 
685564.000,4357777.500,-26.597 
685564.000,4357727.500,-26.864 
685564.000,4357677.500,-26.795 
685564.000,4357627.500,-26.994 
685564.000,4357577.500,-26.949 
685564.000,4357527.500,-27.184 
685564.000,4357477.500,-27.317 
685564.000,4357427.500,-27.236 
685564.000,4357377.500,-27.427 
685564.000,4357327.500,-27.552 
685564.000,4357277.500,-27.541 
685564.000,4357227.500,-27.666 
685564.000,4357177.500,-27.609 
685564.000,4357127.500,-27.985 
685564.000,4357077.500,-27.968 
685564.000,4357027.500,-27.944 
685564.000,4356977.500,-28.095 
685564.000,4356927.500,-28.194 
685564.000,4356877.500,-28.362 
685564.000,4356827.500,-28.41 
685564.000,4356777.500,-28.805 
685564.000,4356727.500,-28.96 
685564.000,4356677.500,-29.09 
685564.000,4356627.500,-29.1 
685564.000,4356577.500,-29.527 
685564.000,4356527.500,-29.726 
685564.000,4356477.500,-29.812 
685564.000,4356427.500,-30.113 
685564.000,4356377.500,-30.135 
685564.000,4356327.500,-30.339 
685564.000,4356277.500,-30.446 
685564.000,4356227.500,-30.786 
685564.000,4356177.500,-30.829 
685564.000,4356127.500,-31.575 
685564.000,4356077.500,-31.191 
685564.000,4356027.500,-31.914 
685564.000,4355977.500,-31.872 
685564.000,4355927.500,-32.079 
685564.000,4355877.500,-32.141 
685564.000,4355827.500,-32.276 
685564.000,4355777.500,-32.293 
685564.000,4355727.500,-32.347 
685564.000,4355677.500,-32.362 
685564.000,4355627.500,-32.274 
685564.000,4355577.500,-32.54 
685564.000,4355527.500,-32.901 
685564.000,4355477.500,-32.417 
685564.000,4355427.500,-32.76 
685564.000,4355377.500,-33.063 
685564.000,4355327.500,-33.207 
685564.000,4355277.500,-33.38 
685564.000,4355227.500,-33.496 
685564.000,4355177.500,-33.749 
685564.000,4355127.500,-33.984 
685564.000,4355077.500,-34.266 
685564.000,4355027.500,-34.448 
685564.000,4354977.500,-34.69 
685564.000,4354927.500,-35.106 
685564.000,4354877.500,-35.131 
685564.000,4354827.500,-35.143 
685564.000,4354777.500,-35.709 
685564.000,4354727.500,-36.01 
685564.000,4354677.500,-36.243 
685564.000,4354627.500,-36.536 
685564.000,4354577.500,-36.963 
685564.000,4354527.500,-37.18 
685564.000,4354477.500,-37.414 
685564.000,4354427.500,-37.539 
685564.000,4354377.500,-37.819 
685564.000,4354327.500,-38.346 
685564.000,4354277.500,-38.616 
685564.000,4354227.500,-38.88 
685564.000,4354177.500,-39.123 
685564.000,4352527.500,-80.2 
685564.000,4352377.500,-81.95 
685564.000,4352327.500,-82.12 
685564.000,4352277.500,-83.33 
685564.000,4352227.500,-86.15 
685614.000,4369127.500,-159.59 
685614.000,4369077.500,-159.52 
685614.000,4369027.500,-158.05 
685614.000,4368977.500,-156.35 
685614.000,4368927.500,-154.6 
685614.000,4368877.500,-152.93 
685614.000,4368827.500,-151.28 
685614.000,4368777.500,-149.51 
685614.000,4368727.500,-147.65 
685614.000,4368677.500,-145.8 
685614.000,4368627.500,-144.08 
685614.000,4368577.500,-142.52 
685614.000,4368527.500,-141.29 
685614.000,4368477.500,-140.39 
685614.000,4368427.500,-139.23 
685614.000,4368377.500,-137.12 
685614.000,4368327.500,-135.06 
685614.000,4368277.500,-131.79 
685614.000,4368227.500,-129.23 
685614.000,4368177.500,-126.02 
685614.000,4368127.500,-122.57 
685614.000,4368077.500,-119.75 
685614.000,4368027.500,-117.71 
685614.000,4367977.500,-115.97 
685614.000,4367927.500,-114.41 
685614.000,4367877.500,-113 
685614.000,4367827.500,-112.1 
685614.000,4367777.500,-111.2 
685614.000,4367727.500,-110.28 
685614.000,4367677.500,-109.74 
685614.000,4367627.500,-109.2 
685614.000,4367577.500,-108.56 
685614.000,4367527.500,-107.75 
685614.000,4367477.500,-107.02 
685614.000,4367427.500,-106.25 
685614.000,4367377.500,-105.64 
685614.000,4367327.500,-105.08 
685614.000,4367277.500,-104.39 
685614.000,4367227.500,-103.96 
685614.000,4367177.500,-102.58 
685614.000,4367127.500,-101.41 
685614.000,4367077.500,-100.37 
685614.000,4367027.500,-99.78 
685614.000,4366977.500,-98.79 
685614.000,4366927.500,-97.99 
685614.000,4366877.500,-97.55 
685614.000,4366827.500,-97.85 
685614.000,4366777.500,-98.3 
685614.000,4366727.500,-97.99 
685614.000,4366677.500,-97.25 
685614.000,4366627.500,-96.65 
685614.000,4366577.500,-95.84 
685614.000,4366527.500,-95.17 
685614.000,4366477.500,-94.29 
685614.000,4366427.500,-93.57 
685614.000,4366377.500,-92.57 
685614.000,4366327.500,-91.98 
685614.000,4366277.500,-90.91 
685614.000,4366227.500,-90.3 
685614.000,4366177.500,-89.55 
685614.000,4366127.500,-89.094 
685614.000,4366077.500,-87.995 
685614.000,4366027.500,-86.983 
685614.000,4365977.500,-86.652 
685614.000,4365927.500,-85.876 
685614.000,4365877.500,-85.006 
685614.000,4365827.500,-84.256 
685614.000,4365777.500,-83.326 
685614.000,4365727.500,-82.69 
685614.000,4365677.500,-81.626 
685614.000,4365627.500,-80.717 
685614.000,4365577.500,-80.133 
685614.000,4365527.500,-79.622 
685614.000,4365477.500,-78.657 
685614.000,4365427.500,-78.1 
685614.000,4365377.500,-77.381 
685614.000,4365327.500,-76.766 
685614.000,4365277.500,-75.839 
685614.000,4365227.500,-75.924 
685614.000,4365177.500,-76.154 
685614.000,4365127.500,-75.575 
685614.000,4365077.500,-77.23 
685614.000,4365027.500,-92.933 
685614.000,4364977.500,-119.263 
685614.000,4364927.500,-140.419 
685614.000,4364877.500,-155.255 
685614.000,4364827.500,-153.913 
685614.000,4364777.500,-170.251 
685614.000,4364727.500,-205.08 
685614.000,4364677.500,-228.999 
685614.000,4364627.500,-247.192 
685614.000,4364577.500,-255.503 
685614.000,4364527.500,-254.022 
685614.000,4364477.500,-243.56 
685614.000,4364427.500,-239.77 
685614.000,4364377.500,-225.267 
685614.000,4364327.500,-206.588 
685614.000,4364277.500,-186.549 
685614.000,4364227.500,-149.313 
685614.000,4364177.500,-135.69 
685614.000,4364127.500,-122.457 
685614.000,4364077.500,-118.397 
685614.000,4364027.500,-117.386 
685614.000,4363977.500,-120.086 
685614.000,4363927.500,-114.017 
685614.000,4363877.500,-101.694 
685614.000,4363827.500,-81.383 
685614.000,4363777.500,-56.679 
685614.000,4363727.500,-29.937 
685614.000,4363677.500,-10.805 
685614.000,4363627.500,-8.026 
685614.000,4362577.500,-10.825 
685614.000,4362527.500,-11.748 
685614.000,4362477.500,-12.78 
685614.000,4362427.500,-13.511 
685614.000,4362377.500,-14.24 
685614.000,4362327.500,-14.407 
685614.000,4362277.500,-14.83 
685614.000,4362227.500,-15.333 
685614.000,4362177.500,-16.147 
685614.000,4362127.500,-16.645 
685614.000,4362077.500,-16.7 
685614.000,4362027.500,-16.908 
685614.000,4361977.500,-17.477 
685614.000,4361927.500,-18.148 
685614.000,4361877.500,-18.316 
685614.000,4361827.500,-18.722 
685614.000,4361777.500,-19.54 
685614.000,4361727.500,-20.295 
685614.000,4361677.500,-21.313 
685614.000,4361627.500,-21.686 
685614.000,4361577.500,-22.557 
685614.000,4361527.500,-23.551 
685614.000,4361477.500,-25.008 
685614.000,4361427.500,-27.142 
685614.000,4361377.500,-33.058 
685614.000,4361327.500,-55.561 
685614.000,4361277.500,-83.397 
685614.000,4361227.500,-101.522 
685614.000,4361177.500,-124.418 
685614.000,4361127.500,-124.107 
685614.000,4361077.500,-122.88 
685614.000,4361027.500,-109.949 
685614.000,4360977.500,-136.578 
685614.000,4360927.500,-145.816 
685614.000,4360877.500,-159.69 
685614.000,4360827.500,-170.203 
685614.000,4360777.500,-188.067 
685614.000,4360727.500,-182.343 
685614.000,4360677.500,-200.076 
685614.000,4360627.500,-187.816 
685614.000,4360577.500,-202.13 
685614.000,4360527.500,-211.008 
685614.000,4360477.500,-178.159 
685614.000,4360427.500,-149.048 
685614.000,4360377.500,-111.922 
685614.000,4360327.500,-79.953 
685614.000,4360277.500,-53.797 
685614.000,4360227.500,-31.819 
685614.000,4360177.500,-29.882 
685614.000,4360127.500,-28.983 
685614.000,4360077.500,-27.955 
685614.000,4360027.500,-27.526 
685614.000,4359977.500,-27.319 
685614.000,4359927.500,-26.192 
685614.000,4359877.500,-25.527 
685614.000,4359827.500,-24.943 
685614.000,4359777.500,-24.935 
685614.000,4359727.500,-24.384 
685614.000,4359677.500,-24.542 
685614.000,4359627.500,-24.725 
685614.000,4359577.500,-24.636 
685614.000,4359527.500,-25.098 
685614.000,4359477.500,-25.322 
685614.000,4359427.500,-25.396 
685614.000,4359377.500,-25.502 
685614.000,4359327.500,-25.5 
685614.000,4359277.500,-25.823 
685614.000,4359227.500,-25.775 
685614.000,4359177.500,-25.678 
685614.000,4359127.500,-25.721 
685614.000,4359077.500,-25.631 
685614.000,4359027.500,-25.27 
685614.000,4358977.500,-25.295 
685614.000,4358927.500,-25.265 
685614.000,4358877.500,-25.192 
685614.000,4358827.500,-25.152 
685614.000,4358777.500,-25.041 
685614.000,4358727.500,-25.247 
685614.000,4358677.500,-25.042 
685614.000,4358627.500,-24.98 
685614.000,4358577.500,-25.096 
685614.000,4358527.500,-25.003 
685614.000,4358477.500,-25.442 
685614.000,4358427.500,-25.507 
685614.000,4358377.500,-25.474 
685614.000,4358327.500,-25.496 
685614.000,4358277.500,-25.556 
685614.000,4358227.500,-25.732 
685614.000,4358177.500,-25.489 
685614.000,4358127.500,-25.937 
685614.000,4358077.500,-26.374 
685614.000,4358027.500,-26.647 
685614.000,4357977.500,-26.871 
685614.000,4357927.500,-26.971 
685614.000,4357877.500,-27.257 
685614.000,4357827.500,-27.292 
685614.000,4357777.500,-27.287 
685614.000,4357727.500,-27.481 
685614.000,4357677.500,-27.769 
685614.000,4357627.500,-27.775 
685614.000,4357577.500,-27.858 
685614.000,4357527.500,-27.769 
685614.000,4357477.500,-28.07 
685614.000,4357427.500,-28.085 
685614.000,4357377.500,-28.333 
685614.000,4357327.500,-28.064 
685614.000,4357277.500,-28.38 
685614.000,4357227.500,-28.572 
685614.000,4357177.500,-28.533 
685614.000,4357127.500,-28.588 
685614.000,4357077.500,-28.751 
685614.000,4357027.500,-28.748 
685614.000,4356977.500,-28.894 
685614.000,4356927.500,-29.047 
685614.000,4356877.500,-29.176 
685614.000,4356827.500,-29.454 
685614.000,4356777.500,-29.398 
685614.000,4356727.500,-30 
685614.000,4356677.500,-30.036 
685614.000,4356627.500,-30.369 
685614.000,4356577.500,-30.321 
685614.000,4356527.500,-30.703 
685614.000,4356477.500,-30.993 
685614.000,4356427.500,-31.175 
685614.000,4356377.500,-31.246 
685614.000,4356327.500,-31.547 
685614.000,4356277.500,-31.863 
685614.000,4356227.500,-32.072 
685614.000,4356177.500,-32.302 
685614.000,4356127.500,-32.599 
685614.000,4356077.500,-33.067 
685614.000,4356027.500,-32.792 
685614.000,4355977.500,-33.279 
685614.000,4355927.500,-33.389 
685614.000,4355877.500,-33.335 
685614.000,4355827.500,-33.35 
685614.000,4355777.500,-33.244 
685614.000,4355727.500,-33.419 
685614.000,4355677.500,-33.367 
685614.000,4355627.500,-33.453 
685614.000,4355577.500,-33.47 
685614.000,4355527.500,-33.492 
685614.000,4355477.500,-33.721 
685614.000,4355427.500,-33.942 
685614.000,4355377.500,-34 
685614.000,4355327.500,-34.346 
685614.000,4355277.500,-34.092 
685614.000,4355227.500,-34.765 
685614.000,4355177.500,-34.82 
685614.000,4355127.500,-34.376 
685614.000,4355077.500,-35.339 
685614.000,4355027.500,-35.437 
685614.000,4354977.500,-35.496 
685614.000,4354927.500,-35.923 
685614.000,4354877.500,-36.157 
685614.000,4354827.500,-36.43 
685614.000,4354777.500,-36.432 
685614.000,4354727.500,-36.993 
685614.000,4354677.500,-37.024 
685614.000,4354627.500,-37.627 
685614.000,4354577.500,-37.813 
685614.000,4354527.500,-37.924 
685614.000,4354477.500,-38.592 
685614.000,4354427.500,-38.786 
685614.000,4354377.500,-39.13 
685614.000,4354327.500,-39.397 
685614.000,4354277.500,-39.676 
685614.000,4354227.500,-39.955 
685614.000,4354177.500,-40.482 
685614.000,4354127.500,-41.438 
685614.000,4352777.500,-71 
685614.000,4352727.500,-72.1 
685614.000,4352677.500,-74.38 
685614.000,4352627.500,-76.84 
685614.000,4352577.500,-83.32 
685614.000,4352527.500,-83.27 
685614.000,4352477.500,-80.27 
685614.000,4352427.500,-81.52 
685614.000,4352377.500,-84.7 
685614.000,4352327.500,-86.82 
685614.000,4352277.500,-87.81 
685614.000,4352227.500,-90.62 
685614.000,4352177.500,-79.27 
685614.000,4352127.500,-73.88 
685664.000,4369027.500,-159.45 
685664.000,4368977.500,-158.65 
685664.000,4368927.500,-157.15 
685664.000,4368877.500,-155.63 
685664.000,4368827.500,-154.01 
685664.000,4368777.500,-152.22 
685664.000,4368727.500,-150.39 
685664.000,4368677.500,-148.91 
685664.000,4368627.500,-146.86 
685664.000,4368577.500,-145.05 
685664.000,4368527.500,-143.74 
685664.000,4368477.500,-142.35 
685664.000,4368427.500,-140.86 
685664.000,4368377.500,-139.35 
685664.000,4368327.500,-138.46 
685664.000,4368277.500,-137.27 
685664.000,4368227.500,-135.66 
685664.000,4368177.500,-132.65 
685664.000,4368127.500,-129.16 
685664.000,4368077.500,-126.07 
685664.000,4368027.500,-123.22 
685664.000,4367977.500,-120.39 
685664.000,4367927.500,-117.94 
685664.000,4367877.500,-115.99 
685664.000,4367827.500,-114.33 
685664.000,4367777.500,-113.35 
685664.000,4367727.500,-112.37 
685664.000,4367677.500,-111.55 
685664.000,4367627.500,-110.92 
685664.000,4367577.500,-110.26 
685664.000,4367527.500,-109.46 
685664.000,4367477.500,-108.77 
685664.000,4367427.500,-108.01 
685664.000,4367377.500,-107.34 
685664.000,4367327.500,-106.47 
685664.000,4367277.500,-105.88 
685664.000,4367227.500,-105.26 
685664.000,4367177.500,-103.96 
685664.000,4367127.500,-102.89 
685664.000,4367077.500,-102.09 
685664.000,4367027.500,-101.08 
685664.000,4366977.500,-99.88 
685664.000,4366927.500,-99.87 
685664.000,4366877.500,-99.15 
685664.000,4366827.500,-97.56 
685664.000,4366777.500,-97.9 
685664.000,4366727.500,-98.57 
685664.000,4366677.500,-98.67 
685664.000,4366627.500,-98.17 
685664.000,4366577.500,-96.99 
685664.000,4366527.500,-95.99 
685664.000,4366477.500,-95.79 
685664.000,4366427.500,-94.75 
685664.000,4366377.500,-93.99 
685664.000,4366327.500,-92.94 
685664.000,4366277.500,-92.3 
685664.000,4366227.500,-91.66 
685664.000,4366177.500,-90.72 
685664.000,4366127.500,-90.05 
685664.000,4366077.500,-89.647 
685664.000,4366027.500,-88.748 
685664.000,4365977.500,-87.835 
685664.000,4365927.500,-86.932 
685664.000,4365877.500,-86.191 
685664.000,4365827.500,-85.377 
685664.000,4365777.500,-84.797 
685664.000,4365727.500,-83.486 
685664.000,4365677.500,-82.965 
685664.000,4365627.500,-81.638 
685664.000,4365577.500,-81.334 
685664.000,4365527.500,-80.452 
685664.000,4365477.500,-79.411 
685664.000,4365427.500,-78.901 
685664.000,4365377.500,-77.901 
685664.000,4365327.500,-76.497 
685664.000,4365277.500,-76.914 
685664.000,4365227.500,-76.166 
685664.000,4365177.500,-75.81 
685664.000,4365127.500,-76.922 
685664.000,4365077.500,-79.6 
685664.000,4365027.500,-99.412 
685664.000,4364977.500,-120.002 
685664.000,4364927.500,-137.858 
685664.000,4364877.500,-158.852 
685664.000,4364827.500,-177.742 
685664.000,4364777.500,-186.633 
685664.000,4364727.500,-216.021 
685664.000,4364677.500,-239.986 
685664.000,4364627.500,-260.381 
685664.000,4364577.500,-261.503 
685664.000,4364527.500,-253.143 
685664.000,4364477.500,-244.986 
685664.000,4364427.500,-240.96 
685664.000,4364377.500,-216.988 
685664.000,4364327.500,-195.045 
685664.000,4364277.500,-180.4 
685664.000,4364227.500,-144.594 
685664.000,4364177.500,-133.735 
685664.000,4364127.500,-129.658 
685664.000,4364077.500,-135.881 
685664.000,4364027.500,-143.859 
685664.000,4363977.500,-133.346 
685664.000,4363927.500,-118.72 
685664.000,4363877.500,-107.009 
685664.000,4363827.500,-87.201 
685664.000,4363777.500,-64.628 
685664.000,4363727.500,-39.448 
685664.000,4363677.500,-14.904 
685664.000,4363627.500,-8.613 
685664.000,4363577.500,-6.65 
685664.000,4362677.500,-10.2 
685664.000,4362627.500,-11.15 
685664.000,4362577.500,-11.944 
685664.000,4362527.500,-12.922 
685664.000,4362477.500,-13.918 
685664.000,4362427.500,-14.958 
685664.000,4362377.500,-15.482 
685664.000,4362327.500,-15.604 
685664.000,4362277.500,-15.507 
685664.000,4362227.500,-16.238 
685664.000,4362177.500,-16.717 
685664.000,4362127.500,-17.158 
685664.000,4362077.500,-17.867 
685664.000,4362027.500,-17.603 
685664.000,4361977.500,-18.491 
685664.000,4361927.500,-18.519 
685664.000,4361877.500,-19.437 
685664.000,4361827.500,-19.956 
685664.000,4361777.500,-20.639 
685664.000,4361727.500,-21.23 
685664.000,4361677.500,-22.349 
685664.000,4361627.500,-22.78 
685664.000,4361577.500,-23.557 
685664.000,4361527.500,-24.52 
685664.000,4361477.500,-25.89 
685664.000,4361427.500,-28.365 
685664.000,4361377.500,-38.2 
685664.000,4361327.500,-62.15 
685664.000,4361277.500,-80.92 
685664.000,4361227.500,-96.416 
685664.000,4361177.500,-114.311 
685664.000,4361127.500,-143.552 
685664.000,4361077.500,-153.035 
685664.000,4361027.500,-134.656 
685664.000,4360977.500,-151.313 
685664.000,4360927.500,-177.296 
685664.000,4360877.500,-179.145 
685664.000,4360827.500,-197.267 
685664.000,4360777.500,-209.536 
685664.000,4360727.500,-214.625 
685664.000,4360677.500,-213.487 
685664.000,4360627.500,-216.77 
685664.000,4360577.500,-217.141 
685664.000,4360527.500,-205.297 
685664.000,4360477.500,-171.527 
685664.000,4360427.500,-142.003 
685664.000,4360377.500,-100.938 
685664.000,4360327.500,-71.415 
685664.000,4360277.500,-43.794 
685664.000,4360227.500,-30.773 
685664.000,4360177.500,-29.678 
685664.000,4360127.500,-29.043 
685664.000,4360077.500,-28.311 
685664.000,4360027.500,-27.9 
685664.000,4359977.500,-27.233 
685664.000,4359927.500,-26.707 
685664.000,4359877.500,-26.038 
685664.000,4359827.500,-25.47 
685664.000,4359777.500,-25.107 
685664.000,4359727.500,-24.275 
685664.000,4359677.500,-24.763 
685664.000,4359627.500,-24.883 
685664.000,4359577.500,-25.113 
685664.000,4359527.500,-25.171 
685664.000,4359477.500,-25.653 
685664.000,4359427.500,-25.702 
685664.000,4359377.500,-25.879 
685664.000,4359327.500,-25.896 
685664.000,4359277.500,-25.993 
685664.000,4359227.500,-26.099 
685664.000,4359177.500,-26.134 
685664.000,4359127.500,-26.183 
685664.000,4359077.500,-25.987 
685664.000,4359027.500,-25.825 
685664.000,4358977.500,-25.823 
685664.000,4358927.500,-25.395 
685664.000,4358877.500,-26.082 
685664.000,4358827.500,-25.82 
685664.000,4358777.500,-25.775 
685664.000,4358727.500,-25.683 
685664.000,4358677.500,-25.692 
685664.000,4358627.500,-25.532 
685664.000,4358577.500,-25.704 
685664.000,4358527.500,-25.74 
685664.000,4358477.500,-25.95 
685664.000,4358427.500,-26.036 
685664.000,4358377.500,-26.278 
685664.000,4358327.500,-26.174 
685664.000,4358277.500,-26.283 
685664.000,4358227.500,-26.447 
685664.000,4358177.500,-26.638 
685664.000,4358127.500,-26.824 
685664.000,4358077.500,-26.816 
685664.000,4358027.500,-27.404 
685664.000,4357977.500,-27.535 
685664.000,4357927.500,-27.815 
685664.000,4357877.500,-27.838 
685664.000,4357827.500,-27.971 
685664.000,4357777.500,-28.007 
685664.000,4357727.500,-28.272 
685664.000,4357677.500,-28.229 
685664.000,4357627.500,-28.434 
685664.000,4357577.500,-28.631 
685664.000,4357527.500,-28.716 
685664.000,4357477.500,-28.829 
685664.000,4357427.500,-29.109 
685664.000,4357377.500,-29.053 
685664.000,4357327.500,-29.117 
685664.000,4357277.500,-29.171 
685664.000,4357227.500,-29.334 
685664.000,4357177.500,-29.424 
685664.000,4357127.500,-29.49 
685664.000,4357077.500,-29.577 
685664.000,4357027.500,-29.736 
685664.000,4356977.500,-29.691 
685664.000,4356927.500,-29.824 
685664.000,4356877.500,-29.96 
685664.000,4356827.500,-30.455 
685664.000,4356777.500,-30.47 
685664.000,4356727.500,-30.77 
685664.000,4356677.500,-30.703 
685664.000,4356627.500,-31.155 
685664.000,4356577.500,-31.621 
685664.000,4356527.500,-31.869 
685664.000,4356477.500,-32.223 
685664.000,4356427.500,-32.363 
685664.000,4356377.500,-32.693 
685664.000,4356327.500,-32.939 
685664.000,4356277.500,-33.158 
685664.000,4356227.500,-33.24 
685664.000,4356177.500,-33.93 
685664.000,4356127.500,-34.39 
685664.000,4356077.500,-34.643 
685664.000,4356027.500,-34.829 
685664.000,4355977.500,-34.825 
685664.000,4355927.500,-34.632 
685664.000,4355877.500,-34.614 
685664.000,4355827.500,-34.409 
685664.000,4355777.500,-34.586 
685664.000,4355727.500,-34.506 
685664.000,4355677.500,-34.543 
685664.000,4355627.500,-34.3 
685664.000,4355577.500,-34.557 
685664.000,4355177.500,-35.094 
685664.000,4355127.500,-36.243 
685664.000,4355077.500,-36.273 
685664.000,4355027.500,-36.477 
685664.000,4354977.500,-36.759 
685664.000,4354927.500,-36.681 
685664.000,4354877.500,-37.004 
685664.000,4354827.500,-37.563 
685664.000,4354777.500,-37.543 
685664.000,4354727.500,-37.869 
685664.000,4354677.500,-38.176 
685664.000,4354627.500,-38.497 
685664.000,4354577.500,-38.84 
685664.000,4354527.500,-39.17 
685664.000,4354477.500,-39.083 
685664.000,4354427.500,-40.018 
685664.000,4354377.500,-39.934 
685664.000,4354327.500,-40.145 
685664.000,4354277.500,-40.634 
685664.000,4354227.500,-41.43 
685664.000,4354177.500,-41.948 
685664.000,4354127.500,-42.084 
685664.000,4354077.500,-42.282 
685664.000,4352877.500,-58.72 
685664.000,4352827.500,-63.55 
685664.000,4352777.500,-71.51 
685664.000,4352727.500,-76.85 
685664.000,4352677.500,-81.99 
685664.000,4352627.500,-86.63 
685664.000,4352577.500,-93.52 
685664.000,4352527.500,-95.67 
685664.000,4352477.500,-91.21 
685664.000,4352427.500,-92.5 
685664.000,4352377.500,-94.31 
685664.000,4352327.500,-96.13 
685664.000,4352277.500,-100.22 
685664.000,4352227.500,-95.35 
685664.000,4352177.500,-83.58 
685664.000,4352127.500,-76.66 
685664.000,4352077.500,-71.88 
685664.000,4352027.500,-70.08 
685714.000,4368977.500,-159.69 
685714.000,4368927.500,-159.25 
685714.000,4368877.500,-157.72 
685714.000,4368827.500,-156.02 
685714.000,4368777.500,-154.61 
685714.000,4368727.500,-153.01 
685714.000,4368677.500,-151.27 
685714.000,4368627.500,-149.52 
685714.000,4368577.500,-147.7 
685714.000,4368527.500,-146.15 
685714.000,4368477.500,-144.68 
685714.000,4368427.500,-143.22 
685714.000,4368377.500,-141.69 
685714.000,4368327.500,-140.68 
685714.000,4368277.500,-139.45 
685714.000,4368227.500,-138.24 
685714.000,4368177.500,-137.14 
685714.000,4368127.500,-135.29 
685714.000,4368077.500,-133.56 
685714.000,4368027.500,-130.25 
685714.000,4367977.500,-126.95 
685714.000,4367927.500,-123.47 
685714.000,4367877.500,-120.61 
685714.000,4367827.500,-118.21 
685714.000,4367777.500,-116.35 
685714.000,4367727.500,-114.99 
685714.000,4367677.500,-113.8 
685714.000,4367627.500,-112.88 
685714.000,4367577.500,-112.13 
685714.000,4367527.500,-111.44 
685714.000,4367477.500,-110.6 
685714.000,4367427.500,-109.85 
685714.000,4367377.500,-109.09 
685714.000,4367327.500,-108.29 
685714.000,4367277.500,-107.55 
685714.000,4367227.500,-106.62 
685714.000,4367177.500,-105.63 
685714.000,4367127.500,-104.34 
685714.000,4367077.500,-103.93 
685714.000,4367027.500,-103.25 
685714.000,4366977.500,-101.81 
685714.000,4366927.500,-100.95 
685714.000,4366877.500,-100.19 
685714.000,4366827.500,-99.44 
685714.000,4366777.500,-98.78 
685714.000,4366727.500,-97.93 
685714.000,4366677.500,-98.57 
685714.000,4366627.500,-99.36 
685714.000,4366577.500,-98.56 
685714.000,4366527.500,-98.08 
685714.000,4366477.500,-97.5 
685714.000,4366427.500,-96.42 
685714.000,4366377.500,-95.47 
685714.000,4366327.500,-94.65 
685714.000,4366277.500,-93.83 
685714.000,4366227.500,-93.03 
685714.000,4366177.500,-92.14 
685714.000,4366127.500,-91.42 
685714.000,4366077.500,-91.029 
685714.000,4366027.500,-89.863 
685714.000,4365977.500,-89.201 
685714.000,4365927.500,-88.515 
685714.000,4365877.500,-87.894 
685714.000,4365827.500,-86.586 
685714.000,4365777.500,-85.742 
685714.000,4365727.500,-84.913 
685714.000,4365677.500,-84.098 
685714.000,4365627.500,-83.076 
685714.000,4365577.500,-82.296 
685714.000,4365527.500,-81.75 
685714.000,4365477.500,-81.27 
685714.000,4365427.500,-79.586 
685714.000,4365377.500,-79.378 
685714.000,4365327.500,-78.615 
685714.000,4365277.500,-77.732 
685714.000,4365227.500,-76.943 
685714.000,4365177.500,-76.588 
685714.000,4365127.500,-78.103 
685714.000,4365077.500,-80.727 
685714.000,4365027.500,-102.833 
685714.000,4364977.500,-128.05 
685714.000,4364927.500,-150.217 
685714.000,4364877.500,-169.701 
685714.000,4364827.500,-184.609 
685714.000,4364777.500,-217.908 
685714.000,4364727.500,-231.864 
685714.000,4364677.500,-258.567 
685714.000,4364627.500,-264.332 
685714.000,4364577.500,-262.307 
685714.000,4364527.500,-253.296 
685714.000,4364477.500,-249.439 
685714.000,4364427.500,-231.968 
685714.000,4364377.500,-214.481 
685714.000,4364327.500,-185.099 
685714.000,4364277.500,-160.607 
685714.000,4364227.500,-152.62 
685714.000,4364177.500,-148.418 
685714.000,4364127.500,-168.003 
685714.000,4364077.500,-168.404 
685714.000,4364027.500,-156.81 
685714.000,4363977.500,-133.925 
685714.000,4363927.500,-122.486 
685714.000,4363877.500,-112.833 
685714.000,4363827.500,-95.392 
685714.000,4363777.500,-73.57 
685714.000,4363727.500,-49.945 
685714.000,4363677.500,-29.053 
685714.000,4363627.500,-11.079 
685714.000,4363577.500,-8.182 
685714.000,4363077.500,-8.197 
685714.000,4363027.500,-8.034 
685714.000,4362977.500,-7.855 
685714.000,4362927.500,-8.158 
685714.000,4362877.500,-8.757 
685714.000,4362827.500,-9.526 
685714.000,4362777.500,-10.297 
685714.000,4362727.500,-11.295 
685714.000,4362677.500,-11.612 
685714.000,4362627.500,-12.54 
685714.000,4362577.500,-13.284 
685714.000,4362527.500,-14.53 
685714.000,4362477.500,-15.8 
685714.000,4362427.500,-16.597 
685714.000,4362377.500,-17.491 
685714.000,4362327.500,-17.216 
685714.000,4362277.500,-16.75 
685714.000,4362227.500,-17.367 
685714.000,4362177.500,-17.487 
685714.000,4362127.500,-18.016 
685714.000,4362077.500,-18.102 
685714.000,4362027.500,-18.585 
685714.000,4361977.500,-19.027 
685714.000,4361927.500,-19.686 
685714.000,4361877.500,-20.595 
685714.000,4361827.500,-21.622 
685714.000,4361777.500,-22.313 
685714.000,4361727.500,-22.834 
685714.000,4361677.500,-23.263 
685714.000,4361627.500,-23.957 
685714.000,4361577.500,-24.659 
685714.000,4361527.500,-25.624 
685714.000,4361477.500,-26.869 
685714.000,4361427.500,-29.123 
685714.000,4361377.500,-38.538 
685714.000,4361327.500,-63.241 
685714.000,4361277.500,-90.4 
685714.000,4361227.500,-114.558 
685714.000,4361177.500,-128.126 
685714.000,4361127.500,-147.884 
685714.000,4361077.500,-164.443 
685714.000,4361027.500,-160.436 
685714.000,4360977.500,-171.852 
685714.000,4360927.500,-188.646 
685714.000,4360877.500,-207.856 
685714.000,4360827.500,-220.565 
685714.000,4360777.500,-232.312 
685714.000,4360727.500,-228.876 
685714.000,4360677.500,-224.8 
685714.000,4360627.500,-216.445 
685714.000,4360577.500,-202.529 
685714.000,4360527.500,-186.747 
685714.000,4360477.500,-153.071 
685714.000,4360427.500,-140.93 
685714.000,4360377.500,-102.153 
685714.000,4360327.500,-67.415 
685714.000,4360277.500,-33.267 
685714.000,4360227.500,-30.742 
685714.000,4360177.500,-29.998 
685714.000,4360127.500,-29.41 
685714.000,4360077.500,-28.769 
685714.000,4360027.500,-28.185 
685714.000,4359977.500,-27.614 
685714.000,4359927.500,-27.145 
685714.000,4359877.500,-26.638 
685714.000,4359827.500,-25.932 
685714.000,4359777.500,-25.332 
685714.000,4359727.500,-25.327 
685714.000,4359677.500,-24.851 
685714.000,4359627.500,-24.956 
685714.000,4359577.500,-25.303 
685714.000,4359527.500,-25.536 
685714.000,4359477.500,-25.769 
685714.000,4359427.500,-25.916 
685714.000,4359377.500,-26.161 
685714.000,4359327.500,-26.279 
685714.000,4359277.500,-26.369 
685714.000,4359227.500,-26.606 
685714.000,4359177.500,-26.622 
685714.000,4359127.500,-26.698 
685714.000,4359077.500,-26.354 
685714.000,4359027.500,-26.325 
685714.000,4358977.500,-26.131 
685714.000,4358927.500,-26.001 
685714.000,4358877.500,-26.106 
685714.000,4358827.500,-26.346 
685714.000,4358777.500,-26.418 
685714.000,4358727.500,-26.322 
685714.000,4358677.500,-25.926 
685714.000,4358627.500,-26.322 
685714.000,4358577.500,-26.207 
685714.000,4358527.500,-26.573 
685714.000,4358477.500,-26.714 
685714.000,4358427.500,-26.997 
685714.000,4358377.500,-26.955 
685714.000,4358327.500,-27.162 
685714.000,4358277.500,-27.303 
685714.000,4358227.500,-27.215 
685714.000,4358177.500,-27.399 
685714.000,4358127.500,-27.569 
685714.000,4358077.500,-27.84 
685714.000,4358027.500,-28.091 
685714.000,4357977.500,-28.158 
685714.000,4357927.500,-28.401 
685714.000,4357877.500,-28.535 
685714.000,4357827.500,-28.564 
685714.000,4357777.500,-28.747 
685714.000,4357727.500,-28.988 
685714.000,4357677.500,-29.048 
685714.000,4357627.500,-29.131 
685714.000,4357577.500,-29.364 
685714.000,4357527.500,-29.214 
685714.000,4357477.500,-29.53 
685714.000,4357427.500,-29.481 
685714.000,4357377.500,-30.028 
685714.000,4357327.500,-30.011 
685714.000,4357277.500,-30.063 
685714.000,4357227.500,-30.24 
685714.000,4357177.500,-30.145 
685714.000,4357127.500,-30.431 
685714.000,4357077.500,-30.535 
685714.000,4357027.500,-30.66 
685714.000,4356977.500,-30.777 
685714.000,4356927.500,-30.857 
685714.000,4356877.500,-31.014 
685714.000,4356827.500,-31.158 
685714.000,4356777.500,-31.46 
685714.000,4356727.500,-31.637 
685714.000,4356677.500,-31.999 
685714.000,4356627.500,-32.178 
685714.000,4356577.500,-32.58 
685714.000,4356527.500,-33.138 
685714.000,4356477.500,-33.322 
