480054.206,4484754.999,-222.945
480054.206,4484654.999,-223.513
480054.206,4484554.999,-224.134
480054.206,4484454.999,-224.609
480054.206,4484354.999,-225.128
480054.206,4484254.999,-225.528
480054.206,4484154.999,-225.976
480054.206,4484054.999,-226.399
480054.206,4483954.999,-226.308
480054.206,4483854.999,-225.890
480054.206,4483754.999,-225.335
480054.206,4483654.999,-224.832
480054.206,4483554.999,-224.197
480054.206,4483454.999,-223.364
480054.206,4483354.999,-222.485
480054.206,4483254.999,-221.820
480054.206,4483154.999,-221.003
480054.206,4483054.999,-220.029
480054.206,4482954.999,-219.076
480054.206,4482854.999,-218.424
480054.206,4482754.999,-217.688
480054.206,4482654.999,-216.819
480054.206,4482554.999,-215.886
480054.206,4482454.999,-215.136
480054.206,4482354.999,-214.405
480054.206,4482254.999,-213.915
480054.206,4482154.999,-213.851
480054.206,4482054.999,-214.455
480054.206,4481954.999,-215.317
480054.206,4481854.999,-215.075
480054.206,4481754.999,-212.615
480054.206,4481654.999,-207.955
480054.206,4481554.999,-202.376
480054.206,4481454.999,-198.458
480054.206,4481354.999,-194.795
480054.206,4481254.999,-192.122
480054.206,4481154.999,-189.574
480054.206,4481054.999,-187.459
480054.206,4480954.999,-185.467
480054.206,4480854.999,-183.729
480054.206,4480754.999,-181.961
480054.206,4480654.999,-180.469
480054.206,4480554.999,-178.872
480054.206,4480454.999,-177.474
480054.206,4480354.999,-176.193
480054.206,4480254.999,-175.077
480054.206,4480154.999,-173.872
480054.206,4480054.999,-172.920
480054.206,4479954.999,-172.009
480054.206,4479854.999,-171.141
480054.206,4479754.999,-170.186
480054.206,4479654.999,-169.321
480054.206,4479554.999,-168.391
480054.206,4479454.999,-167.662
480054.206,4479354.999,-166.775
480054.206,4479254.999,-166.020
480054.206,4479154.999,-165.233
480054.206,4479054.999,-164.490
480054.206,4478954.999,-163.836
480054.206,4478854.999,-163.336
480054.206,4478754.999,-162.825
480054.206,4478654.999,-162.290
480054.206,4478554.999,-161.713
480054.206,4478454.999,-161.161
480054.206,4478354.999,-160.592
480054.206,4478254.999,-160.117
480054.206,4478154.999,-159.647
480054.206,4478054.999,-159.253
480054.206,4477954.999,-158.827
480054.206,4477854.999,-158.436
480054.206,4477754.999,-157.996
480054.206,4477654.999,-157.565
480054.206,4477554.999,-157.116
480054.206,4477454.999,-156.779
480054.206,4477354.999,-156.442
480054.206,4477254.999,-156.133
480054.206,4477154.999,-155.767
480054.206,4477054.999,-155.379
480054.206,4476954.999,-154.941
480054.206,4476854.999,-154.548
480054.206,4476754.999,-154.176
480054.206,4476654.999,-153.862
480054.206,4476554.999,-153.609
480054.206,4476454.999,-153.452
480054.206,4476354.999,-153.281
480054.206,4476254.999,-153.119
480054.206,4476154.999,-152.968
480054.206,4476054.999,-152.793
480054.206,4475954.999,-152.551
480054.206,4475854.999,-152.284
480054.206,4475754.999,-151.920
480054.206,4475654.999,-151.618
480054.206,4475554.999,-151.440
480054.206,4475454.999,-151.458
480054.206,4475354.999,-151.570
480054.206,4475254.999,-151.583
480054.206,4475154.999,-151.451
480054.206,4475054.999,-151.247
480054.206,4474954.999,-150.984
480054.206,4474854.999,-150.764
480054.206,4474754.999,-150.543
480054.206,4474654.999,-150.413
480054.206,4474554.999,-150.331
480054.206,4474454.999,-150.203
480054.206,4474354.999,-150.010
480054.206,4474254.999,-149.761
480054.206,4474154.999,-149.368
480054.206,4474054.999,-148.970
480054.206,4473954.999,-148.694
480054.206,4473854.999,-148.572
480054.206,4473754.999,-148.540
480054.206,4473654.999,-148.526
480054.206,4473554.999,-148.378
480054.206,4473454.999,-148.223
480054.206,4473354.999,-148.228
480054.206,4473254.999,-148.385
480054.206,4473154.999,-148.638
480054.206,4473054.999,-148.773
480054.206,4472954.999,-148.741
480054.206,4472854.999,-148.614
480054.206,4472754.999,-148.448
480054.206,4472654.999,-148.192
480054.206,4472554.999,-147.902
480054.206,4472454.999,-147.738
480054.206,4472354.999,-147.625
480054.206,4472254.999,-147.567
480054.206,4472154.999,-147.464
480054.206,4472054.999,-147.275
480054.206,4471954.999,-147.054
480054.206,4471854.999,-146.938
480054.206,4471754.999,-146.834
480054.206,4471654.999,-146.629
480054.206,4471554.999,-146.478
480054.206,4471454.999,-146.433
480054.206,4471354.999,-146.164
480054.206,4471254.999,-145.923
480054.206,4471154.999,-145.568
480054.206,4471054.999,-145.260
480054.206,4470954.999,-145.107
480054.206,4470854.999,-144.895
480054.206,4470754.999,-144.701
480054.206,4470654.999,-144.617
480054.206,4470554.999,-144.641
480054.206,4470454.999,-144.733
480054.206,4470354.999,-144.632
480054.206,4470254.999,-144.474
480054.206,4470154.999,-144.463
480054.206,4470054.999,-144.213
480054.206,4469954.999,-143.797
480054.206,4469854.999,-143.331
480054.206,4469754.999,-142.898
480054.206,4469654.999,-142.561
480054.206,4469554.999,-142.154
480054.206,4469454.999,-141.808
480054.206,4469354.999,-141.547
480054.206,4469254.999,-141.489
480054.206,4469154.999,-141.533
480054.206,4469054.999,-141.631
480054.206,4468954.999,-141.674
480054.206,4468854.999,-141.600
480054.206,4468754.999,-141.354
480054.206,4468654.999,-141.148
480054.206,4468554.999,-141.120
480054.206,4468454.999,-141.080
480054.206,4468354.999,-141.041
480054.206,4468254.999,-141.030
480054.206,4468154.999,-141.066
480054.206,4468054.999,-141.076
480054.206,4467954.999,-141.124
480054.206,4467854.999,-141.249
480054.206,4467754.999,-141.512
480054.206,4467654.999,-141.783
480054.206,4467554.999,-141.723
480054.206,4467454.999,-141.525
480054.206,4467354.999,-141.461
480054.206,4467254.999,-141.354
480054.206,4467154.999,-141.136
480054.206,4467054.999,-140.996
480054.206,4466954.999,-140.916
480054.206,4466854.999,-140.891
480054.206,4466754.999,-140.827
480054.206,4466654.999,-140.650
480054.206,4466554.999,-140.430
480054.206,4466454.999,-140.247
480054.206,4466354.999,-140.037
480054.206,4466254.999,-139.796
480054.206,4466154.999,-139.471
480054.206,4466054.999,-139.209
480054.206,4465954.999,-139.013
480054.206,4465854.999,-138.832
480054.206,4465754.999,-138.653
480054.206,4465654.999,-138.654
480054.206,4465554.999,-138.618
480054.206,4465454.999,-138.301
480054.206,4465354.999,-138.107
480054.206,4465254.999,-138.146
480054.206,4465154.999,-138.072
480054.206,4465054.999,-137.895
480054.206,4464954.999,-137.702
480054.206,4464854.999,-137.608
480054.206,4464754.999,-137.406
480054.206,4464654.999,-137.267
480054.206,4464554.999,-137.313
480054.206,4464454.999,-137.313
480054.206,4464354.999,-137.190
480054.206,4464254.999,-137.053
480054.206,4464154.999,-136.833
480054.206,4464054.999,-136.539
480054.206,4463954.999,-136.163
480054.206,4463854.999,-135.892
480054.206,4463754.999,-135.404
480054.206,4463654.999,-135.033
480054.206,4463554.999,-134.722
480054.206,4463454.999,-134.469
480054.206,4463354.999,-134.383
480054.206,4463254.999,-134.483
480054.206,4463154.999,-134.681
480054.206,4463054.999,-134.821
480054.206,4462954.999,-134.974
480054.206,4462854.999,-135.052
480054.206,4462754.999,-135.045
480054.206,4462654.999,-134.937
480054.206,4462554.999,-134.593
480054.206,4462454.999,-134.206
480054.206,4462354.999,-134.103
480054.206,4462254.999,-133.942
480054.206,4462154.999,-133.568
480054.206,4462054.999,-133.177
480054.206,4461954.999,-132.913
480054.206,4461854.999,-132.566
480054.206,4461754.999,-132.148
480054.206,4461654.999,-131.779
480054.206,4461554.999,-131.299
480054.206,4461454.999,-130.761
480054.206,4461354.999,-130.437
480054.206,4461254.999,-130.213
480054.206,4461154.999,-129.771
480054.206,4461054.999,-129.359
480054.206,4460954.999,-128.986
480054.206,4460854.999,-128.664
480054.206,4460754.999,-128.204
480054.206,4460654.999,-127.687
480054.206,4460554.999,-127.191
480054.206,4460454.999,-126.577
480054.206,4460354.999,-125.832
480054.206,4460254.999,-125.272
480054.206,4460154.999,-124.803
480054.206,4460054.999,-124.395
480054.206,4459954.999,-123.968
480054.206,4459854.999,-123.564
480054.206,4459754.999,-123.113
480054.206,4459654.999,-122.829
480054.206,4459554.999,-122.567
480054.206,4459454.999,-122.466
480054.206,4459354.999,-122.522
480054.206,4459254.999,-122.761
480054.206,4459154.999,-122.855
480054.206,4459054.999,-122.390
480054.206,4458954.999,-121.259
480054.206,4458854.999,-119.981
480054.206,4458754.999,-119.338
480054.206,4458654.999,-119.894
480054.206,4458554.999,-120.454
480054.206,4458454.999,-119.409
480054.206,4458354.999,-115.809
480054.206,4458254.999,-109.802
480054.206,4458154.999,-102.076
480054.206,4458054.999,-101.420
480054.206,4457954.999,-101.332
480054.206,4457854.999,-108.124
480054.206,4457754.999,-116.861
480054.206,4457654.999,-123.927
480054.206,4457554.999,-129.118
480054.206,4457454.999,-131.723
480054.206,4457354.999,-132.893
480054.206,4457254.999,-133.181
480054.206,4457154.999,-133.017
480054.206,4457054.999,-132.749
480054.206,4456954.999,-132.485
480054.206,4456854.999,-132.214
480054.206,4456754.999,-131.795
480054.206,4456654.999,-131.213
480054.206,4456554.999,-130.320
480054.206,4456454.999,-129.310
480054.206,4456354.999,-128.179
480054.206,4456254.999,-127.182
480054.206,4456154.999,-126.226
480054.206,4456054.999,-125.575
480054.206,4455954.999,-125.299
480054.206,4455854.999,-125.477
480054.206,4455754.999,-126.073
480054.206,4455654.999,-126.806
480054.206,4455554.999,-127.567
480054.206,4455454.999,-128.107
480054.206,4455354.999,-128.228
480054.206,4455254.999,-127.588
480054.206,4455154.999,-125.786
480054.206,4455054.999,-123.226
480054.206,4454954.999,-120.279
480054.206,4454854.999,-118.236
480054.206,4454754.999,-116.674
480054.206,4454654.999,-114.293
480054.206,4454554.999,-109.422
480054.206,4454454.999,-103.556
480054.206,4454354.999,-102.495
480054.206,4454254.999,-101.974
480054.206,4454154.999,-101.484
480054.206,4454054.999,-100.994
480054.206,4453954.999,-102.142
480054.206,4453854.999,-103.465
480054.206,4453754.999,-108.492
480054.206,4453654.999,-114.137
480054.206,4453554.999,-119.385
480054.206,4453454.999,-122.616
480054.206,4453354.999,-125.017
480054.206,4453254.999,-127.146
480054.206,4453154.999,-129.782
480054.206,4453054.999,-132.518
480054.206,4452954.999,-135.287
480054.206,4452854.999,-137.168
480054.206,4452754.999,-138.113
480054.206,4452654.999,-138.029
480054.206,4452554.999,-137.394
480054.206,4452454.999,-137.119
480054.206,4452354.999,-137.563
480054.206,4452254.999,-138.329
480054.206,4452154.999,-139.261
480054.206,4452054.999,-140.153
480054.206,4451954.999,-140.993
480054.206,4451854.999,-141.566
480054.206,4451754.999,-141.726
480054.206,4451654.999,-141.291
480054.206,4451554.999,-140.334
480054.206,4451454.999,-139.537
480054.206,4451354.999,-139.492
480054.206,4451254.999,-140.329
480054.206,4451154.999,-141.257
480054.206,4451054.999,-141.304
480054.206,4450954.999,-140.654
480054.206,4450854.999,-139.912
480054.206,4450754.999,-139.238
480054.206,4450654.999,-138.850
480054.206,4450554.999,-138.703
480054.206,4450454.999,-138.714
480054.206,4450354.999,-138.792
480054.206,4450254.999,-138.871
480054.206,4450154.999,-138.975
480054.206,4450054.999,-139.057
480054.206,4449954.999,-139.090
480054.206,4449854.999,-139.136
480054.206,4449754.999,-139.329
480054.206,4449654.999,-139.776
480054.206,4449554.999,-140.579
480054.206,4449454.999,-141.482
480054.206,4449354.999,-142.502
480054.206,4449254.999,-143.471
480054.206,4449154.999,-144.497
480054.206,4449054.999,-145.197
480054.206,4448954.999,-145.475
480054.206,4448854.999,-145.195
480054.206,4448754.999,-144.018
480054.206,4448654.999,-142.150
480054.206,4448554.999,-139.875
480054.206,4448454.999,-138.009
480054.206,4448354.999,-136.531
480054.206,4448254.999,-135.603
480054.206,4448154.999,-134.956
480054.206,4448054.999,-134.487
480054.206,4447954.999,-133.982
480154.206,4490254.999,-100.298
480154.206,4490154.999,-100.865
480154.206,4490054.999,-101.435
480154.206,4489954.999,-102.217
480154.206,4489854.999,-102.895
480154.206,4489754.999,-103.460
480154.206,4489654.999,-104.136
480154.206,4489554.999,-105.004
480154.206,4489454.999,-105.726
480154.206,4489354.999,-106.580
480154.206,4489254.999,-107.455
480154.206,4489154.999,-108.391
480154.206,4489054.999,-109.381
480154.206,4488954.999,-110.391
480154.206,4488854.999,-111.155
480154.206,4488754.999,-112.200
480154.206,4488654.999,-113.382
480154.206,4488554.999,-114.756
480154.206,4488454.999,-116.293
480154.206,4488354.999,-118.007
480154.206,4488254.999,-119.685
480154.206,4488154.999,-121.893
480154.206,4488054.999,-124.409
480154.206,4487954.999,-127.992
480154.206,4487854.999,-132.417
480154.206,4487754.999,-138.179
480154.206,4487654.999,-143.194
480154.206,4487554.999,-147.542
480154.206,4487454.999,-151.080
480154.206,4487354.999,-154.833
480154.206,4487254.999,-158.465
480154.206,4487154.999,-162.388
480154.206,4487054.999,-166.381
480154.206,4486954.999,-170.725
480154.206,4486854.999,-174.356
480154.206,4486754.999,-177.752
480154.206,4486654.999,-180.682
480154.206,4486554.999,-183.757
480154.206,4486454.999,-186.744
480154.206,4486354.999,-190.156
480154.206,4486254.999,-193.363
480154.206,4486154.999,-196.774
480154.206,4486054.999,-199.503
480154.206,4485954.999,-201.906
480154.206,4485854.999,-204.044
480154.206,4485754.999,-206.518
480154.206,4485654.999,-208.656
480154.206,4485554.999,-210.837
480154.206,4485454.999,-212.715
480154.206,4485354.999,-214.571
480154.206,4485254.999,-215.923
480154.206,4485154.999,-216.705
480154.206,4485054.999,-217.221
480154.206,4484954.999,-217.905
480154.206,4484854.999,-218.834
480154.206,4484754.999,-220.121
480154.206,4484654.999,-220.894
480154.206,4484554.999,-221.197
480154.206,4484454.999,-221.361
480154.206,4484354.999,-221.889
480154.206,4484254.999,-222.566
480154.206,4484154.999,-223.287
480154.206,4484054.999,-223.765
480154.206,4483954.999,-223.930
480154.206,4483854.999,-223.661
480154.206,4483754.999,-223.081
480154.206,4483654.999,-222.355
480154.206,4483554.999,-221.450
480154.206,4483454.999,-220.544
480154.206,4483354.999,-219.672
480154.206,4483254.999,-218.922
480154.206,4483154.999,-218.173
480154.206,4483054.999,-217.613
480154.206,4482954.999,-217.082
480154.206,4482854.999,-216.530
480154.206,4482754.999,-215.790
480154.206,4482654.999,-215.015
480154.206,4482554.999,-213.971
480154.206,4482454.999,-213.006
480154.206,4482354.999,-212.470
480154.206,4482254.999,-212.224
480154.206,4482154.999,-211.935
480154.206,4482054.999,-211.821
480154.206,4481954.999,-212.076
480154.206,4481854.999,-211.772
480154.206,4481754.999,-209.665
480154.206,4481654.999,-205.479
480154.206,4481554.999,-200.329
480154.206,4481454.999,-196.489
480154.206,4481354.999,-193.154
480154.206,4481254.999,-190.473
480154.206,4481154.999,-187.841
480154.206,4481054.999,-185.676
480154.206,4480954.999,-183.733
480154.206,4480854.999,-182.110
480154.206,4480754.999,-180.579
480154.206,4480654.999,-179.147
480154.206,4480554.999,-177.500
480154.206,4480454.999,-176.157
480154.206,4480354.999,-174.981
480154.206,4480254.999,-173.915
480154.206,4480154.999,-172.706
480154.206,4480054.999,-171.790
480154.206,4479954.999,-170.905
480154.206,4479854.999,-170.128
480154.206,4479754.999,-169.187
480154.206,4479654.999,-168.317
480154.206,4479554.999,-167.537
480154.206,4479454.999,-166.851
480154.206,4479354.999,-166.060
480154.206,4479254.999,-165.349
480154.206,4479154.999,-164.584
480154.206,4479054.999,-163.846
480154.206,4478954.999,-163.191
480154.206,4478854.999,-162.645
480154.206,4478754.999,-162.106
480154.206,4478654.999,-161.652
480154.206,4478554.999,-161.098
480154.206,4478454.999,-160.530
480154.206,4478354.999,-159.961
480154.206,4478254.999,-159.492
480154.206,4478154.999,-159.022
480154.206,4478054.999,-158.612
480154.206,4477954.999,-158.242
480154.206,4477854.999,-157.864
480154.206,4477754.999,-157.389
480154.206,4477654.999,-156.925
480154.206,4477554.999,-156.474
480154.206,4477454.999,-156.131
480154.206,4477354.999,-155.847
480154.206,4477254.999,-155.602
480154.206,4477154.999,-155.258
480154.206,4477054.999,-154.882
480154.206,4476954.999,-154.437
480154.206,4476854.999,-154.028
480154.206,4476754.999,-153.638
480154.206,4476654.999,-153.317
480154.206,4476554.999,-153.062
480154.206,4476454.999,-152.857
480154.206,4476354.999,-152.627
480154.206,4476254.999,-152.434
480154.206,4476154.999,-152.283
480154.206,4476054.999,-152.171
480154.206,4475954.999,-152.031
480154.206,4475854.999,-151.805
480154.206,4475754.999,-151.484
480154.206,4475654.999,-151.216
480154.206,4475554.999,-151.019
480154.206,4475454.999,-150.970
480154.206,4475354.999,-150.999
480154.206,4475254.999,-150.958
480154.206,4475154.999,-150.842
480154.206,4475054.999,-150.684
480154.206,4474954.999,-150.525
480154.206,4474854.999,-150.356
480154.206,4474754.999,-150.101
480154.206,4474654.999,-149.862
480154.206,4474554.999,-149.779
480154.206,4474454.999,-149.845
480154.206,4474354.999,-149.748
480154.206,4474254.999,-149.475
480154.206,4474154.999,-149.089
480154.206,4474054.999,-148.742
480154.206,4473954.999,-148.469
480154.206,4473854.999,-148.252
480154.206,4473754.999,-148.051
480154.206,4473654.999,-147.962
480154.206,4473554.999,-147.900
480154.206,4473454.999,-147.878
480154.206,4473354.999,-147.942
480154.206,4473254.999,-147.980
480154.206,4473154.999,-147.959
480154.206,4473054.999,-148.048
480154.206,4472954.999,-148.216
480154.206,4472854.999,-148.277
480154.206,4472754.999,-148.174
480154.206,4472654.999,-147.898
480154.206,4472554.999,-147.586
480154.206,4472454.999,-147.261
480154.206,4472354.999,-146.928
480154.206,4472254.999,-146.738
480154.206,4472154.999,-146.508
480154.206,4472054.999,-146.249
480154.206,4471954.999,-146.175
480154.206,4471854.999,-146.284
480154.206,4471754.999,-146.318
480154.206,4471654.999,-146.131
480154.206,4471554.999,-146.004
480154.206,4471454.999,-145.980
480154.206,4471354.999,-145.907
480154.206,4471254.999,-145.695
480154.206,4471154.999,-145.337
480154.206,4471054.999,-145.131
480154.206,4470954.999,-144.872
480154.206,4470854.999,-144.536
480154.206,4470754.999,-144.264
480154.206,4470654.999,-144.228
480154.206,4470554.999,-144.209
480154.206,4470454.999,-144.191
480154.206,4470354.999,-144.065
480154.206,4470254.999,-143.907
480154.206,4470154.999,-143.815
480154.206,4470054.999,-143.728
480154.206,4469954.999,-143.445
480154.206,4469854.999,-143.026
480154.206,4469754.999,-142.578
480154.206,4469654.999,-142.188
480154.206,4469554.999,-141.766
480154.206,4469454.999,-141.369
480154.206,4469354.999,-141.184
480154.206,4469254.999,-141.166
480154.206,4469154.999,-141.193
480154.206,4469054.999,-141.304
480154.206,4468954.999,-141.337
480154.206,4468854.999,-141.274
480154.206,4468754.999,-141.141
480154.206,4468654.999,-141.098
480154.206,4468554.999,-141.096
480154.206,4468454.999,-141.040
480154.206,4468354.999,-141.009
480154.206,4468254.999,-141.008
480154.206,4468154.999,-141.008
480154.206,4468054.999,-140.997
480154.206,4467954.999,-141.033
480154.206,4467854.999,-141.146
480154.206,4467754.999,-141.391
480154.206,4467654.999,-141.670
480154.206,4467554.999,-141.667
480154.206,4467454.999,-141.389
480154.206,4467354.999,-141.190
480154.206,4467254.999,-141.087
480154.206,4467154.999,-141.007
480154.206,4467054.999,-140.957
480154.206,4466954.999,-140.946
480154.206,4466854.999,-140.895
480154.206,4466754.999,-140.689
480154.206,4466654.999,-140.421
480154.206,4466554.999,-140.173
480154.206,4466454.999,-139.967
480154.206,4466354.999,-139.714
480154.206,4466254.999,-139.417
480154.206,4466154.999,-139.107
480154.206,4466054.999,-138.881
480154.206,4465954.999,-138.824
480154.206,4465854.999,-138.661
480154.206,4465754.999,-138.284
480154.206,4465654.999,-138.070
480154.206,4465554.999,-137.838
480154.206,4465454.999,-137.686
480154.206,4465354.999,-137.795
480154.206,4465254.999,-137.860
480154.206,4465154.999,-137.780
480154.206,4465054.999,-137.571
480154.206,4464954.999,-137.300
480154.206,4464854.999,-137.239
480154.206,4464754.999,-137.291
480154.206,4464654.999,-137.257
480154.206,4464554.999,-137.225
480154.206,4464454.999,-137.148
480154.206,4464354.999,-137.042
480154.206,4464254.999,-136.972
480154.206,4464154.999,-136.858
480154.206,4464054.999,-136.648
480154.206,4463954.999,-136.267
480154.206,4463854.999,-135.873
480154.206,4463754.999,-135.375
480154.206,4463654.999,-134.914
480154.206,4463554.999,-134.427
480154.206,4463454.999,-134.161
480154.206,4463354.999,-134.139
480154.206,4463254.999,-134.220
480154.206,4463154.999,-134.481
480154.206,4463054.999,-134.768
480154.206,4462954.999,-135.021
480154.206,4462854.999,-135.178
480154.206,4462754.999,-135.149
480154.206,4462654.999,-134.985
480154.206,4462554.999,-134.722
480154.206,4462454.999,-134.369
480154.206,4462354.999,-134.083
480154.206,4462254.999,-133.803
480154.206,4462154.999,-133.301
480154.206,4462054.999,-132.883
480154.206,4461954.999,-132.667
480154.206,4461854.999,-132.291
480154.206,4461754.999,-131.844
480154.206,4461654.999,-131.323
480154.206,4461554.999,-130.698
480154.206,4461454.999,-130.136
480154.206,4461354.999,-129.762
480154.206,4461254.999,-129.554
480154.206,4461154.999,-129.249
480154.206,4461054.999,-128.851
480154.206,4460954.999,-128.443
480154.206,4460854.999,-128.132
480154.206,4460754.999,-127.740
480154.206,4460654.999,-127.250
480154.206,4460554.999,-126.851
480154.206,4460454.999,-126.231
480154.206,4460354.999,-125.461
480154.206,4460254.999,-124.899
480154.206,4460154.999,-124.343
480154.206,4460054.999,-124.019
480154.206,4459954.999,-123.639
480154.206,4459854.999,-123.181
480154.206,4459754.999,-122.632
480154.206,4459654.999,-122.235
480154.206,4459554.999,-121.957
480154.206,4459454.999,-121.798
480154.206,4459354.999,-121.920
480154.206,4459254.999,-122.132
480154.206,4459154.999,-122.114
480154.206,4459054.999,-121.788
480154.206,4458954.999,-121.234
480154.206,4458854.999,-120.776
480154.206,4458754.999,-120.662
480154.206,4458654.999,-121.184
480154.206,4458554.999,-121.892
480154.206,4458454.999,-121.756
480154.206,4458354.999,-119.789
480154.206,4458254.999,-115.752
480154.206,4458154.999,-110.410
480154.206,4458054.999,-107.959
480154.206,4457954.999,-110.144
480154.206,4457854.999,-115.065
480154.206,4457754.999,-121.024
480154.206,4457654.999,-125.793
480154.206,4457554.999,-129.484
480154.206,4457454.999,-131.651
480154.206,4457354.999,-133.054
480154.206,4457254.999,-133.688
480154.206,4457154.999,-133.637
480154.206,4457054.999,-133.091
480154.206,4456954.999,-132.287
480154.206,4456854.999,-131.519
480154.206,4456754.999,-130.707
480154.206,4456654.999,-129.869
480154.206,4456554.999,-128.762
480154.206,4456454.999,-127.648
480154.206,4456354.999,-126.578
480154.206,4456254.999,-125.826
480154.206,4456154.999,-125.244
480154.206,4456054.999,-124.933
480154.206,4455954.999,-124.953
480154.206,4455854.999,-125.384
480154.206,4455754.999,-126.145
480154.206,4455654.999,-126.872
480154.206,4455554.999,-127.451
480154.206,4455454.999,-127.712
480154.206,4455354.999,-127.353
480154.206,4455254.999,-126.000
480154.206,4455154.999,-123.249
480154.206,4455054.999,-119.808
480154.206,4454954.999,-115.816
480154.206,4454854.999,-112.946
480154.206,4454754.999,-111.309
480154.206,4454654.999,-109.220
480154.206,4454554.999,-104.392
480154.206,4454454.999,-103.761
480154.206,4453854.999,-102.590
480154.206,4453754.999,-102.676
480154.206,4453654.999,-109.326
480154.206,4453554.999,-116.562
480154.206,4453454.999,-121.168
480154.206,4453354.999,-124.153
480154.206,4453254.999,-126.246
480154.206,4453154.999,-128.500
480154.206,4453054.999,-130.750
480154.206,4452954.999,-133.057
480154.206,4452854.999,-134.783
480154.206,4452754.999,-135.916
480154.206,4452654.999,-136.171
480154.206,4452554.999,-135.752
480154.206,4452454.999,-135.392
480154.206,4452354.999,-135.644
480154.206,4452254.999,-136.407
480154.206,4452154.999,-137.551
480154.206,4452054.999,-138.654
480154.206,4451954.999,-139.654
480154.206,4451854.999,-140.426
480154.206,4451754.999,-140.594
480154.206,4451654.999,-139.599
480154.206,4451554.999,-137.633
480154.206,4451454.999,-136.380
480154.206,4451354.999,-136.809
480154.206,4451254.999,-138.592
480154.206,4451154.999,-140.496
480154.206,4451054.999,-141.089
480154.206,4450954.999,-140.602
480154.206,4450854.999,-139.769
480154.206,4450754.999,-138.855
480154.206,4450654.999,-138.162
480154.206,4450554.999,-137.649
480154.206,4450454.999,-137.394
480154.206,4450354.999,-137.256
480154.206,4450254.999,-137.098
480154.206,4450154.999,-136.856
480154.206,4450054.999,-136.710
480154.206,4449954.999,-136.745
480154.206,4449854.999,-136.938
480154.206,4449754.999,-137.370
480154.206,4449654.999,-138.065
480154.206,4449554.999,-139.119
480154.206,4449454.999,-140.220
480154.206,4449354.999,-141.387
480154.206,4449254.999,-142.486
480154.206,4449154.999,-143.713
480154.206,4449054.999,-144.699
480154.206,4448954.999,-145.382
480154.206,4448854.999,-145.590
480154.206,4448754.999,-145.055
480154.206,4448654.999,-143.650
480154.206,4448554.999,-141.528
480154.206,4448454.999,-139.592
480154.206,4448354.999,-137.915
480154.206,4448254.999,-136.752
480154.206,4448154.999,-135.802
480154.206,4448054.999,-135.089
480154.206,4447954.999,-134.398
480254.206,4490254.999,-100.070
480254.206,4490154.999,-100.079
480254.206,4490054.999,-100.590
480254.206,4489954.999,-101.214
480254.206,4489854.999,-101.913
480254.206,4489754.999,-102.668
480254.206,4489654.999,-103.200
480254.206,4489554.999,-103.786
480254.206,4489454.999,-104.563
480254.206,4489354.999,-105.458
480254.206,4489254.999,-106.255
480254.206,4489154.999,-107.166
480254.206,4489054.999,-107.995
480254.206,4488954.999,-109.000
480254.206,4488854.999,-110.006
480254.206,4488754.999,-110.862
480254.206,4488654.999,-111.783
480254.206,4488554.999,-113.004
480254.206,4488454.999,-114.193
480254.206,4488354.999,-115.721
480254.206,4488254.999,-117.291
480254.206,4488154.999,-118.968
480254.206,4488054.999,-120.812
480254.206,4487954.999,-123.227
480254.206,4487854.999,-126.172
480254.206,4487754.999,-130.503
480254.206,4487654.999,-135.636
480254.206,4487554.999,-141.186
480254.206,4487454.999,-145.434
480254.206,4487354.999,-149.379
480254.206,4487254.999,-152.920
480254.206,4487154.999,-156.809
480254.206,4487054.999,-160.510
480254.206,4486954.999,-164.665
480254.206,4486854.999,-168.546
480254.206,4486754.999,-172.300
480254.206,4486654.999,-175.393
480254.206,4486554.999,-178.564
480254.206,4486454.999,-181.591
480254.206,4486354.999,-185.097
480254.206,4486254.999,-188.650
480254.206,4486154.999,-192.350
480254.206,4486054.999,-195.382
480254.206,4485954.999,-198.195
480254.206,4485854.999,-200.479
480254.206,4485754.999,-202.582
480254.206,4485654.999,-204.467
480254.206,4485554.999,-206.512
480254.206,4485454.999,-208.615
480254.206,4485354.999,-210.619
480254.206,4485254.999,-211.884
480254.206,4485154.999,-212.951
480254.206,4485054.999,-213.988
480254.206,4484954.999,-215.023
480254.206,4484854.999,-215.794
480254.206,4484754.999,-216.751
480254.206,4484654.999,-217.801
480254.206,4484554.999,-218.353
480254.206,4484454.999,-218.275
480254.206,4484354.999,-218.306
480254.206,4484254.999,-218.796
480254.206,4484154.999,-219.791
480254.206,4484054.999,-220.595
480254.206,4483954.999,-220.767
480254.206,4483854.999,-220.456
480254.206,4483754.999,-219.784
480254.206,4483654.999,-219.010
480254.206,4483554.999,-218.238
480254.206,4483454.999,-217.648
480254.206,4483354.999,-217.001
480254.206,4483254.999,-216.176
480254.206,4483154.999,-215.230
480254.206,4483054.999,-214.666
480254.206,4482954.999,-214.327
480254.206,4482854.999,-213.957
480254.206,4482754.999,-213.446
480254.206,4482654.999,-212.768
480254.206,4482554.999,-212.009
480254.206,4482454.999,-211.461
480254.206,4482354.999,-210.631
480254.206,4482254.999,-209.902
480254.206,4482154.999,-209.764
480254.206,4482054.999,-209.771
480254.206,4481954.999,-209.473
480254.206,4481854.999,-208.844
480254.206,4481754.999,-206.959
480254.206,4481654.999,-203.465
480254.206,4481554.999,-198.444
480254.206,4481454.999,-194.637
480254.206,4481354.999,-191.452
480254.206,4481254.999,-188.824
480254.206,4481154.999,-186.184
480254.206,4481054.999,-184.001
480254.206,4480954.999,-182.001
480254.206,4480854.999,-180.435
480254.206,4480754.999,-178.969
480254.206,4480654.999,-177.614
480254.206,4480554.999,-176.012
480254.206,4480454.999,-174.747
480254.206,4480354.999,-173.614
480254.206,4480254.999,-172.532
480254.206,4480154.999,-171.406
480254.206,4480054.999,-170.481
480254.206,4479954.999,-169.721
480254.206,4479854.999,-168.922
480254.206,4479754.999,-168.001
480254.206,4479654.999,-167.229
480254.206,4479554.999,-166.542
480254.206,4479454.999,-165.826
480254.206,4479354.999,-165.116
480254.206,4479254.999,-164.482
480254.206,4479154.999,-163.750
480254.206,4479054.999,-163.107
480254.206,4478954.999,-162.452
480254.206,4478854.999,-161.890
480254.206,4478754.999,-161.376
480254.206,4478654.999,-160.932
480254.206,4478554.999,-160.399
480254.206,4478454.999,-159.860
480254.206,4478354.999,-159.297
480254.206,4478254.999,-158.749
480254.206,4478154.999,-158.265
480254.206,4478054.999,-157.925
480254.206,4477954.999,-157.598
480254.206,4477854.999,-157.279
480254.206,4477754.999,-156.797
480254.206,4477654.999,-156.263
480254.206,4477554.999,-155.811
480254.206,4477454.999,-155.511
480254.206,4477354.999,-155.201
480254.206,4477254.999,-154.898
480254.206,4477154.999,-154.559
480254.206,4477054.999,-154.237
480254.206,4476954.999,-153.836
480254.206,4476854.999,-153.487
480254.206,4476754.999,-153.133
480254.206,4476654.999,-152.860
480254.206,4476554.999,-152.588
480254.206,4476454.999,-152.318
480254.206,4476354.999,-152.054
480254.206,4476254.999,-151.838
480254.206,4476154.999,-151.700
480254.206,4476054.999,-151.589
480254.206,4475954.999,-151.422
480254.206,4475854.999,-151.186
480254.206,4475754.999,-150.939
480254.206,4475654.999,-150.794
480254.206,4475554.999,-150.743
480254.206,4475454.999,-150.688
480254.206,4475354.999,-150.555
480254.206,4475254.999,-150.405
480254.206,4475154.999,-150.278
480254.206,4475054.999,-150.127
480254.206,4474954.999,-149.977
480254.206,4474854.999,-149.818
480254.206,4474754.999,-149.593
480254.206,4474654.999,-149.382
480254.206,4474554.999,-149.209
480254.206,4474454.999,-149.114
480254.206,4474354.999,-149.085
480254.206,4474254.999,-148.996
480254.206,4474154.999,-148.809
480254.206,4474054.999,-148.601
480254.206,4473954.999,-148.358
480254.206,4473854.999,-148.061
480254.206,4473754.999,-147.834
480254.206,4473654.999,-147.687
480254.206,4473554.999,-147.591
480254.206,4473454.999,-147.576
480254.206,4473354.999,-147.604
480254.206,4473254.999,-147.549
480254.206,4473154.999,-147.441
480254.206,4473054.999,-147.410
480254.206,4472954.999,-147.397
480254.206,4472854.999,-147.332
480254.206,4472754.999,-147.176
480254.206,4472654.999,-147.043
480254.206,4472554.999,-146.889
480254.206,4472454.999,-146.681
480254.206,4472354.999,-146.483
480254.206,4472254.999,-146.266
480254.206,4472154.999,-145.961
480254.206,4472054.999,-145.705
480254.206,4471954.999,-145.736
480254.206,4471854.999,-145.819
480254.206,4471754.999,-145.821
480254.206,4471654.999,-145.672
480254.206,4471554.999,-145.484
480254.206,4471454.999,-145.492
480254.206,4471354.999,-145.501
480254.206,4471254.999,-145.314
480254.206,4471154.999,-145.061
480254.206,4471054.999,-144.914
480254.206,4470954.999,-144.613
480254.206,4470854.999,-144.289
480254.206,4470754.999,-144.047
480254.206,4470654.999,-143.926
480254.206,4470554.999,-143.707
480254.206,4470454.999,-143.494
480254.206,4470354.999,-143.339
480254.206,4470254.999,-143.184
480254.206,4470154.999,-143.108
480254.206,4470054.999,-143.110
480254.206,4469954.999,-142.982
480254.206,4469854.999,-142.662
480254.206,4469754.999,-142.233
480254.206,4469654.999,-141.918
480254.206,4469554.999,-141.430
480254.206,4469454.999,-141.123
480254.206,4469354.999,-141.079
480254.206,4469254.999,-141.067
480254.206,4469154.999,-141.058
480254.206,4469054.999,-141.075
480254.206,4468954.999,-141.074
480254.206,4468854.999,-141.044
480254.206,4468754.999,-140.995
480254.206,4468654.999,-141.004
480254.206,4468554.999,-140.998
480254.206,4468454.999,-140.960
480254.206,4468354.999,-140.956
480254.206,4468254.999,-140.965
480254.206,4468154.999,-140.957
480254.206,4468054.999,-140.907
480254.206,4467954.999,-140.910
480254.206,4467854.999,-140.955
480254.206,4467754.999,-140.998
480254.206,4467654.999,-141.059
480254.206,4467554.999,-141.082
480254.206,4467454.999,-141.016
480254.206,4467354.999,-140.942
480254.206,4467254.999,-140.891
480254.206,4467154.999,-140.840
480254.206,4467054.999,-140.809
480254.206,4466954.999,-140.834
480254.206,4466854.999,-140.720
480254.206,4466754.999,-140.412
480254.206,4466654.999,-140.134
480254.206,4466554.999,-139.943
480254.206,4466454.999,-139.665
480254.206,4466354.999,-139.279
480254.206,4466254.999,-139.002
480254.206,4466154.999,-138.670
480254.206,4466054.999,-138.415
480254.206,4465954.999,-138.385
480254.206,4465854.999,-138.234
480254.206,4465754.999,-137.909
480254.206,4465654.999,-137.589
480254.206,4465554.999,-137.294
480254.206,4465454.999,-137.177
480254.206,4465354.999,-137.346
480254.206,4465254.999,-137.459
480254.206,4465154.999,-137.440
480254.206,4465054.999,-137.339
480254.206,4464954.999,-137.205
480254.206,4464854.999,-137.151
480254.206,4464754.999,-137.155
480254.206,4464654.999,-137.127
480254.206,4464554.999,-137.079
480254.206,4464454.999,-137.021
480254.206,4464354.999,-136.961
480254.206,4464254.999,-136.938
480254.206,4464154.999,-136.899
480254.206,4464054.999,-136.802
480254.206,4463954.999,-136.426
480254.206,4463854.999,-135.948
480254.206,4463754.999,-135.373
480254.206,4463654.999,-134.726
480254.206,4463554.999,-134.259
480254.206,4463454.999,-134.127
480254.206,4463354.999,-134.103
480254.206,4463254.999,-134.093
480254.206,4463154.999,-134.361
480254.206,4463054.999,-134.817
480254.206,4462954.999,-135.121
480254.206,4462854.999,-135.323
480254.206,4462754.999,-135.333
480254.206,4462654.999,-135.152
480254.206,4462554.999,-134.915
480254.206,4462454.999,-134.615
480254.206,4462354.999,-134.064
480254.206,4462254.999,-133.562
480254.206,4462154.999,-132.942
480254.206,4462054.999,-132.470
480254.206,4461954.999,-132.119
480254.206,4461854.999,-131.839
480254.206,4461754.999,-131.397
480254.206,4461654.999,-130.788
480254.206,4461554.999,-130.149
480254.206,4461454.999,-129.615
480254.206,4461354.999,-129.154
480254.206,4461254.999,-128.937
480254.206,4461154.999,-128.612
480254.206,4461054.999,-128.171
480254.206,4460954.999,-127.788
480254.206,4460854.999,-127.569
480254.206,4460754.999,-127.274
480254.206,4460654.999,-126.897
480254.206,4460554.999,-126.399
480254.206,4460454.999,-125.733
480254.206,4460354.999,-125.029
480254.206,4460254.999,-124.475
480254.206,4460154.999,-124.004
480254.206,4460054.999,-123.624
480254.206,4459954.999,-123.181
480254.206,4459854.999,-122.670
480254.206,4459754.999,-122.031
480254.206,4459654.999,-121.646
480254.206,4459554.999,-121.343
480254.206,4459454.999,-121.108
480254.206,4459354.999,-121.129
480254.206,4459254.999,-121.252
480254.206,4459154.999,-121.217
480254.206,4459054.999,-120.875
480254.206,4458954.999,-120.634
480254.206,4458854.999,-120.810
480254.206,4458754.999,-121.253
480254.206,4458654.999,-121.912
480254.206,4458554.999,-122.751
480254.206,4458454.999,-123.284
480254.206,4458354.999,-122.874
480254.206,4458254.999,-121.122
480254.206,4458154.999,-118.423
480254.206,4458054.999,-116.862
480254.206,4457954.999,-117.536
480254.206,4457854.999,-119.995
480254.206,4457754.999,-123.562
480254.206,4457654.999,-126.755
480254.206,4457554.999,-129.444
480254.206,4457454.999,-131.328
480254.206,4457354.999,-132.870
480254.206,4457254.999,-133.616
480254.206,4457154.999,-133.471
480254.206,4457054.999,-132.674
480254.206,4456954.999,-131.500
480254.206,4456854.999,-130.367
480254.206,4456754.999,-129.209
480254.206,4456654.999,-128.151
480254.206,4456554.999,-127.014
480254.206,4456454.999,-126.047
480254.206,4456354.999,-125.272
480254.206,4456254.999,-124.854
480254.206,4456154.999,-124.661
480254.206,4456054.999,-124.638
480254.206,4455954.999,-124.837
480254.206,4455854.999,-125.306
480254.206,4455754.999,-125.997
480254.206,4455654.999,-126.596
480254.206,4455554.999,-126.970
480254.206,4455454.999,-126.873
480254.206,4455354.999,-125.773
480254.206,4455254.999,-123.405
480254.206,4455154.999,-119.666
480254.206,4455054.999,-115.644
480254.206,4454954.999,-110.957
480254.206,4454854.999,-107.185
480254.206,4454754.999,-104.828
480254.206,4454654.999,-102.253
480254.206,4454554.999,-102.594
480254.206,4453754.999,-102.822
480254.206,4453654.999,-105.023
480254.206,4453554.999,-113.515
480254.206,4453454.999,-119.454
480254.206,4453354.999,-123.123
480254.206,4453254.999,-125.252
480254.206,4453154.999,-127.172
480254.206,4453054.999,-128.937
480254.206,4452954.999,-130.771
480254.206,4452854.999,-132.363
480254.206,4452754.999,-133.804
480254.206,4452654.999,-134.525
480254.206,4452554.999,-134.545
480254.206,4452454.999,-134.338
480254.206,4452354.999,-134.461
480254.206,4452254.999,-135.180
480254.206,4452154.999,-136.368
480254.206,4452054.999,-137.256
480254.206,4451954.999,-137.888
480254.206,4451854.999,-138.646
480254.206,4451754.999,-138.964
480254.206,4451654.999,-137.686
480254.206,4451554.999,-134.757
480254.206,4451454.999,-132.496
480254.206,4451354.999,-132.500
480254.206,4451254.999,-134.864
480254.206,4451154.999,-138.059
480254.206,4451054.999,-139.679
480254.206,4450954.999,-139.706
480254.206,4450854.999,-138.928
480254.206,4450754.999,-137.859
480254.206,4450654.999,-136.907
480254.206,4450554.999,-136.053
480254.206,4450454.999,-135.529
480254.206,4450354.999,-135.323
480254.206,4450254.999,-135.192
480254.206,4450154.999,-134.805
480254.206,4450054.999,-134.422
480254.206,4449954.999,-134.321
480254.206,4449854.999,-134.524
480254.206,4449754.999,-135.049
480254.206,4449654.999,-135.925
480254.206,4449554.999,-137.260
480254.206,4449454.999,-138.651
480254.206,4449354.999,-140.075
480254.206,4449254.999,-141.325
480254.206,4449154.999,-142.636
480254.206,4449054.999,-143.699
480254.206,4448954.999,-144.537
480254.206,4448854.999,-145.054
480254.206,4448754.999,-145.148
480254.206,4448654.999,-144.474
480254.206,4448554.999,-142.911
480254.206,4448454.999,-141.137
480254.206,4448354.999,-139.389
480254.206,4448254.999,-138.055
480254.206,4448154.999,-136.874
480254.206,4448054.999,-135.907
480254.206,4447954.999,-134.977
480354.206,4490154.999,-100.080
480354.206,4490054.999,-100.080
480354.206,4489954.999,-100.426
480354.206,4489854.999,-100.936
480354.206,4489754.999,-101.631
480354.206,4489654.999,-102.372
480354.206,4489554.999,-102.960
480354.206,4489454.999,-103.460
480354.206,4489354.999,-104.334
480354.206,4489254.999,-105.164
480354.206,4489154.999,-106.026
480354.206,4489054.999,-106.939
480354.206,4488954.999,-107.833
480354.206,4488854.999,-108.720
480354.206,4488754.999,-109.757
480354.206,4488654.999,-110.577
480354.206,4488554.999,-111.499
480354.206,4488454.999,-112.576
480354.206,4488354.999,-113.803
480354.206,4488254.999,-115.150
480354.206,4488154.999,-116.856
480354.206,4488054.999,-118.333
480354.206,4487954.999,-120.170
480354.206,4487854.999,-122.237
480354.206,4487754.999,-125.024
480354.206,4487654.999,-128.542
480354.206,4487554.999,-133.710
480354.206,4487454.999,-138.951
480354.206,4487354.999,-143.902
480354.206,4487254.999,-147.773
480354.206,4487154.999,-151.670
480354.206,4487054.999,-155.363
480354.206,4486954.999,-159.289
480354.206,4486854.999,-162.841
480354.206,4486754.999,-166.747
480354.206,4486654.999,-170.229
480354.206,4486554.999,-173.601
480354.206,4486454.999,-176.622
480354.206,4486354.999,-180.179
480354.206,4486254.999,-183.816
480354.206,4486154.999,-187.666
480354.206,4486054.999,-190.860
480354.206,4485954.999,-193.958
480354.206,4485854.999,-196.627
480354.206,4485754.999,-199.100
480354.206,4485654.999,-200.888
480354.206,4485554.999,-202.803
480354.206,4485454.999,-204.785
480354.206,4485354.999,-206.750
480354.206,4485254.999,-208.161
480354.206,4485154.999,-209.221
480354.206,4485054.999,-210.393
480354.206,4484954.999,-211.753
480354.206,4484854.999,-212.925
480354.206,4484754.999,-213.870
480354.206,4484654.999,-214.572
480354.206,4484554.999,-215.212
480354.206,4484454.999,-215.582
480354.206,4484354.999,-215.625
480354.206,4484254.999,-215.763
480354.206,4484154.999,-216.309
480354.206,4484054.999,-216.925
480354.206,4483954.999,-217.045
480354.206,4483854.999,-216.628
480354.206,4483754.999,-216.395
480354.206,4483654.999,-216.127
480354.206,4483554.999,-215.587
480354.206,4483454.999,-214.993
480354.206,4483354.999,-214.324
480354.206,4483254.999,-213.427
480354.206,4483154.999,-212.432
480354.206,4483054.999,-211.773
480354.206,4482954.999,-211.257
480354.206,4482854.999,-211.045
480354.206,4482754.999,-210.815
480354.206,4482654.999,-210.451
480354.206,4482554.999,-209.864
480354.206,4482454.999,-208.975
480354.206,4482354.999,-207.788
480354.206,4482254.999,-206.955
480354.206,4482154.999,-206.650
480354.206,4482054.999,-206.925
480354.206,4481954.999,-206.792
480354.206,4481854.999,-206.275
480354.206,4481754.999,-205.045
480354.206,4481654.999,-202.363
480354.206,4481554.999,-197.474
480354.206,4481454.999,-193.473
480354.206,4481354.999,-190.138
480354.206,4481254.999,-187.491
480354.206,4481154.999,-184.802
480354.206,4481054.999,-182.641
480354.206,4480954.999,-180.613
480354.206,4480854.999,-178.961
480354.206,4480754.999,-177.451
480354.206,4480654.999,-176.109
480354.206,4480554.999,-174.602
480354.206,4480454.999,-173.423
480354.206,4480354.999,-172.356
480354.206,4480254.999,-171.286
480354.206,4480154.999,-170.197
480354.206,4480054.999,-169.421
480354.206,4479954.999,-168.604
480354.206,4479854.999,-167.776
480354.206,4479754.999,-166.908
480354.206,4479654.999,-166.272
480354.206,4479554.999,-165.539
480354.206,4479454.999,-164.858
480354.206,4479354.999,-164.162
480354.206,4479254.999,-163.541
480354.206,4479154.999,-162.873
480354.206,4479054.999,-162.279
480354.206,4478954.999,-161.718
480354.206,4478854.999,-161.206
480354.206,4478754.999,-160.663
480354.206,4478654.999,-160.220
480354.206,4478554.999,-159.733
480354.206,4478454.999,-159.204
480354.206,4478354.999,-158.562
480354.206,4478254.999,-158.062
480354.206,4478154.999,-157.562
480354.206,4478054.999,-157.185
480354.206,4477954.999,-156.908
480354.206,4477854.999,-156.620
480354.206,4477754.999,-156.148
480354.206,4477654.999,-155.701
480354.206,4477554.999,-155.296
480354.206,4477454.999,-154.953
480354.206,4477354.999,-154.612
480354.206,4477254.999,-154.262
480354.206,4477154.999,-153.900
480354.206,4477054.999,-153.560
480354.206,4476954.999,-153.248
480354.206,4476854.999,-153.005
480354.206,4476754.999,-152.760
480354.206,4476654.999,-152.523
480354.206,4476554.999,-152.210
480354.206,4476454.999,-151.936
480354.206,4476354.999,-151.597
480354.206,4476254.999,-151.294
480354.206,4476154.999,-151.079
480354.206,4476054.999,-150.969
480354.206,4475954.999,-150.791
480354.206,4475854.999,-150.574
480354.206,4475754.999,-150.373
480354.206,4475654.999,-150.250
480354.206,4475554.999,-150.269
480354.206,4475454.999,-150.324
480354.206,4475354.999,-150.245
480354.206,4475254.999,-150.092
480354.206,4475154.999,-149.850
480354.206,4475054.999,-149.639
480354.206,4474954.999,-149.487
480354.206,4474854.999,-149.344
480354.206,4474754.999,-149.145
480354.206,4474654.999,-148.927
480354.206,4474554.999,-148.747
480354.206,4474454.999,-148.624
480354.206,4474354.999,-148.474
480354.206,4474254.999,-148.332
480354.206,4474154.999,-148.293
480354.206,4474054.999,-148.337
480354.206,4473954.999,-148.225
480354.206,4473854.999,-147.961
480354.206,4473754.999,-147.665
480354.206,4473654.999,-147.441
480354.206,4473554.999,-147.276
480354.206,4473454.999,-147.235
480354.206,4473354.999,-147.259
480354.206,4473254.999,-147.215
480354.206,4473154.999,-147.089
480354.206,4473054.999,-146.918
480354.206,4472954.999,-146.626
480354.206,4472854.999,-146.375
480354.206,4472754.999,-146.192
480354.206,4472654.999,-146.245
480354.206,4472554.999,-146.426
480354.206,4472454.999,-146.443
480354.206,4472354.999,-146.310
480354.206,4472254.999,-146.145
480354.206,4472154.999,-145.868
480354.206,4472054.999,-145.551
480354.206,4471954.999,-145.482
480354.206,4471854.999,-145.434
480354.206,4471754.999,-145.380
480354.206,4471654.999,-145.295
480354.206,4471554.999,-145.121
480354.206,4471454.999,-145.094
480354.206,4471354.999,-145.061
480354.206,4471254.999,-144.929
480354.206,4471154.999,-144.762
480354.206,4471054.999,-144.601
480354.206,4470954.999,-144.322
480354.206,4470854.999,-144.121
480354.206,4470754.999,-143.928
480354.206,4470654.999,-143.708
480354.206,4470554.999,-143.367
480354.206,4470454.999,-143.114
480354.206,4470354.999,-142.907
480354.206,4470254.999,-142.627
480354.206,4470154.999,-142.518
480354.206,4470054.999,-142.626
480354.206,4469954.999,-142.612
480354.206,4469854.999,-142.322
480354.206,4469754.999,-142.026
480354.206,4469654.999,-141.746
480354.206,4469554.999,-141.320
480354.206,4469454.999,-141.080
480354.206,4469354.999,-141.018
480354.206,4469254.999,-140.987
480354.206,4469154.999,-140.988
480354.206,4469054.999,-140.976
480354.206,4468954.999,-140.932
480354.206,4468854.999,-140.850
480354.206,4468754.999,-140.817
480354.206,4468654.999,-140.857
480354.206,4468554.999,-140.930
480354.206,4468454.999,-140.902
480354.206,4468354.999,-140.849
480354.206,4468254.999,-140.844
480354.206,4468154.999,-140.852
480354.206,4468054.999,-140.757
480354.206,4467954.999,-140.672
480354.206,4467854.999,-140.634
480354.206,4467754.999,-140.521
480354.206,4467654.999,-140.408
480354.206,4467554.999,-140.442
480354.206,4467454.999,-140.593
480354.206,4467354.999,-140.650
480354.206,4467254.999,-140.606
480354.206,4467154.999,-140.546
480354.206,4467054.999,-140.514
480354.206,4466954.999,-140.493
480354.206,4466854.999,-140.344
480354.206,4466754.999,-140.082
480354.206,4466654.999,-139.895
480354.206,4466554.999,-139.788
480354.206,4466454.999,-139.434
480354.206,4466354.999,-139.041
480354.206,4466254.999,-138.722
480354.206,4466154.999,-138.279
480354.206,4466054.999,-137.998
480354.206,4465954.999,-137.787
480354.206,4465854.999,-137.662
480354.206,4465754.999,-137.475
480354.206,4465654.999,-137.188
480354.206,4465554.999,-137.032
480354.206,4465454.999,-136.963
480354.206,4465354.999,-137.011
