464854.206,4481854.999,-530.544
464854.206,4481654.999,-530.559
464854.206,4481454.999,-533.178
464854.206,4481254.999,-535.051
464854.206,4481054.999,-538.404
464854.206,4480854.999,-535.537
464854.206,4480654.999,-529.537
464854.206,4480454.999,-521.542
464854.206,4480254.999,-524.034
464854.206,4480054.999,-543.775
464854.206,4479854.999,-557.456
464854.206,4479654.999,-564.778
464854.206,4479454.999,-565.462
464854.206,4479254.999,-564.907
464854.206,4479054.999,-569.813
464854.206,4478854.999,-573.732
464854.206,4478654.999,-574.281
464854.206,4478454.999,-575.026
464854.206,4478254.999,-575.526
464854.206,4478054.999,-573.087
464854.206,4477854.999,-570.171
464854.206,4477654.999,-567.481
464854.206,4477454.999,-563.972
464854.206,4477254.999,-559.692
464854.206,4477054.999,-552.278
464854.206,4476854.999,-541.063
464854.206,4476654.999,-532.247
464854.206,4476454.999,-521.139
464854.206,4476254.999,-507.446
464854.206,4476054.999,-504.243
464854.206,4450454.999,-501.619
464854.206,4450254.999,-502.976
464854.206,4450054.999,-505.359
464854.206,4449854.999,-504.894
464854.206,4449654.999,-506.587
464854.206,4449454.999,-508.959
464854.206,4449254.999,-512.815
464854.206,4449054.999,-518.434
464854.206,4448854.999,-527.518
464854.206,4448654.999,-526.309
464854.206,4448454.999,-512.808
464854.206,4448254.999,-510.928
465054.206,4494654.999,-522.784
465054.206,4494454.999,-511.032
465054.206,4494254.999,-541.402
465054.206,4494054.999,-577.804
465054.206,4493854.999,-608.590
465054.206,4493654.999,-629.880
465054.206,4493454.999,-656.424
465054.206,4493254.999,-690.985
465054.206,4493054.999,-706.359
465054.206,4492854.999,-717.054
465054.206,4492654.999,-724.517
465054.206,4492454.999,-730.878
465054.206,4492254.999,-737.446
465054.206,4492054.999,-743.616
465054.206,4491854.999,-748.178
465054.206,4491654.999,-752.490
465054.206,4491454.999,-756.745
465054.206,4491254.999,-761.271
465054.206,4491054.999,-766.195
465054.206,4490854.999,-771.065
465054.206,4490654.999,-775.551
465054.206,4490454.999,-779.508
465054.206,4490254.999,-782.200
465054.206,4490054.999,-785.067
465054.206,4489854.999,-788.448
465054.206,4489654.999,-791.675
465054.206,4489454.999,-794.884
465054.206,4489254.999,-798.080
465054.206,4489054.999,-800.958
465054.206,4488854.999,-803.288
465054.206,4488654.999,-805.206
465054.206,4488454.999,-806.486
465054.206,4488254.999,-807.599
465054.206,4488054.999,-808.387
465054.206,4487854.999,-808.902
465054.206,4487654.999,-809.638
465054.206,4487454.999,-810.455
465054.206,4487254.999,-811.759
465054.206,4487054.999,-814.032
465054.206,4486854.999,-816.741
465054.206,4486654.999,-819.266
465054.206,4486454.999,-821.189
465054.206,4486254.999,-821.697
465054.206,4486054.999,-819.830
465054.206,4485854.999,-809.943
465054.206,4485654.999,-790.568
465054.206,4485454.999,-769.651
465054.206,4485254.999,-739.150
465054.206,4485054.999,-706.981
465054.206,4484854.999,-676.972
465054.206,4484654.999,-651.244
465054.206,4484454.999,-631.420
465054.206,4484254.999,-610.876
465054.206,4484054.999,-592.676
465054.206,4483854.999,-577.687
465054.206,4483654.999,-561.842
465054.206,4483454.999,-546.906
465054.206,4483254.999,-539.884
465054.206,4483054.999,-541.265
465054.206,4482854.999,-547.779
465054.206,4482654.999,-536.614
465054.206,4482454.999,-531.254
465054.206,4482254.999,-528.989
465054.206,4482054.999,-527.549
465054.206,4481854.999,-525.586
465054.206,4481654.999,-524.936
465054.206,4481454.999,-528.317
465054.206,4481254.999,-531.711
465054.206,4481054.999,-530.553
465054.206,4480854.999,-525.363
465054.206,4480654.999,-518.336
465054.206,4480454.999,-510.656
465054.206,4480254.999,-520.353
465054.206,4480054.999,-540.927
465054.206,4479854.999,-555.737
465054.206,4479654.999,-563.495
465054.206,4479454.999,-565.248
465054.206,4479254.999,-564.687
465054.206,4479054.999,-565.069
465054.206,4478854.999,-568.664
465054.206,4478654.999,-570.047
465054.206,4478454.999,-569.999
465054.206,4478254.999,-569.839
465054.206,4478054.999,-568.071
465054.206,4477854.999,-567.755
465054.206,4477654.999,-565.922
465054.206,4477454.999,-560.192
465054.206,4477254.999,-549.405
465054.206,4477054.999,-535.294
465054.206,4476854.999,-522.267
465054.206,4476654.999,-510.665
465054.206,4476454.999,-506.369
465054.206,4476254.999,-503.303
465054.206,4450254.999,-501.122
465054.206,4450054.999,-501.810
465054.206,4449854.999,-502.443
465054.206,4449654.999,-503.239
465054.206,4449454.999,-502.932
465054.206,4449254.999,-503.340
465054.206,4449054.999,-504.109
465054.206,4448854.999,-505.837
465054.206,4448654.999,-506.510
465054.206,4448454.999,-505.977
465054.206,4448254.999,-504.370
465054.206,4448054.999,-501.626
465254.206,4494854.999,-517.604
465254.206,4494654.999,-533.688
465254.206,4494454.999,-551.912
465254.206,4494254.999,-574.780
465254.206,4494054.999,-595.497
465254.206,4493854.999,-617.031
465254.206,4493654.999,-637.475
465254.206,4493454.999,-672.786
465254.206,4493254.999,-693.049
465254.206,4493054.999,-704.128
465254.206,4492854.999,-714.780
465254.206,4492654.999,-721.135
465254.206,4492454.999,-726.900
465254.206,4492254.999,-733.687
465254.206,4492054.999,-739.638
465254.206,4491854.999,-744.787
465254.206,4491654.999,-749.965
465254.206,4491454.999,-754.617
465254.206,4491254.999,-759.188
465254.206,4491054.999,-764.202
465254.206,4490854.999,-769.140
465254.206,4490654.999,-773.586
465254.206,4490454.999,-776.599
465254.206,4490254.999,-778.489
465254.206,4490054.999,-781.415
465254.206,4489854.999,-785.558
465254.206,4489654.999,-789.505
465254.206,4489454.999,-793.307
465254.206,4489254.999,-795.973
465254.206,4489054.999,-798.977
465254.206,4488854.999,-801.400
465254.206,4488654.999,-802.853
465254.206,4488454.999,-804.232
465254.206,4488254.999,-805.174
465254.206,4488054.999,-805.711
465254.206,4487854.999,-806.308
465254.206,4487654.999,-807.043
465254.206,4487454.999,-808.180
465254.206,4487254.999,-810.070
465254.206,4487054.999,-811.948
465254.206,4486854.999,-813.076
465254.206,4486654.999,-814.025
465254.206,4486454.999,-815.688
465254.206,4486254.999,-817.627
465254.206,4486054.999,-815.906
465254.206,4485854.999,-801.025
465254.206,4485654.999,-782.609
465254.206,4485454.999,-749.263
465254.206,4485254.999,-709.697
465254.206,4485054.999,-683.241
465254.206,4484854.999,-654.730
465254.206,4484654.999,-629.771
465254.206,4484454.999,-612.010
465254.206,4484254.999,-592.844
465254.206,4484054.999,-575.301
465254.206,4483854.999,-561.661
465254.206,4483654.999,-546.878
465254.206,4483454.999,-535.246
465254.206,4483254.999,-530.646
465254.206,4483054.999,-530.826
465254.206,4482854.999,-534.857
465254.206,4482654.999,-529.390
465254.206,4482454.999,-526.153
465254.206,4482254.999,-525.222
465254.206,4482054.999,-523.916
465254.206,4481854.999,-521.911
465254.206,4481654.999,-520.026
465254.206,4481454.999,-522.158
465254.206,4481254.999,-529.468
465254.206,4481054.999,-525.641
465254.206,4480854.999,-515.746
465254.206,4480654.999,-507.667
465254.206,4480454.999,-509.146
465254.206,4480254.999,-518.155
465254.206,4480054.999,-539.319
465254.206,4479854.999,-554.779
465254.206,4479654.999,-562.720
465254.206,4479454.999,-563.895
465254.206,4479254.999,-563.776
465254.206,4479054.999,-561.934
465254.206,4478854.999,-561.522
465254.206,4478654.999,-562.385
465254.206,4478454.999,-563.803
465254.206,4478254.999,-563.312
465254.206,4478054.999,-563.561
465254.206,4477854.999,-564.120
465254.206,4477654.999,-561.217
465254.206,4477454.999,-550.423
465254.206,4477254.999,-533.696
465254.206,4477054.999,-518.062
465254.206,4476854.999,-507.991
465254.206,4476654.999,-504.303
465254.206,4448654.999,-501.445
465254.206,4448454.999,-502.373
465454.206,4494654.999,-522.863
465454.206,4494454.999,-528.413
465454.206,4494254.999,-560.500
465454.206,4494054.999,-593.215
465454.206,4493854.999,-621.619
465454.206,4493654.999,-650.034
465454.206,4493454.999,-681.032
465454.206,4493254.999,-692.163
465454.206,4493054.999,-700.806
465454.206,4492854.999,-710.983
465454.206,4492654.999,-717.853
465454.206,4492454.999,-723.862
465454.206,4492254.999,-730.689
465454.206,4492054.999,-736.403
465454.206,4491854.999,-741.928
465454.206,4491654.999,-747.089
465454.206,4491454.999,-752.444
465454.206,4491254.999,-757.302
465454.206,4491054.999,-761.674
465454.206,4490854.999,-766.332
465454.206,4490654.999,-770.472
465454.206,4490454.999,-772.926
465454.206,4490254.999,-774.868
465454.206,4490054.999,-778.293
465454.206,4489854.999,-782.517
465454.206,4489654.999,-787.495
465454.206,4489454.999,-791.219
465454.206,4489254.999,-793.927
465454.206,4489054.999,-796.544
465454.206,4488854.999,-798.673
465454.206,4488654.999,-800.265
465454.206,4488454.999,-801.890
465454.206,4488254.999,-802.638
465454.206,4488054.999,-802.946
465454.206,4487854.999,-803.539
465454.206,4487654.999,-804.462
465454.206,4487454.999,-806.118
465454.206,4487254.999,-808.012
465454.206,4487054.999,-808.489
465454.206,4486854.999,-805.258
465454.206,4486654.999,-799.462
465454.206,4486454.999,-797.614
465454.206,4486254.999,-803.017
465454.206,4486054.999,-811.627
465454.206,4485854.999,-794.947
465454.206,4485654.999,-769.310
465454.206,4485454.999,-727.273
465454.206,4485254.999,-684.737
465454.206,4485054.999,-655.971
465454.206,4484854.999,-629.888
465454.206,4484654.999,-609.842
465454.206,4484454.999,-591.428
465454.206,4484254.999,-574.160
465454.206,4484054.999,-559.064
465454.206,4483854.999,-545.964
465454.206,4483654.999,-533.860
465454.206,4483454.999,-527.460
465454.206,4483254.999,-524.610
465454.206,4483054.999,-524.552
465454.206,4482854.999,-526.824
465454.206,4482654.999,-523.618
465454.206,4482454.999,-520.149
465454.206,4482254.999,-519.430
465454.206,4482054.999,-518.792
465454.206,4481854.999,-518.188
465454.206,4481654.999,-517.313
465454.206,4481454.999,-516.348
465454.206,4481254.999,-519.193
465454.206,4481054.999,-519.267
465454.206,4480854.999,-509.197
465454.206,4480654.999,-508.946
465454.206,4480454.999,-511.561
465454.206,4480254.999,-518.478
465454.206,4480054.999,-539.071
465454.206,4479854.999,-553.718
465454.206,4479654.999,-560.317
465454.206,4479454.999,-562.226
465454.206,4479254.999,-560.979
465454.206,4479054.999,-558.309
465454.206,4478854.999,-558.031
465454.206,4478654.999,-555.418
465454.206,4478454.999,-555.905
465454.206,4478254.999,-558.254
465454.206,4478054.999,-559.060
465454.206,4477854.999,-558.280
465454.206,4477654.999,-552.207
465454.206,4477454.999,-537.984
465454.206,4477254.999,-521.019
465454.206,4477054.999,-507.798
465454.206,4476854.999,-503.645
465654.206,4494654.999,-512.075
465654.206,4494454.999,-514.569
465654.206,4494254.999,-552.489
465654.206,4494054.999,-581.240
465654.206,4493854.999,-611.281
465654.206,4493654.999,-650.819
465654.206,4493454.999,-670.443
465654.206,4493254.999,-682.244
465654.206,4493054.999,-695.490
465654.206,4492854.999,-705.324
465654.206,4492654.999,-713.710
465654.206,4492454.999,-721.245
465654.206,4492254.999,-727.249
465654.206,4492054.999,-732.526
465654.206,4491854.999,-738.065
465654.206,4491654.999,-743.296
465654.206,4491454.999,-749.674
465654.206,4491254.999,-755.099
465654.206,4491054.999,-758.640
465654.206,4490854.999,-763.049
465654.206,4490654.999,-767.626
465654.206,4490454.999,-770.190
465654.206,4490254.999,-772.346
465654.206,4490054.999,-775.632
465654.206,4489854.999,-780.152
465654.206,4489654.999,-785.804
465654.206,4489454.999,-789.130
465654.206,4489254.999,-791.997
465654.206,4489054.999,-794.355
465654.206,4488854.999,-795.958
465654.206,4488654.999,-797.626
465654.206,4488454.999,-799.096
465654.206,4488254.999,-799.933
465654.206,4488054.999,-800.405
465654.206,4487854.999,-801.055
465654.206,4487654.999,-802.348
465654.206,4487454.999,-803.837
465654.206,4487254.999,-803.791
465654.206,4487054.999,-799.573
465654.206,4486854.999,-790.794
465654.206,4486654.999,-780.595
465654.206,4486454.999,-772.141
465654.206,4486254.999,-778.196
465654.206,4486054.999,-807.621
465654.206,4485854.999,-791.142
465654.206,4485654.999,-743.627
465654.206,4485454.999,-704.848
465654.206,4485254.999,-669.502
465654.206,4485054.999,-635.839
465654.206,4484854.999,-607.169
465654.206,4484654.999,-589.038
465654.206,4484454.999,-569.430
465654.206,4484254.999,-553.876
465654.206,4484054.999,-542.863
465654.206,4483854.999,-532.458
465654.206,4483654.999,-525.756
465654.206,4483454.999,-522.189
465654.206,4483254.999,-519.718
465654.206,4483054.999,-519.314
465654.206,4482854.999,-520.581
465654.206,4482654.999,-518.561
465654.206,4482454.999,-515.357
465654.206,4482254.999,-513.634
465654.206,4482054.999,-513.238
465654.206,4481854.999,-514.105
465654.206,4481654.999,-514.807
465654.206,4481454.999,-513.446
465654.206,4481254.999,-510.939
465654.206,4481054.999,-510.226
465654.206,4480854.999,-508.733
465654.206,4480454.999,-513.478
465654.206,4480254.999,-519.401
465654.206,4480054.999,-537.337
465654.206,4479854.999,-551.199
465654.206,4479654.999,-556.169
465654.206,4479454.999,-558.215
465654.206,4479254.999,-556.741
465654.206,4479054.999,-554.563
465654.206,4478854.999,-555.797
465654.206,4478654.999,-554.690
465654.206,4478454.999,-553.470
465654.206,4478254.999,-554.006
465654.206,4478054.999,-554.413
465654.206,4477854.999,-551.492
465654.206,4477654.999,-540.302
465654.206,4477454.999,-524.387
465654.206,4477254.999,-509.444
465654.206,4477054.999,-503.789
465854.206,4494854.999,-517.625
465854.206,4494654.999,-504.885
465854.206,4494454.999,-512.459
465854.206,4494254.999,-541.567
465854.206,4494054.999,-568.695
465854.206,4493854.999,-605.247
465854.206,4493654.999,-647.450
465854.206,4493454.999,-663.159
465854.206,4493254.999,-675.325
465854.206,4493054.999,-688.933
465854.206,4492854.999,-698.751
465854.206,4492654.999,-708.179
465854.206,4492454.999,-716.538
465854.206,4492254.999,-722.377
465854.206,4492054.999,-727.940
465854.206,4491854.999,-734.149
465854.206,4491654.999,-739.987
465854.206,4491454.999,-746.655
465854.206,4491254.999,-751.839
465854.206,4491054.999,-756.017
465854.206,4490854.999,-761.361
465854.206,4490654.999,-766.260
465854.206,4490454.999,-769.414
465854.206,4490254.999,-771.197
465854.206,4490054.999,-773.811
465854.206,4489854.999,-778.395
465854.206,4489654.999,-783.623
465854.206,4489454.999,-787.053
465854.206,4489254.999,-790.175
465854.206,4489054.999,-792.214
465854.206,4488854.999,-793.639
465854.206,4488654.999,-795.348
465854.206,4488454.999,-796.595
465854.206,4488254.999,-797.246
465854.206,4488054.999,-797.887
465854.206,4487854.999,-798.853
465854.206,4487654.999,-799.727
465854.206,4487454.999,-796.739
465854.206,4487254.999,-787.741
465854.206,4487054.999,-779.937
465854.206,4486854.999,-771.980
465854.206,4486654.999,-761.720
465854.206,4486454.999,-746.715
465854.206,4486254.999,-741.538
465854.206,4486054.999,-784.524
465854.206,4485854.999,-786.650
465854.206,4485654.999,-742.577
465854.206,4485454.999,-684.325
465854.206,4485254.999,-652.124
465854.206,4485054.999,-619.222
465854.206,4484854.999,-589.676
465854.206,4484654.999,-570.821
465854.206,4484454.999,-552.301
465854.206,4484254.999,-537.734
465854.206,4484054.999,-528.316
465854.206,4483854.999,-522.836
465854.206,4483654.999,-520.087
465854.206,4483454.999,-517.955
465854.206,4483254.999,-516.094
465854.206,4483054.999,-514.978
465854.206,4482854.999,-514.797
465854.206,4482654.999,-513.604
465854.206,4482454.999,-511.186
465854.206,4482254.999,-509.511
465854.206,4482054.999,-508.555
465854.206,4481854.999,-509.243
465854.206,4481654.999,-511.317
465854.206,4481454.999,-510.207
465854.206,4481254.999,-507.751
465854.206,4481054.999,-507.274
465854.206,4480454.999,-514.133
465854.206,4480254.999,-520.740
465854.206,4480054.999,-537.551
465854.206,4479854.999,-547.840
465854.206,4479654.999,-551.378
465854.206,4479454.999,-552.780
465854.206,4479254.999,-551.803
465854.206,4479054.999,-551.651
465854.206,4478854.999,-552.487
465854.206,4478654.999,-551.448
465854.206,4478454.999,-549.981
465854.206,4478254.999,-548.940
465854.206,4478054.999,-549.094
465854.206,4477854.999,-544.076
465854.206,4477654.999,-528.611
465854.206,4477454.999,-512.073
465854.206,4477254.999,-503.924
466054.206,4495054.999,-510.747
466054.206,4494854.999,-510.509
466054.206,4494654.999,-527.677
466054.206,4494454.999,-528.806
466054.206,4494254.999,-536.261
466054.206,4494054.999,-565.072
466054.206,4493854.999,-608.699
466054.206,4493654.999,-640.718
466054.206,4493454.999,-657.259
466054.206,4493254.999,-670.895
466054.206,4493054.999,-680.748
466054.206,4492854.999,-690.540
466054.206,4492654.999,-701.625
466054.206,4492454.999,-710.053
466054.206,4492254.999,-716.422
466054.206,4492054.999,-722.929
466054.206,4491854.999,-730.235
466054.206,4491654.999,-737.341
466054.206,4491454.999,-744.485
466054.206,4491254.999,-749.610
466054.206,4491054.999,-754.562
466054.206,4490854.999,-759.935
466054.206,4490654.999,-764.382
466054.206,4490454.999,-768.199
466054.206,4490254.999,-770.672
466054.206,4490054.999,-773.778
466054.206,4489854.999,-777.968
466054.206,4489654.999,-782.107
466054.206,4489454.999,-785.271
466054.206,4489254.999,-788.188
466054.206,4489054.999,-789.992
466054.206,4488854.999,-791.506
466054.206,4488654.999,-792.971
466054.206,4488454.999,-793.912
466054.206,4488254.999,-794.614
466054.206,4488054.999,-795.439
466054.206,4487854.999,-796.571
466054.206,4487654.999,-794.946
466054.206,4487454.999,-783.282
466054.206,4487254.999,-765.837
466054.206,4487054.999,-752.603
466054.206,4486854.999,-744.227
466054.206,4486654.999,-739.426
466054.206,4486454.999,-726.455
466054.206,4486254.999,-707.867
466054.206,4486054.999,-728.811
466054.206,4485854.999,-758.597
466054.206,4485654.999,-734.488
466054.206,4485454.999,-675.885
466054.206,4485254.999,-631.287
466054.206,4485054.999,-601.522
466054.206,4484854.999,-576.755
466054.206,4484654.999,-555.054
466054.206,4484454.999,-537.296
466054.206,4484254.999,-525.744
466054.206,4484054.999,-517.748
466054.206,4483854.999,-514.634
466054.206,4483654.999,-513.593
466054.206,4483454.999,-513.479
466054.206,4483254.999,-513.358
466054.206,4483054.999,-512.417
466054.206,4482854.999,-511.080
466054.206,4482654.999,-509.822
466054.206,4482454.999,-507.780
466054.206,4482254.999,-506.466
466054.206,4482054.999,-505.852
466054.206,4481854.999,-505.809
466054.206,4481654.999,-505.191
466054.206,4481454.999,-502.598
466054.206,4481254.999,-504.143
466054.206,4480454.999,-512.277
466054.206,4480254.999,-523.915
466054.206,4480054.999,-535.920
466054.206,4479854.999,-542.526
466054.206,4479654.999,-545.340
466054.206,4479454.999,-546.599
466054.206,4479254.999,-546.410
466054.206,4479054.999,-546.942
466054.206,4478854.999,-548.448
466054.206,4478654.999,-547.394
466054.206,4478454.999,-544.694
466054.206,4478254.999,-543.232
466054.206,4478054.999,-542.501
466054.206,4477854.999,-533.456
466054.206,4477654.999,-516.833
466054.206,4477454.999,-504.820
466254.206,4495054.999,-516.308
466254.206,4494854.999,-535.012
466254.206,4494654.999,-554.334
466254.206,4494454.999,-566.991
466254.206,4494254.999,-576.246
466254.206,4494054.999,-587.702
466254.206,4493854.999,-611.444
466254.206,4493654.999,-632.070
466254.206,4493454.999,-652.322
466254.206,4493254.999,-663.746
466254.206,4493054.999,-673.401
466254.206,4492854.999,-683.471
466254.206,4492654.999,-695.170
466254.206,4492454.999,-705.075
466254.206,4492254.999,-713.080
466254.206,4492054.999,-720.851
466254.206,4491854.999,-727.985
466254.206,4491654.999,-735.593
466254.206,4491454.999,-743.146
466254.206,4491254.999,-748.768
466254.206,4491054.999,-753.473
466254.206,4490854.999,-757.325
466254.206,4490654.999,-761.654
466254.206,4490454.999,-766.048
466254.206,4490254.999,-769.829
466254.206,4490054.999,-774.077
466254.206,4489854.999,-777.525
466254.206,4489654.999,-780.759
466254.206,4489454.999,-783.747
466254.206,4489254.999,-786.322
466254.206,4489054.999,-787.753
466254.206,4488854.999,-789.065
466254.206,4488654.999,-789.992
466254.206,4488454.999,-790.853
466254.206,4488254.999,-791.682
466254.206,4488054.999,-792.539
466254.206,4487854.999,-792.217
466254.206,4487654.999,-784.161
466254.206,4487454.999,-765.054
466254.206,4487254.999,-745.855
466254.206,4487054.999,-728.908
466254.206,4486854.999,-716.816
466254.206,4486654.999,-708.850
466254.206,4486454.999,-698.637
466254.206,4486254.999,-681.661
466254.206,4486054.999,-683.216
466254.206,4485854.999,-719.866
466254.206,4485654.999,-698.246
466254.206,4485454.999,-665.104
466254.206,4485254.999,-607.445
466254.206,4485054.999,-577.470
466254.206,4484854.999,-560.628
466254.206,4484654.999,-542.142
466254.206,4484454.999,-526.850
466254.206,4484254.999,-517.076
466254.206,4484054.999,-510.767
466254.206,4483854.999,-507.920
466254.206,4483654.999,-507.547
466254.206,4483454.999,-508.657
466254.206,4483254.999,-509.783
466254.206,4483054.999,-509.777
466254.206,4482854.999,-508.803
466254.206,4482654.999,-506.820
466254.206,4482454.999,-504.684
466254.206,4482254.999,-503.600
466254.206,4482054.999,-502.851
466254.206,4481854.999,-501.967
466254.206,4481654.999,-501.813
466254.206,4481454.999,-501.035
466254.206,4480654.999,-503.603
466254.206,4480454.999,-508.779
466254.206,4480254.999,-524.605
466254.206,4480054.999,-535.383
466254.206,4479854.999,-538.651
466254.206,4479654.999,-540.567
466254.206,4479454.999,-541.046
466254.206,4479254.999,-540.599
466254.206,4479054.999,-540.613
466254.206,4478854.999,-542.437
466254.206,4478654.999,-541.976
466254.206,4478454.999,-539.373
466254.206,4478254.999,-537.055
466254.206,4478054.999,-533.443
466254.206,4477854.999,-519.079
466254.206,4477654.999,-504.178
466254.206,4477454.999,-502.431
466454.206,4495254.999,-508.260
466454.206,4495054.999,-516.019
466454.206,4494854.999,-534.511
466454.206,4494654.999,-557.773
466454.206,4494454.999,-576.062
466454.206,4494254.999,-593.710
466454.206,4494054.999,-612.100
466454.206,4493854.999,-626.007
466454.206,4493654.999,-637.670
466454.206,4493454.999,-650.716
466454.206,4493254.999,-660.241
466454.206,4493054.999,-671.849
466454.206,4492854.999,-683.654
466454.206,4492654.999,-694.450
466454.206,4492454.999,-704.022
466454.206,4492254.999,-713.048
466454.206,4492054.999,-721.657
466454.206,4491854.999,-727.833
466454.206,4491654.999,-734.599
466454.206,4491454.999,-741.092
466454.206,4491254.999,-746.057
466454.206,4491054.999,-749.768
466454.206,4490854.999,-754.456
466454.206,4490654.999,-759.929
466454.206,4490454.999,-764.716
466454.206,4490254.999,-768.464
466454.206,4490054.999,-772.617
466454.206,4489854.999,-776.113
466454.206,4489654.999,-779.133
466454.206,4489454.999,-782.508
466454.206,4489254.999,-784.553
466454.206,4489054.999,-785.556
466454.206,4488854.999,-786.290
466454.206,4488654.999,-786.831
466454.206,4488454.999,-787.666
466454.206,4488254.999,-788.384
466454.206,4488054.999,-788.945
466454.206,4487854.999,-785.624
466454.206,4487654.999,-768.815
466454.206,4487454.999,-746.412
466454.206,4487254.999,-727.459
466454.206,4487054.999,-710.438
466454.206,4486854.999,-693.713
466454.206,4486654.999,-678.114
466454.206,4486454.999,-668.972
466454.206,4486254.999,-655.841
466454.206,4486054.999,-646.424
466454.206,4485854.999,-668.214
466454.206,4485654.999,-675.907
466454.206,4485454.999,-643.607
466454.206,4485254.999,-597.099
466454.206,4485054.999,-561.870
466454.206,4484854.999,-546.924
466454.206,4484654.999,-532.492
466454.206,4484454.999,-520.890
466454.206,4484254.999,-512.831
466454.206,4484054.999,-505.800
466454.206,4483854.999,-501.635
466454.206,4483654.999,-501.818
466454.206,4483454.999,-502.849
466454.206,4483254.999,-504.453
466454.206,4483054.999,-506.253
466454.206,4482854.999,-506.191
466454.206,4482654.999,-503.344
466454.206,4482454.999,-501.381
466454.206,4482254.999,-501.509
466454.206,4481854.999,-500.845
466454.206,4480654.999,-503.569
466454.206,4480454.999,-507.535
466454.206,4480254.999,-522.618
466454.206,4480054.999,-532.968
466454.206,4479854.999,-535.214
466454.206,4479654.999,-535.015
466454.206,4479454.999,-535.535
466454.206,4479254.999,-535.674
466454.206,4479054.999,-533.830
466454.206,4478854.999,-535.461
466454.206,4478654.999,-535.919
466454.206,4478454.999,-533.989
466454.206,4478254.999,-531.075
466454.206,4478054.999,-523.780
466454.206,4477854.999,-509.638
466454.206,4477654.999,-502.414
466654.206,4495054.999,-510.877
466654.206,4494854.999,-518.879
466654.206,4494654.999,-546.010
466654.206,4494454.999,-565.717
466654.206,4494254.999,-586.957
466654.206,4494054.999,-609.025
466654.206,4493854.999,-625.634
466654.206,4493654.999,-640.160
466654.206,4493454.999,-651.152
466654.206,4493254.999,-661.328
466654.206,4493054.999,-674.536
466654.206,4492854.999,-687.531
466654.206,4492654.999,-696.566
466654.206,4492454.999,-704.197
466654.206,4492254.999,-712.511
466654.206,4492054.999,-720.900
466654.206,4491854.999,-726.460
466654.206,4491654.999,-731.189
466654.206,4491454.999,-737.259
466654.206,4491254.999,-742.751
466654.206,4491054.999,-746.650
466654.206,4490854.999,-751.921
466654.206,4490654.999,-757.827
466654.206,4490454.999,-762.937
466654.206,4490254.999,-767.083
466654.206,4490054.999,-770.581
466654.206,4489854.999,-773.969
466654.206,4489654.999,-777.420
466654.206,4489454.999,-780.803
466654.206,4489254.999,-782.180
466654.206,4489054.999,-782.694
466654.206,4488854.999,-783.131
466654.206,4488654.999,-783.821
466654.206,4488454.999,-784.854
466654.206,4488254.999,-785.670
466654.206,4488054.999,-785.241
466654.206,4487854.999,-777.113
466654.206,4487654.999,-752.770
466654.206,4487454.999,-730.255
466654.206,4487254.999,-710.513
466654.206,4487054.999,-693.078
466654.206,4486854.999,-673.864
466654.206,4486654.999,-655.481
466654.206,4486454.999,-644.330
466654.206,4486254.999,-630.656
466654.206,4486054.999,-615.369
466654.206,4485854.999,-605.461
466654.206,4485654.999,-628.836
466654.206,4485454.999,-626.731
466654.206,4485254.999,-590.892
466654.206,4485054.999,-566.106
466654.206,4484854.999,-538.050
466654.206,4484654.999,-525.177
466654.206,4484454.999,-516.485
466654.206,4484254.999,-510.888
466654.206,4484054.999,-504.450
466654.206,4483854.999,-501.384
466654.206,4483654.999,-501.362
466654.206,4483454.999,-501.905
466654.206,4483254.999,-501.803
466654.206,4483054.999,-501.836
466654.206,4482854.999,-501.450
466654.206,4482654.999,-500.618
466654.206,4482454.999,-500.340
466654.206,4480454.999,-506.991
466654.206,4480254.999,-520.310
466654.206,4480054.999,-529.562
466654.206,4479854.999,-529.902
466654.206,4479654.999,-529.983
466654.206,4479454.999,-530.836
466654.206,4479254.999,-531.632
466654.206,4479054.999,-528.718
466654.206,4478854.999,-528.612
466654.206,4478654.999,-529.375
466654.206,4478454.999,-528.075
466654.206,4478254.999,-522.909
466654.206,4478054.999,-513.253
466654.206,4477854.999,-504.516
466654.206,4477654.999,-503.593
466854.206,4494854.999,-511.773
466854.206,4494654.999,-527.692
466854.206,4494454.999,-559.139
466854.206,4494254.999,-584.312
466854.206,4494054.999,-602.465
466854.206,4493854.999,-619.557
466854.206,4493654.999,-633.847
466854.206,4493454.999,-646.504
466854.206,4493254.999,-659.816
466854.206,4493054.999,-673.884
466854.206,4492854.999,-686.180
466854.206,4492654.999,-695.286
466854.206,4492454.999,-701.904
466854.206,4492254.999,-708.924
466854.206,4492054.999,-716.676
466854.206,4491854.999,-721.646
466854.206,4491654.999,-726.013
466854.206,4491454.999,-732.767
466854.206,4491254.999,-739.833
466854.206,4491054.999,-745.280
466854.206,4490854.999,-750.176
466854.206,4490654.999,-755.288
466854.206,4490454.999,-760.583
466854.206,4490254.999,-765.017
466854.206,4490054.999,-768.617
466854.206,4489854.999,-771.981
466854.206,4489654.999,-775.579
466854.206,4489454.999,-778.347
466854.206,4489254.999,-779.262
466854.206,4489054.999,-779.528
466854.206,4488854.999,-779.912
466854.206,4488654.999,-780.801
466854.206,4488454.999,-782.080
466854.206,4488254.999,-783.120
466854.206,4488054.999,-780.211
466854.206,4487854.999,-764.971
466854.206,4487654.999,-738.836
466854.206,4487454.999,-714.992
466854.206,4487254.999,-693.955
466854.206,4487054.999,-673.413
466854.206,4486854.999,-651.074
466854.206,4486654.999,-634.079
466854.206,4486454.999,-618.323
466854.206,4486254.999,-603.464
466854.206,4486054.999,-587.699
466854.206,4485854.999,-569.766
466854.206,4485654.999,-583.512
466854.206,4485454.999,-605.508
466854.206,4485254.999,-566.660
466854.206,4485054.999,-568.028
466854.206,4484854.999,-544.616
466854.206,4484654.999,-521.583
466854.206,4484454.999,-514.546
466854.206,4484254.999,-509.276
466854.206,4484054.999,-503.280
466854.206,4483854.999,-501.759
466854.206,4482854.999,-500.298
466854.206,4482654.999,-500.203
466854.206,4480254.999,-515.897
466854.206,4480054.999,-523.645
466854.206,4479854.999,-523.575
466854.206,4479654.999,-525.769
466854.206,4479454.999,-527.042
466854.206,4479254.999,-528.704
466854.206,4479054.999,-525.516
466854.206,4478854.999,-523.047
466854.206,4478654.999,-522.778
466854.206,4478454.999,-521.348
466854.206,4478254.999,-514.467
466854.206,4478054.999,-505.478
466854.206,4477854.999,-504.054
467054.206,4494654.999,-520.788
467054.206,4494454.999,-551.769
467054.206,4494254.999,-582.109
467054.206,4494054.999,-600.194
467054.206,4493854.999,-615.828
467054.206,4493654.999,-629.066
467054.206,4493454.999,-642.391
467054.206,4493254.999,-656.718
467054.206,4493054.999,-668.662
467054.206,4492854.999,-679.629
467054.206,4492654.999,-688.642
467054.206,4492454.999,-696.371
467054.206,4492254.999,-702.564
467054.206,4492054.999,-710.470
467054.206,4491854.999,-715.549
467054.206,4491654.999,-721.461
467054.206,4491454.999,-729.723
467054.206,4491254.999,-737.066
467054.206,4491054.999,-743.579
467054.206,4490854.999,-748.382
467054.206,4490654.999,-753.002
467054.206,4490454.999,-757.951
467054.206,4490254.999,-762.183
467054.206,4490054.999,-765.829
467054.206,4489854.999,-769.576
467054.206,4489654.999,-772.972
467054.206,4489454.999,-775.460
467054.206,4489254.999,-776.296
467054.206,4489054.999,-776.486
467054.206,4488854.999,-776.842
467054.206,4488654.999,-777.864
467054.206,4488454.999,-779.351
467054.206,4488254.999,-779.534
467054.206,4488054.999,-771.202
467054.206,4487854.999,-750.265
467054.206,4487654.999,-724.650
467054.206,4487454.999,-701.377
467054.206,4487254.999,-677.063
467054.206,4487054.999,-654.195
467054.206,4486854.999,-631.446
467054.206,4486654.999,-616.486
467054.206,4486454.999,-598.733
467054.206,4486254.999,-583.548
467054.206,4486054.999,-566.571
467054.206,4485854.999,-550.396
467054.206,4485654.999,-554.977
467054.206,4485454.999,-579.806
467054.206,4485254.999,-540.216
467054.206,4485054.999,-543.645
467054.206,4484854.999,-550.679
467054.206,4484654.999,-524.938
467054.206,4484454.999,-512.648
467054.206,4484254.999,-506.974
467054.206,4484054.999,-502.177
467054.206,4483854.999,-501.630
467054.206,4480454.999,-502.944
467054.206,4480254.999,-507.752
467054.206,4480054.999,-513.824
467054.206,4479854.999,-516.079
467054.206,4479654.999,-522.674
467054.206,4479454.999,-523.913
467054.206,4479254.999,-525.366
467054.206,4479054.999,-523.017
467054.206,4478854.999,-517.980
467054.206,4478654.999,-516.024
467054.206,4478454.999,-513.512
467054.206,4478254.999,-505.955
467054.206,4478054.999,-502.578
467254.206,4494654.999,-517.644
467254.206,4494454.999,-543.418
467254.206,4494254.999,-577.751
467254.206,4494054.999,-596.908
467254.206,4493854.999,-614.482
467254.206,4493654.999,-627.483
467254.206,4493454.999,-639.155
467254.206,4493254.999,-652.324
467254.206,4493054.999,-662.543
467254.206,4492854.999,-672.891
467254.206,4492654.999,-682.115
467254.206,4492454.999,-689.502
467254.206,4492254.999,-696.667
467254.206,4492054.999,-704.357
467254.206,4491854.999,-710.514
467254.206,4491654.999,-718.511
467254.206,4491454.999,-727.302
467254.206,4491254.999,-734.351
467254.206,4491054.999,-740.929
467254.206,4490854.999,-746.164
467254.206,4490654.999,-750.548
467254.206,4490454.999,-754.670
467254.206,4490254.999,-758.995
467254.206,4490054.999,-763.073
467254.206,4489854.999,-766.681
467254.206,4489654.999,-769.281
467254.206,4489454.999,-771.363
467254.206,4489254.999,-772.923
467254.206,4489054.999,-773.452
467254.206,4488854.999,-773.814
467254.206,4488654.999,-774.612
467254.206,4488454.999,-775.973
467254.206,4488254.999,-773.738
467254.206,4488054.999,-758.333
467254.206,4487854.999,-733.107
467254.206,4487654.999,-706.045
467254.206,4487454.999,-682.534
467254.206,4487254.999,-659.577
467254.206,4487054.999,-638.528
467254.206,4486854.999,-617.979
467254.206,4486654.999,-601.508
467254.206,4486454.999,-584.041
467254.206,4486254.999,-566.502
467254.206,4486054.999,-549.156
467254.206,4485854.999,-535.021
467254.206,4485654.999,-537.760
467254.206,4485454.999,-559.477
467254.206,4485254.999,-527.880
467254.206,4485054.999,-522.047
467254.206,4484854.999,-531.098
467254.206,4484654.999,-528.865
467254.206,4484454.999,-510.148
467254.206,4484254.999,-504.735
467254.206,4484054.999,-501.506
467254.206,4483854.999,-501.353
467254.206,4480454.999,-501.190
467254.206,4480254.999,-502.009
467254.206,4480054.999,-504.004
467254.206,4479854.999,-508.118
467254.206,4479654.999,-518.344
467254.206,4479454.999,-521.230
467254.206,4479254.999,-521.657
467254.206,4479054.999,-519.517
467254.206,4478854.999,-515.828
467254.206,4478654.999,-509.711
467254.206,4478454.999,-503.264
467254.206,4478254.999,-503.071
467454.206,4494654.999,-516.694
467454.206,4494454.999,-542.944
467454.206,4494254.999,-575.099
467454.206,4494054.999,-595.047
467454.206,4493854.999,-610.677
467454.206,4493654.999,-621.693
467454.206,4493454.999,-631.958
467454.206,4493254.999,-646.868
467454.206,4493054.999,-658.091
467454.206,4492854.999,-666.376
467454.206,4492654.999,-675.845
467454.206,4492454.999,-683.924
467454.206,4492254.999,-691.709
467454.206,4492054.999,-699.187
467454.206,4491854.999,-706.968
467454.206,4491654.999,-715.693
467454.206,4491454.999,-723.137
467454.206,4491254.999,-729.610
467454.206,4491054.999,-735.683
467454.206,4490854.999,-741.445
467454.206,4490654.999,-746.171
467454.206,4490454.999,-750.145
467454.206,4490254.999,-754.966
467454.206,4490054.999,-759.910
467454.206,4489854.999,-763.698
467454.206,4489654.999,-765.801
467454.206,4489454.999,-767.744
467454.206,4489254.999,-768.965
467454.206,4489054.999,-769.724
467454.206,4488854.999,-770.533
467454.206,4488654.999,-770.928
467454.206,4488454.999,-770.278
467454.206,4488254.999,-761.441
467454.206,4488054.999,-738.318
467454.206,4487854.999,-711.560
467454.206,4487654.999,-683.899
467454.206,4487454.999,-660.708
467454.206,4487254.999,-640.451
467454.206,4487054.999,-620.356
467454.206,4486854.999,-603.051
467454.206,4486654.999,-585.249
467454.206,4486454.999,-568.759
467454.206,4486254.999,-547.770
467454.206,4486054.999,-531.470
467454.206,4485854.999,-526.602
467454.206,4485654.999,-539.077
467454.206,4485454.999,-546.286
467454.206,4485254.999,-518.091
467454.206,4485054.999,-511.695
467454.206,4484854.999,-515.451
467454.206,4484654.999,-520.522
467454.206,4484454.999,-508.513
467454.206,4484254.999,-502.303
467454.206,4484054.999,-501.404
467454.206,4480254.999,-500.730
467454.206,4479854.999,-503.458
467454.206,4479654.999,-511.665
467454.206,4479454.999,-516.538
467454.206,4479254.999,-518.876
467454.206,4479054.999,-515.526
467454.206,4478854.999,-510.627
467454.206,4478654.999,-504.387
467454.206,4478454.999,-503.038
467654.206,4494854.999,-504.996
467654.206,4494654.999,-516.887
467654.206,4494454.999,-545.049
467654.206,4494254.999,-565.227
467654.206,4494054.999,-582.113
467654.206,4493854.999,-596.863
467654.206,4493654.999,-612.141
467654.206,4493454.999,-629.758
467654.206,4493254.999,-643.448
467654.206,4493054.999,-655.000
467654.206,4492854.999,-662.322
467654.206,4492654.999,-670.092
467654.206,4492454.999,-680.016
467654.206,4492254.999,-687.963
467654.206,4492054.999,-695.893
467654.206,4491854.999,-704.350
467654.206,4491654.999,-711.473
467654.206,4491454.999,-717.660
467654.206,4491254.999,-724.156
467654.206,4491054.999,-730.003
467654.206,4490854.999,-735.204
467654.206,4490654.999,-740.480
467654.206,4490454.999,-745.699
467654.206,4490254.999,-751.275
467654.206,4490054.999,-756.536
467654.206,4489854.999,-760.861
467654.206,4489654.999,-762.569
467654.206,4489454.999,-764.319
467654.206,4489254.999,-764.813
467654.206,4489054.999,-765.666
467654.206,4488854.999,-766.869
467654.206,4488654.999,-766.871
467654.206,4488454.999,-763.319
467654.206,4488254.999,-747.660
467654.206,4488054.999,-721.952
467654.206,4487854.999,-693.033
467654.206,4487654.999,-664.672
467654.206,4487454.999,-640.201
467654.206,4487254.999,-621.838
467654.206,4487054.999,-603.464
467654.206,4486854.999,-585.663
467654.206,4486654.999,-567.803
467654.206,4486454.999,-546.991
467654.206,4486254.999,-528.117
467654.206,4486054.999,-515.171
467654.206,4485854.999,-519.866
467654.206,4485654.999,-536.148
467654.206,4485454.999,-522.947
467654.206,4485254.999,-509.784
467654.206,4485054.999,-505.371
467654.206,4484854.999,-506.463
467654.206,4484654.999,-510.563
467654.206,4484454.999,-506.018
467654.206,4484254.999,-501.673
467654.206,4479854.999,-500.865
467654.206,4479654.999,-503.007
467654.206,4479454.999,-506.680
467654.206,4479254.999,-510.713
467654.206,4479054.999,-511.277
467654.206,4478854.999,-506.129
467654.206,4478654.999,-504.337
467854.206,4494654.999,-509.564
467854.206,4494454.999,-527.953
467854.206,4494254.999,-539.256
467854.206,4494054.999,-554.526
467854.206,4493854.999,-578.810
467854.206,4493654.999,-609.653
467854.206,4493454.999,-627.820
467854.206,4493254.999,-636.241
467854.206,4493054.999,-646.922
467854.206,4492854.999,-657.583
467854.206,4492654.999,-666.117
467854.206,4492454.999,-676.871
467854.206,4492254.999,-685.579
467854.206,4492054.999,-693.118
467854.206,4491854.999,-700.862
467854.206,4491654.999,-706.040
467854.206,4491454.999,-711.932
467854.206,4491254.999,-718.509
467854.206,4491054.999,-724.419
467854.206,4490854.999,-730.733
467854.206,4490654.999,-737.076
467854.206,4490454.999,-743.338
467854.206,4490254.999,-749.179
467854.206,4490054.999,-753.668
467854.206,4489854.999,-757.227
467854.206,4489654.999,-759.308
467854.206,4489454.999,-760.347
467854.206,4489254.999,-760.685
467854.206,4489054.999,-761.461
467854.206,4488854.999,-762.523
467854.206,4488654.999,-761.991
467854.206,4488454.999,-755.385
467854.206,4488254.999,-732.512
467854.206,4488054.999,-702.911
467854.206,4487854.999,-676.004
467854.206,4487654.999,-649.514
467854.206,4487454.999,-623.866
467854.206,4487254.999,-602.001
467854.206,4487054.999,-585.311
467854.206,4486854.999,-567.663
467854.206,4486654.999,-550.100
467854.206,4486454.999,-528.475
467854.206,4486254.999,-512.931
467854.206,4486054.999,-508.408
467854.206,4485854.999,-512.473
467854.206,4485654.999,-525.962
467854.206,4485454.999,-508.400
467854.206,4485254.999,-503.754
467854.206,4485054.999,-502.433
467854.206,4484854.999,-502.156
467854.206,4484654.999,-502.842
467854.206,4484454.999,-502.605
467854.206,4484254.999,-501.682
467854.206,4478854.999,-505.169
468054.206,4494654.999,-506.603
468054.206,4494454.999,-515.824
468054.206,4494254.999,-521.638
468054.206,4494054.999,-551.296
468054.206,4493854.999,-588.999
468054.206,4493654.999,-609.084
468054.206,4493454.999,-615.623
468054.206,4493254.999,-623.697
468054.206,4493054.999,-631.073
468054.206,4492854.999,-642.405
468054.206,4492654.999,-657.224
468054.206,4492454.999,-672.035
468054.206,4492254.999,-681.668
468054.206,4492054.999,-687.508
468054.206,4491854.999,-694.726
468054.206,4491654.999,-700.564
468054.206,4491454.999,-706.897
468054.206,4491254.999,-714.002
468054.206,4491054.999,-721.240
468054.206,4490854.999,-729.307
468054.206,4490654.999,-736.330
468054.206,4490454.999,-742.469
468054.206,4490254.999,-747.645
468054.206,4490054.999,-750.946
468054.206,4489854.999,-753.136
468054.206,4489654.999,-755.226
468054.206,4489454.999,-756.338
468054.206,4489254.999,-756.994
468054.206,4489054.999,-757.000
468054.206,4488854.999,-756.506
468054.206,4488654.999,-752.140
468054.206,4488454.999,-742.101
468054.206,4488254.999,-718.403
468054.206,4488054.999,-685.157
468054.206,4487854.999,-656.468
468054.206,4487654.999,-631.871
468054.206,4487454.999,-610.679
468054.206,4487254.999,-589.075
468054.206,4487054.999,-570.210
468054.206,4486854.999,-550.174
468054.206,4486654.999,-526.702
468054.206,4486454.999,-509.244
468054.206,4486254.999,-506.538
468054.206,4486054.999,-506.187
468054.206,4485854.999,-506.978
468054.206,4485654.999,-512.332
468054.206,4485454.999,-501.861
468054.206,4485254.999,-501.913
468054.206,4484654.999,-501.509
468054.206,4484454.999,-501.647
468254.206,4494454.999,-512.885
468254.206,4494254.999,-530.407
468254.206,4494054.999,-564.681
468254.206,4493854.999,-585.283
468254.206,4493654.999,-587.411
468254.206,4493454.999,-593.559
468254.206,4493254.999,-601.373
468254.206,4493054.999,-614.994
468254.206,4492854.999,-632.182
468254.206,4492654.999,-649.833
468254.206,4492454.999,-664.543
468254.206,4492254.999,-674.501
468254.206,4492054.999,-681.643
468254.206,4491854.999,-688.985
468254.206,4491654.999,-698.612
468254.206,4491454.999,-706.467
468254.206,4491254.999,-713.887
468254.206,4491054.999,-720.710
468254.206,4490854.999,-728.331
468254.206,4490654.999,-734.813
468254.206,4490454.999,-740.535
468254.206,4490254.999,-745.946
468254.206,4490054.999,-747.794
468254.206,4489854.999,-749.433
468254.206,4489654.999,-751.038
468254.206,4489454.999,-751.949
468254.206,4489254.999,-751.907
468254.206,4489054.999,-750.901
468254.206,4488854.999,-746.266
468254.206,4488654.999,-730.662
468254.206,4488454.999,-710.006
468254.206,4488254.999,-690.475
468254.206,4488054.999,-662.281
468254.206,4487854.999,-633.964
468254.206,4487654.999,-611.937
468254.206,4487454.999,-596.035
468254.206,4487254.999,-577.415
468254.206,4487054.999,-553.507
468254.206,4486854.999,-530.354
468254.206,4486654.999,-508.484
468254.206,4486454.999,-504.398
468254.206,4486054.999,-503.472
468254.206,4485854.999,-503.091
468254.206,4485654.999,-503.855
468254.206,4485454.999,-501.616
468454.206,4494454.999,-510.522
468454.206,4494254.999,-538.364
468454.206,4494054.999,-563.747
468454.206,4493854.999,-556.325
468454.206,4493654.999,-557.129
468454.206,4493454.999,-573.049
468454.206,4493254.999,-587.625
468454.206,4493054.999,-609.999
468454.206,4492854.999,-626.191
468454.206,4492654.999,-641.077
468454.206,4492454.999,-660.115
468454.206,4492254.999,-674.116
468454.206,4492054.999,-684.515
468454.206,4491854.999,-691.565
468454.206,4491654.999,-698.506
468454.206,4491454.999,-704.375
468454.206,4491254.999,-709.477
468454.206,4491054.999,-713.856
468454.206,4490854.999,-721.340
468454.206,4490654.999,-732.956
468454.206,4490454.999,-738.909
468454.206,4490254.999,-742.800
468454.206,4490054.999,-744.549
468454.206,4489854.999,-746.159
468454.206,4489654.999,-747.542
468454.206,4489454.999,-747.358
468454.206,4489254.999,-745.118
468454.206,4489054.999,-740.850
468454.206,4488854.999,-730.658
468454.206,4488654.999,-705.950
468454.206,4488454.999,-674.456
468454.206,4488254.999,-654.449
468454.206,4488054.999,-634.744
468454.206,4487854.999,-613.137
468454.206,4487654.999,-594.506
468454.206,4487454.999,-579.337
468454.206,4487254.999,-563.681
468454.206,4487054.999,-538.200
468454.206,4486854.999,-515.652
468454.206,4486654.999,-508.056
468454.206,4485854.999,-502.471
468654.206,4494454.999,-507.243
468654.206,4494254.999,-527.214
468654.206,4494054.999,-541.421
468654.206,4493854.999,-549.820
468654.206,4493654.999,-568.968
468654.206,4493454.999,-587.232
468654.206,4493254.999,-602.779
468654.206,4493054.999,-619.001
468654.206,4492854.999,-630.425
468654.206,4492654.999,-640.913
468654.206,4492454.999,-657.167
468654.206,4492254.999,-668.503
468654.206,4492054.999,-674.023
468654.206,4491854.999,-681.874
468654.206,4491654.999,-690.631
468654.206,4491454.999,-693.245
468654.206,4491254.999,-698.834
468654.206,4491054.999,-704.681
468654.206,4490854.999,-714.384
468654.206,4490654.999,-730.383
468654.206,4490454.999,-738.919
468654.206,4490254.999,-740.194
468654.206,4490054.999,-741.644
468654.206,4489854.999,-743.024
468654.206,4489654.999,-743.632
468654.206,4489454.999,-740.786
468654.206,4489254.999,-733.347
468654.206,4489054.999,-721.912
468654.206,4488854.999,-708.248
468654.206,4488654.999,-683.588
468654.206,4488454.999,-650.355
468654.206,4488254.999,-626.795
468654.206,4488054.999,-608.095
468654.206,4487854.999,-592.718
468654.206,4487654.999,-578.160
468654.206,4487454.999,-562.519
468654.206,4487254.999,-547.981
468654.206,4487054.999,-527.156
468654.206,4486854.999,-510.404
468854.206,4494254.999,-513.225
468854.206,4494054.999,-530.448
468854.206,4493854.999,-560.110
468854.206,4493654.999,-576.907
468854.206,4493454.999,-589.707
468854.206,4493254.999,-602.760
468854.206,4493054.999,-614.255
468854.206,4492854.999,-624.063
468854.206,4492654.999,-631.239
468854.206,4492454.999,-638.678
468854.206,4492254.999,-647.370
468854.206,4492054.999,-656.990
468854.206,4491854.999,-671.824
468854.206,4491654.999,-682.501
468854.206,4491454.999,-686.116
468854.206,4491254.999,-690.515
468854.206,4491054.999,-698.742
468854.206,4490854.999,-709.983
468854.206,4490654.999,-725.194
468854.206,4490454.999,-737.053
468854.206,4490254.999,-737.524
468854.206,4490054.999,-739.113
468854.206,4489854.999,-740.026
468854.206,4489654.999,-737.620
468854.206,4489454.999,-728.126
468854.206,4489254.999,-713.060
468854.206,4489054.999,-697.705
468854.206,4488854.999,-682.727
468854.206,4488654.999,-658.994
468854.206,4488454.999,-626.630
468854.206,4488254.999,-603.881
468854.206,4488054.999,-584.675
468854.206,4487854.999,-570.881
468854.206,4487654.999,-558.928
468854.206,4487454.999,-548.780
468854.206,4487254.999,-533.960
468854.206,4487054.999,-512.443
468854.206,4486854.999,-512.114
469054.206,4494054.999,-523.131
469054.206,4493854.999,-558.437
469054.206,4493654.999,-574.222
469054.206,4493454.999,-581.979
469054.206,4493254.999,-592.402
469054.206,4493054.999,-607.772
469054.206,4492854.999,-616.640
469054.206,4492654.999,-620.819
469054.206,4492454.999,-622.134
469054.206,4492254.999,-622.556
469054.206,4492054.999,-632.913
469054.206,4491854.999,-661.598
469054.206,4491654.999,-674.710
469054.206,4491454.999,-682.195
469054.206,4491254.999,-687.644
469054.206,4491054.999,-695.149
469054.206,4490854.999,-705.705
