463254.206,4473654.999,-419.657
463254.206,4473454.999,-405.019
463254.206,4473254.999,-388.676
463254.206,4473054.999,-373.675
463254.206,4472854.999,-362.930
463254.206,4472654.999,-354.351
463254.206,4472454.999,-347.588
463254.206,4472254.999,-339.023
463254.206,4472054.999,-336.426
463254.206,4471854.999,-340.340
463254.206,4471654.999,-340.336
463254.206,4471454.999,-338.386
463254.206,4471254.999,-335.938
463254.206,4471054.999,-334.732
463254.206,4470854.999,-334.232
463254.206,4470654.999,-333.570
463254.206,4470454.999,-332.489
463254.206,4470254.999,-330.035
463254.206,4470054.999,-329.474
463254.206,4469854.999,-331.422
463254.206,4469654.999,-335.750
463254.206,4469454.999,-340.961
463254.206,4469254.999,-342.526
463254.206,4469054.999,-342.859
463254.206,4468854.999,-338.755
463254.206,4468654.999,-320.627
463254.206,4468454.999,-300.211
463254.206,4468254.999,-288.830
463254.206,4468054.999,-283.398
463254.206,4467854.999,-280.788
463254.206,4467654.999,-280.455
463254.206,4467454.999,-281.887
463254.206,4467254.999,-284.069
463254.206,4467054.999,-289.759
463254.206,4466854.999,-307.044
463254.206,4466654.999,-325.599
463254.206,4466454.999,-341.216
463254.206,4466254.999,-351.783
463254.206,4466054.999,-359.131
463254.206,4465854.999,-362.136
463254.206,4465654.999,-363.051
463254.206,4465454.999,-361.305
463254.206,4465254.999,-358.239
463254.206,4465054.999,-352.334
463254.206,4464854.999,-347.470
463254.206,4464654.999,-343.533
463254.206,4464454.999,-337.042
463254.206,4464254.999,-329.216
463254.206,4464054.999,-319.841
463254.206,4463854.999,-309.553
463254.206,4463654.999,-295.396
463254.206,4463454.999,-274.204
463254.206,4463254.999,-251.569
463254.206,4463054.999,-236.690
463254.206,4462854.999,-226.583
463254.206,4462654.999,-938.657
463254.206,4455254.999,-287.087
463254.206,4455054.999,-297.188
463254.206,4454854.999,-310.024
463254.206,4454654.999,-326.263
463254.206,4454454.999,-345.686
463254.206,4454254.999,-369.623
463254.206,4454054.999,-398.275
463254.206,4453854.999,-430.719
463254.206,4453654.999,-464.204
463254.206,4453454.999,-484.079
463254.206,4453254.999,-499.617
463254.206,4453054.999,-514.896
463254.206,4452854.999,-524.701
463254.206,4452654.999,-534.519
463254.206,4452454.999,-541.280
463254.206,4452254.999,-545.191
463254.206,4452054.999,-1173.854
463454.206,4494054.999,-596.670
463454.206,4493854.999,-624.225
463454.206,4493654.999,-649.110
463454.206,4493454.999,-671.205
463454.206,4493254.999,-690.626
463454.206,4493054.999,-704.619
463454.206,4492854.999,-711.410
463454.206,4492654.999,-730.534
463454.206,4492454.999,-739.592
463454.206,4492254.999,-749.465
463454.206,4492054.999,-753.760
463454.206,4491854.999,-756.783
463454.206,4491654.999,-764.810
463454.206,4491454.999,-770.280
463454.206,4491254.999,-779.922
463454.206,4491054.999,-784.372
463454.206,4490854.999,-788.158
463454.206,4490654.999,-792.558
463454.206,4490454.999,-796.013
463454.206,4490254.999,-797.627
463454.206,4490054.999,-799.068
463454.206,4489854.999,-800.746
463454.206,4489654.999,-803.000
463454.206,4489454.999,-806.062
463454.206,4489254.999,-805.879
463454.206,4489054.999,-809.746
463454.206,4488854.999,-811.942
463454.206,4488654.999,-813.882
463454.206,4488454.999,-816.899
463454.206,4488254.999,-820.196
463454.206,4488054.999,-822.163
463454.206,4487854.999,-824.443
463454.206,4487654.999,-827.150
463454.206,4487454.999,-828.155
463454.206,4487254.999,-829.482
463454.206,4487054.999,-830.386
463454.206,4486854.999,-830.725
463454.206,4486654.999,-830.569
463454.206,4486454.999,-830.945
463454.206,4486254.999,-829.150
463454.206,4486054.999,-831.502
463454.206,4485854.999,-833.766
463454.206,4485654.999,-837.164
463454.206,4485454.999,-838.295
463454.206,4485254.999,-837.602
463454.206,4485054.999,-835.083
463454.206,4484854.999,-827.654
463454.206,4484654.999,-818.183
463454.206,4484454.999,-799.950
463454.206,4484254.999,-781.979
463454.206,4484054.999,-757.482
463454.206,4483854.999,-747.678
463454.206,4483654.999,-769.548
463454.206,4483454.999,-757.335
463454.206,4483254.999,-703.128
463454.206,4483054.999,-691.288
463454.206,4482854.999,-674.557
463454.206,4482654.999,-655.293
463454.206,4482454.999,-637.561
463454.206,4482254.999,-624.016
463454.206,4482054.999,-608.817
463454.206,4481854.999,-603.535
463454.206,4481654.999,-603.134
463454.206,4481454.999,-597.693
463454.206,4481254.999,-593.442
463454.206,4481054.999,-590.756
463454.206,4480854.999,-578.941
463454.206,4480654.999,-1193.280
463454.206,4475054.999,-550.714
463454.206,4474854.999,-542.316
463454.206,4474654.999,-527.876
463454.206,4474454.999,-500.669
463454.206,4474254.999,-473.832
463454.206,4474054.999,-451.128
463454.206,4473854.999,-431.879
463454.206,4473654.999,-416.069
463454.206,4473454.999,-396.848
463454.206,4473254.999,-383.077
463454.206,4473054.999,-371.824
463454.206,4472854.999,-358.408
463454.206,4472654.999,-349.001
463454.206,4472454.999,-340.688
463454.206,4472254.999,-335.488
463454.206,4472054.999,-340.401
463454.206,4471854.999,-342.443
463454.206,4471654.999,-340.581
463454.206,4471454.999,-337.993
463454.206,4471254.999,-335.722
463454.206,4471054.999,-333.947
463454.206,4470854.999,-332.118
463454.206,4470654.999,-330.553
463454.206,4470454.999,-326.863
463454.206,4470254.999,-324.416
463454.206,4470054.999,-322.578
463454.206,4469854.999,-323.585
463454.206,4469654.999,-326.622
463454.206,4469454.999,-331.631
463454.206,4469254.999,-333.909
463454.206,4469054.999,-333.732
463454.206,4468854.999,-327.254
463454.206,4468654.999,-307.633
463454.206,4468454.999,-286.856
463454.206,4468254.999,-276.080
463454.206,4468054.999,-271.790
463454.206,4467854.999,-269.925
463454.206,4467654.999,-269.748
463454.206,4467454.999,-268.953
463454.206,4467254.999,-268.644
463454.206,4467054.999,-269.269
463454.206,4466854.999,-278.303
463454.206,4466654.999,-295.271
463454.206,4466454.999,-311.723
463454.206,4466254.999,-326.269
463454.206,4466054.999,-336.748
463454.206,4465854.999,-341.477
463454.206,4465654.999,-343.998
463454.206,4465454.999,-338.664
463454.206,4465254.999,-332.269
463454.206,4465054.999,-328.661
463454.206,4464854.999,-327.655
463454.206,4464654.999,-324.458
463454.206,4464454.999,-319.546
463454.206,4464254.999,-313.390
463454.206,4464054.999,-304.563
463454.206,4463854.999,-291.556
463454.206,4463654.999,-273.376
463454.206,4463454.999,-252.763
463454.206,4463254.999,-236.462
463454.206,4463054.999,-225.760
463454.206,4454254.999,-379.874
463454.206,4454054.999,-411.861
463454.206,4453854.999,-440.216
463454.206,4453654.999,-469.559
463454.206,4453454.999,-487.382
463454.206,4453254.999,-500.552
463454.206,4453054.999,-510.232
463454.206,4452854.999,-517.855
463454.206,4452654.999,-523.688
463454.206,4452454.999,-1160.867
463654.206,4494054.999,-597.614
463654.206,4493854.999,-633.144
463654.206,4493654.999,-653.493
463654.206,4493454.999,-673.428
463654.206,4493254.999,-686.122
463654.206,4493054.999,-698.654
463654.206,4492854.999,-712.323
463654.206,4492654.999,-732.446
463654.206,4492454.999,-739.485
463654.206,4492254.999,-745.383
463654.206,4492054.999,-751.246
463654.206,4491854.999,-754.339
463654.206,4491654.999,-760.328
463654.206,4491454.999,-767.478
463654.206,4491254.999,-774.295
463654.206,4491054.999,-779.756
463654.206,4490854.999,-785.968
463654.206,4490654.999,-789.895
463654.206,4490454.999,-792.542
463654.206,4490254.999,-795.339
463654.206,4490054.999,-797.844
463654.206,4489854.999,-799.958
463654.206,4489654.999,-801.439
463654.206,4489454.999,-803.685
463654.206,4489254.999,-804.792
463654.206,4489054.999,-808.793
463654.206,4488854.999,-811.429
463654.206,4488654.999,-814.204
463654.206,4488454.999,-817.940
463654.206,4488254.999,-820.604
463654.206,4488054.999,-822.615
463654.206,4487854.999,-824.175
463654.206,4487654.999,-825.434
463654.206,4487454.999,-826.596
463654.206,4487254.999,-827.369
463654.206,4487054.999,-827.552
463654.206,4486854.999,-828.060
463654.206,4486654.999,-828.338
463654.206,4486454.999,-827.476
463654.206,4486254.999,-826.281
463654.206,4486054.999,-830.666
463654.206,4485854.999,-832.941
463654.206,4485654.999,-834.264
463654.206,4485454.999,-834.358
463654.206,4485254.999,-831.923
463654.206,4485054.999,-827.134
463654.206,4484854.999,-821.055
463654.206,4484654.999,-798.558
463654.206,4484454.999,-775.486
463654.206,4484254.999,-751.508
463654.206,4484054.999,-748.504
463654.206,4483854.999,-729.893
463654.206,4483654.999,-716.686
463654.206,4483454.999,-727.451
463654.206,4483254.999,-687.103
463654.206,4483054.999,-668.620
463654.206,4482854.999,-657.479
463654.206,4482654.999,-639.001
463654.206,4482454.999,-618.379
463654.206,4482254.999,-604.554
463654.206,4482054.999,-592.649
463654.206,4481854.999,-584.564
463654.206,4481654.999,-585.459
463654.206,4481454.999,-587.339
463654.206,4481254.999,-584.526
463654.206,4481054.999,-582.978
463654.206,4480854.999,-574.002
463654.206,4475054.999,-536.104
463654.206,4474854.999,-528.214
463654.206,4474654.999,-517.264
463654.206,4474454.999,-492.581
463654.206,4474254.999,-464.415
463654.206,4474054.999,-437.481
463654.206,4473854.999,-426.500
463654.206,4473654.999,-413.517
463654.206,4473454.999,-390.192
463654.206,4473254.999,-377.545
463654.206,4473054.999,-367.328
463654.206,4472854.999,-355.282
463654.206,4472654.999,-344.324
463654.206,4472454.999,-336.567
463654.206,4472254.999,-337.478
463654.206,4472054.999,-341.833
463654.206,4471854.999,-342.701
463654.206,4471654.999,-340.050
463654.206,4471454.999,-336.835
463654.206,4471254.999,-334.666
463654.206,4471054.999,-332.721
463654.206,4470854.999,-330.450
463654.206,4470654.999,-326.863
463654.206,4470454.999,-323.480
463654.206,4470254.999,-319.715
463654.206,4470054.999,-316.698
463654.206,4469854.999,-316.857
463654.206,4469654.999,-319.405
463654.206,4469454.999,-323.815
463654.206,4469254.999,-327.463
463654.206,4469054.999,-327.354
463654.206,4468854.999,-320.101
463654.206,4468654.999,-299.612
463654.206,4468454.999,-280.160
463654.206,4468254.999,-269.922
463654.206,4468054.999,-265.488
463654.206,4467854.999,-263.034
463654.206,4467654.999,-260.117
463654.206,4467454.999,-256.408
463654.206,4467254.999,-253.617
463654.206,4467054.999,-251.367
463654.206,4466854.999,-255.005
463654.206,4466654.999,-270.067
463654.206,4466454.999,-286.186
463654.206,4466254.999,-301.633
463654.206,4466054.999,-315.414
463654.206,4465854.999,-322.378
463654.206,4465654.999,-324.117
463654.206,4465454.999,-320.374
463654.206,4465254.999,-314.626
463654.206,4465054.999,-311.122
463654.206,4464854.999,-311.613
463654.206,4464654.999,-310.326
463654.206,4464454.999,-306.284
463654.206,4464254.999,-300.643
463654.206,4464054.999,-289.033
463654.206,4463854.999,-271.375
463654.206,4463654.999,-252.669
463654.206,4463454.999,-236.788
463654.206,4463254.999,-941.310
463854.206,4494054.999,-596.519
463854.206,4493854.999,-634.587
463854.206,4493654.999,-658.596
463854.206,4493454.999,-674.006
463854.206,4493254.999,-687.153
463854.206,4493054.999,-696.712
463854.206,4492854.999,-720.125
463854.206,4492654.999,-729.938
463854.206,4492454.999,-738.180
463854.206,4492254.999,-745.174
463854.206,4492054.999,-749.668
463854.206,4491854.999,-753.042
463854.206,4491654.999,-759.036
463854.206,4491454.999,-766.091
463854.206,4491254.999,-771.968
463854.206,4491054.999,-778.285
463854.206,4490854.999,-784.317
463854.206,4490654.999,-788.469
463854.206,4490454.999,-790.419
463854.206,4490254.999,-793.760
463854.206,4490054.999,-796.322
463854.206,4489854.999,-797.843
463854.206,4489654.999,-799.562
463854.206,4489454.999,-802.445
463854.206,4489254.999,-804.638
463854.206,4489054.999,-807.615
463854.206,4488854.999,-810.942
463854.206,4488654.999,-813.953
463854.206,4488454.999,-816.885
463854.206,4488254.999,-819.329
463854.206,4488054.999,-820.554
463854.206,4487854.999,-822.566
463854.206,4487654.999,-824.394
463854.206,4487454.999,-825.157
463854.206,4487254.999,-826.026
463854.206,4487054.999,-826.806
463854.206,4486854.999,-827.083
463854.206,4486654.999,-826.547
463854.206,4486454.999,-822.444
463854.206,4486254.999,-825.665
463854.206,4486054.999,-827.443
463854.206,4485854.999,-829.707
463854.206,4485654.999,-830.100
463854.206,4485454.999,-828.549
463854.206,4485254.999,-826.364
463854.206,4485054.999,-818.052
463854.206,4484854.999,-799.403
463854.206,4484654.999,-778.582
463854.206,4484454.999,-759.059
463854.206,4484254.999,-734.476
463854.206,4484054.999,-715.229
463854.206,4483854.999,-704.087
463854.206,4483654.999,-684.561
463854.206,4483454.999,-680.148
463854.206,4483254.999,-681.096
463854.206,4483054.999,-648.799
463854.206,4482854.999,-635.823
463854.206,4482654.999,-617.171
463854.206,4482454.999,-600.656
463854.206,4482254.999,-582.414
463854.206,4482054.999,-573.323
463854.206,4481854.999,-569.458
463854.206,4481654.999,-576.185
463854.206,4481454.999,-577.233
463854.206,4481254.999,-577.133
463854.206,4481054.999,-574.689
463854.206,4480854.999,-1188.758
463854.206,4475054.999,-518.275
463854.206,4474854.999,-509.384
463854.206,4474654.999,-496.991
463854.206,4474454.999,-475.038
463854.206,4474254.999,-454.801
463854.206,4474054.999,-430.534
463854.206,4473854.999,-415.026
463854.206,4473654.999,-394.255
463854.206,4473454.999,-379.320
463854.206,4473254.999,-369.486
463854.206,4473054.999,-361.957
463854.206,4472854.999,-351.029
463854.206,4472654.999,-340.316
463854.206,4472454.999,-335.722
463854.206,4472254.999,-339.280
463854.206,4472054.999,-341.927
463854.206,4471854.999,-340.778
463854.206,4471654.999,-337.789
463854.206,4471454.999,-336.049
463854.206,4471254.999,-333.494
463854.206,4471054.999,-329.697
463854.206,4470854.999,-328.047
463854.206,4470654.999,-324.115
463854.206,4470454.999,-319.606
463854.206,4470254.999,-315.875
463854.206,4470054.999,-312.045
463854.206,4469854.999,-311.604
463854.206,4469654.999,-313.069
463854.206,4469454.999,-317.680
463854.206,4469254.999,-322.528
463854.206,4469054.999,-322.657
463854.206,4468854.999,-313.143
463854.206,4468654.999,-293.202
463854.206,4468454.999,-274.700
463854.206,4468254.999,-264.998
463854.206,4468054.999,-259.773
463854.206,4467854.999,-255.247
463854.206,4467654.999,-250.003
463854.206,4467454.999,-244.657
463854.206,4467254.999,-240.743
463854.206,4467054.999,-237.958
463854.206,4466854.999,-238.400
463854.206,4466654.999,-248.706
463854.206,4466454.999,-265.268
463854.206,4466254.999,-281.827
463854.206,4466054.999,-295.592
463854.206,4465854.999,-305.884
463854.206,4465654.999,-308.661
463854.206,4465454.999,-306.284
463854.206,4465254.999,-301.792
463854.206,4465054.999,-299.927
463854.206,4464854.999,-299.534
463854.206,4464654.999,-299.128
463854.206,4464454.999,-294.789
463854.206,4464254.999,-286.506
463854.206,4464054.999,-270.939
463854.206,4463854.999,-252.391
463854.206,4463654.999,-236.241
463854.206,4463454.999,-941.126
464054.206,4494054.999,-601.957
464054.206,4493854.999,-623.244
464054.206,4493654.999,-650.209
464054.206,4493454.999,-674.062
464054.206,4493254.999,-686.989
464054.206,4493054.999,-704.607
464054.206,4492854.999,-722.140
464054.206,4492654.999,-730.159
464054.206,4492454.999,-737.004
464054.206,4492254.999,-742.493
464054.206,4492054.999,-747.869
464054.206,4491854.999,-753.569
464054.206,4491654.999,-758.074
464054.206,4491454.999,-764.866
464054.206,4491254.999,-772.107
464054.206,4491054.999,-777.862
464054.206,4490854.999,-782.476
464054.206,4490654.999,-785.435
464054.206,4490454.999,-788.878
464054.206,4490254.999,-790.092
464054.206,4490054.999,-793.322
464054.206,4489854.999,-796.378
464054.206,4489654.999,-798.389
464054.206,4489454.999,-799.126
464054.206,4489254.999,-802.931
464054.206,4489054.999,-807.057
464054.206,4488854.999,-810.156
464054.206,4488654.999,-812.905
464054.206,4488454.999,-816.023
464054.206,4488254.999,-818.652
464054.206,4488054.999,-820.152
464054.206,4487854.999,-821.820
464054.206,4487654.999,-823.008
464054.206,4487454.999,-824.291
464054.206,4487254.999,-824.394
464054.206,4487054.999,-825.087
464054.206,4486854.999,-824.836
464054.206,4486654.999,-823.125
464054.206,4486454.999,-820.729
464054.206,4486254.999,-822.962
464054.206,4486054.999,-824.644
464054.206,4485854.999,-826.092
464054.206,4485654.999,-826.868
464054.206,4485454.999,-824.943
464054.206,4485254.999,-821.667
464054.206,4485054.999,-809.513
464054.206,4484854.999,-777.209
464054.206,4484654.999,-759.151
464054.206,4484454.999,-744.143
464054.206,4484254.999,-715.684
464054.206,4484054.999,-692.162
464054.206,4483854.999,-681.566
464054.206,4483654.999,-659.412
464054.206,4483454.999,-649.801
464054.206,4483254.999,-674.787
464054.206,4483054.999,-630.065
464054.206,4482854.999,-608.851
464054.206,4482654.999,-596.790
464054.206,4482454.999,-578.760
464054.206,4482254.999,-566.509
464054.206,4482054.999,-560.206
464054.206,4481854.999,-558.651
464054.206,4481654.999,-564.407
464054.206,4481454.999,-569.842
464054.206,4481254.999,-569.243
464054.206,4481054.999,-566.243
464054.206,4475254.999,-504.805
464054.206,4475054.999,-500.276
464054.206,4474854.999,-492.662
464054.206,4474654.999,-478.253
464054.206,4474454.999,-459.153
464054.206,4474254.999,-437.295
464054.206,4474054.999,-419.187
464054.206,4473854.999,-401.642
464054.206,4473654.999,-383.197
464054.206,4473454.999,-370.320
464054.206,4473254.999,-360.200
464054.206,4473054.999,-352.193
464054.206,4472854.999,-343.855
464054.206,4472654.999,-337.923
464054.206,4472454.999,-334.732
464054.206,4472254.999,-337.328
464054.206,4472054.999,-338.374
464054.206,4471854.999,-337.265
464054.206,4471654.999,-334.666
464054.206,4471454.999,-331.882
464054.206,4471254.999,-328.926
464054.206,4471054.999,-326.668
464054.206,4470854.999,-323.410
464054.206,4470654.999,-320.091
464054.206,4470454.999,-316.665
464054.206,4470254.999,-312.154
464054.206,4470054.999,-308.981
464054.206,4469854.999,-307.301
464054.206,4469654.999,-308.643
464054.206,4469454.999,-312.374
464054.206,4469254.999,-318.686
464054.206,4469054.999,-319.003
464054.206,4468854.999,-306.865
464054.206,4468654.999,-284.817
464054.206,4468454.999,-266.912
464054.206,4468254.999,-256.017
464054.206,4468054.999,-248.997
464054.206,4467854.999,-242.900
464054.206,4467654.999,-237.897
464054.206,4467454.999,-233.794
464054.206,4467254.999,-230.787
464054.206,4467054.999,-229.035
464054.206,4466854.999,-228.476
464054.206,4466654.999,-232.853
464054.206,4466454.999,-249.144
464054.206,4466254.999,-266.781
464054.206,4466054.999,-281.277
464054.206,4465854.999,-291.547
464054.206,4465654.999,-296.098
464054.206,4465454.999,-294.405
464054.206,4465254.999,-290.964
464054.206,4465054.999,-290.571
464054.206,4464854.999,-289.660
464054.206,4464654.999,-287.858
464054.206,4464454.999,-281.730
464054.206,4464254.999,-269.826
464054.206,4464054.999,-253.388
464054.206,4463854.999,-951.152
464254.206,4494054.999,-567.620
464254.206,4493854.999,-599.339
464254.206,4493654.999,-637.196
464254.206,4493454.999,-671.591
464254.206,4493254.999,-689.303
464254.206,4493054.999,-713.677
464254.206,4492854.999,-723.821
464254.206,4492654.999,-730.543
464254.206,4492454.999,-736.048
464254.206,4492254.999,-740.768
464254.206,4492054.999,-746.611
464254.206,4491854.999,-751.905
464254.206,4491654.999,-757.856
464254.206,4491454.999,-762.515
464254.206,4491254.999,-768.017
464254.206,4491054.999,-773.305
464254.206,4490854.999,-778.917
464254.206,4490654.999,-782.383
464254.206,4490454.999,-786.777
464254.206,4490254.999,-790.333
464254.206,4490054.999,-792.287
464254.206,4489854.999,-795.119
464254.206,4489654.999,-796.485
464254.206,4489454.999,-800.070
464254.206,4489254.999,-801.993
464254.206,4489054.999,-805.053
464254.206,4488854.999,-807.787
464254.206,4488654.999,-810.433
464254.206,4488454.999,-813.761
464254.206,4488254.999,-816.171
464254.206,4488054.999,-817.940
464254.206,4487854.999,-819.146
464254.206,4487654.999,-820.814
464254.206,4487454.999,-821.560
464254.206,4487254.999,-822.566
464254.206,4487054.999,-822.054
464254.206,4486854.999,-822.566
464254.206,4486654.999,-820.931
464254.206,4486454.999,-818.096
464254.206,4486254.999,-820.554
464254.206,4486054.999,-821.377
464254.206,4485854.999,-822.985
464254.206,4485654.999,-824.175
464254.206,4485454.999,-821.944
464254.206,4485254.999,-806.229
464254.206,4485054.999,-784.783
464254.206,4484854.999,-767.129
464254.206,4484654.999,-742.107
464254.206,4484454.999,-726.711
464254.206,4484254.999,-703.202
464254.206,4484054.999,-674.875
464254.206,4483854.999,-656.715
464254.206,4483654.999,-631.240
464254.206,4483454.999,-614.546
464254.206,4483254.999,-644.090
464254.206,4483054.999,-609.435
464254.206,4482854.999,-586.950
464254.206,4482654.999,-577.283
464254.206,4482454.999,-563.399
464254.206,4482254.999,-555.735
464254.206,4482054.999,-551.864
464254.206,4481854.999,-552.032
464254.206,4481654.999,-550.860
464254.206,4481454.999,-559.696
464254.206,4481254.999,-560.312
464254.206,4475254.999,-488.170
464254.206,4475054.999,-483.550
464254.206,4474854.999,-474.987
464254.206,4474654.999,-460.171
464254.206,4474454.999,-442.069
464254.206,4474254.999,-420.911
464254.206,4474054.999,-410.532
464254.206,4473854.999,-389.397
464254.206,4471854.999,-333.285
464254.206,4471654.999,-330.600
464254.206,4471454.999,-327.216
464254.206,4471254.999,-323.696
464254.206,4471054.999,-321.418
464254.206,4470854.999,-318.494
464254.206,4470654.999,-315.034
464254.206,4470454.999,-311.712
464254.206,4470254.999,-307.423
464254.206,4470054.999,-304.245
464254.206,4469854.999,-301.022
464254.206,4469654.999,-301.587
464254.206,4469454.999,-304.850
464254.206,4469254.999,-312.362
464254.206,4469054.999,-312.824
464254.206,4468854.999,-298.996
464254.206,4468654.999,-276.427
464254.206,4468454.999,-257.653
464254.206,4468254.999,-245.154
464254.206,4468054.999,-237.897
464254.206,4467854.999,-232.529
464254.206,4467654.999,-228.186
464254.206,4467454.999,-225.255
464254.206,4467254.999,-223.856
464254.206,4467054.999,-222.323
464254.206,4466854.999,-221.375
464254.206,4466654.999,-222.192
464254.206,4466454.999,-235.107
464254.206,4466254.999,-253.782
464254.206,4466054.999,-269.096
464254.206,4465854.999,-278.907
464254.206,4465654.999,-283.286
464254.206,4465454.999,-283.121
464254.206,4465254.999,-281.120
464254.206,4465054.999,-280.954
464254.206,4464854.999,-279.561
464254.206,4464654.999,-275.385
464254.206,4464454.999,-266.198
464254.206,4464254.999,-962.384
464454.206,4494054.999,-592.664
464454.206,4493854.999,-622.311
464454.206,4493654.999,-649.237
464454.206,4493454.999,-669.600
464454.206,4493254.999,-687.514
464454.206,4493054.999,-715.707
464454.206,4492854.999,-725.267
464454.206,4492654.999,-728.588
464454.206,4492454.999,-733.757
464454.206,4492254.999,-737.628
464454.206,4492054.999,-745.332
464454.206,4491854.999,-750.001
464454.206,4491654.999,-754.987
464454.206,4491454.999,-761.059
464454.206,4491254.999,-766.443
464454.206,4491054.999,-770.208
464454.206,4490854.999,-776.153
464454.206,4490654.999,-781.427
464454.206,4490454.999,-785.560
464454.206,4490254.999,-789.060
464454.206,4490054.999,-792.264
464454.206,4489854.999,-792.713
464454.206,4489654.999,-796.474
464454.206,4489454.999,-799.569
464454.206,4489254.999,-799.883
464454.206,4489054.999,-803.789
464454.206,4488854.999,-806.157
464454.206,4488654.999,-808.168
464454.206,4488454.999,-811.323
464454.206,4488254.999,-814.432
464454.206,4488054.999,-816.309
464454.206,4487854.999,-818.141
464454.206,4487654.999,-818.985
464454.206,4487454.999,-819.549
464454.206,4487254.999,-819.549
464454.206,4487054.999,-819.205
464454.206,4486854.999,-819.549
464454.206,4486654.999,-818.642
464454.206,4486454.999,-816.769
464454.206,4486254.999,-818.699
464454.206,4486054.999,-818.985
464454.206,4485854.999,-820.152
464454.206,4485654.999,-820.202
464454.206,4485454.999,-811.071
464454.206,4485254.999,-783.575
464454.206,4485054.999,-762.886
464454.206,4484854.999,-743.229
464454.206,4484654.999,-727.795
464454.206,4484454.999,-700.917
464454.206,4484254.999,-683.080
464454.206,4484054.999,-652.788
464454.206,4483854.999,-627.089
464454.206,4483654.999,-609.302
464454.206,4483454.999,-596.014
464454.206,4483254.999,-601.128
464454.206,4483054.999,-601.509
464454.206,4482854.999,-573.703
464454.206,4482654.999,-558.425
464454.206,4482454.999,-550.279
464454.206,4482254.999,-546.403
464454.206,4482054.999,-544.021
464454.206,4481854.999,-544.128
464454.206,4481654.999,-542.065
464454.206,4481454.999,-548.433
464454.206,4475454.999,-476.436
464454.206,4475254.999,-472.404
464454.206,4475054.999,-466.677
464454.206,4474854.999,-455.713
464454.206,4474654.999,-435.571
464454.206,4474454.999,-416.815
464454.206,4474254.999,-400.910
464454.206,4474054.999,-392.005
464454.206,4473854.999,-1052.158
464454.206,4470854.999,-312.974
464454.206,4470654.999,-310.214
464454.206,4470454.999,-306.417
464454.206,4470254.999,-301.594
464454.206,4470054.999,-298.027
464454.206,4469854.999,-295.030
464454.206,4469654.999,-293.362
464454.206,4469454.999,-295.239
464454.206,4469254.999,-303.063
464454.206,4469054.999,-307.153
464454.206,4468854.999,-292.769
464454.206,4468654.999,-973.861
464454.206,4467854.999,-223.652
464454.206,4467654.999,-219.480
464454.206,4467454.999,-218.257
464454.206,4467254.999,-216.025
464454.206,4467054.999,-215.200
464454.206,4466854.999,-214.217
464454.206,4466654.999,-213.979
464454.206,4466454.999,-221.726
464454.206,4466254.999,-240.720
464454.206,4466054.999,-256.763
464454.206,4465854.999,-267.276
464454.206,4465654.999,-271.722
464454.206,4465454.999,-271.458
464454.206,4465254.999,-271.092
464454.206,4465054.999,-270.678
464454.206,4464854.999,-267.795
464454.206,4464654.999,-967.736
464654.206,4494054.999,-596.762
464654.206,4493854.999,-630.149
464654.206,4493654.999,-658.645
464654.206,4493454.999,-678.305
464654.206,4493254.999,-706.123
464654.206,4493054.999,-714.109
464654.206,4492854.999,-721.836
464654.206,4492654.999,-726.679
464654.206,4492454.999,-729.751
464654.206,4492254.999,-736.035
464654.206,4492054.999,-741.436
464654.206,4491854.999,-747.513
464654.206,4491654.999,-753.969
464654.206,4491454.999,-759.500
464654.206,4491254.999,-764.492
464654.206,4491054.999,-769.045
464654.206,4490854.999,-775.121
464654.206,4490654.999,-780.834
464654.206,4490454.999,-784.488
464654.206,4490254.999,-788.806
464654.206,4490054.999,-789.977
464654.206,4489854.999,-791.880
464654.206,4489654.999,-793.745
464654.206,4489454.999,-795.982
464654.206,4489254.999,-798.366
464654.206,4489054.999,-801.125
464654.206,4488854.999,-804.481
464654.206,4488654.999,-805.875
464654.206,4488454.999,-808.990
464654.206,4488254.999,-811.484
464654.206,4488054.999,-812.811
464654.206,4487854.999,-814.039
464654.206,4487654.999,-815.099
464654.206,4487454.999,-815.819
464654.206,4487254.999,-815.778
464654.206,4487054.999,-816.833
464654.206,4486854.999,-818.593
464654.206,4486654.999,-818.985
464654.206,4486454.999,-817.122
464654.206,4486254.999,-818.766
464654.206,4486054.999,-819.168
464654.206,4485854.999,-817.318
464654.206,4485654.999,-814.636
464654.206,4485454.999,-799.382
464654.206,4485254.999,-768.540
464654.206,4485054.999,-741.737
464654.206,4484854.999,-717.350
464654.206,4484654.999,-695.217
464654.206,4484454.999,-671.435
464654.206,4484254.999,-656.638
464654.206,4484054.999,-633.694
464654.206,4483854.999,-605.914
464654.206,4483654.999,-591.253
464654.206,4483454.999,-580.120
464654.206,4483254.999,-570.046
464654.206,4483054.999,-585.796
464654.206,4482854.999,-571.028
464654.206,4482654.999,-543.787
464654.206,4482454.999,-539.795
464654.206,4482254.999,-537.577
464654.206,4482054.999,-536.991
464654.206,4481854.999,-535.858
464654.206,4481654.999,-536.000
464654.206,4481454.999,-1168.911
464654.206,4475454.999,-461.907
464654.206,4475254.999,-456.449
464654.206,4475054.999,-447.625
464654.206,4474854.999,-428.876
464654.206,4474654.999,-411.653
464654.206,4474454.999,-390.284
464654.206,4474254.999,-381.639
464654.206,4474054.999,-374.763
464854.206,4494054.999,-577.143
464854.206,4493854.999,-611.110
464854.206,4493654.999,-641.441
464854.206,4493454.999,-676.596
464854.206,4493254.999,-704.184
464854.206,4493054.999,-713.987
464854.206,4492854.999,-721.406
464854.206,4492654.999,-725.782
464854.206,4492454.999,-731.429
464854.206,4492254.999,-738.359
464854.206,4492054.999,-743.770
464854.206,4491854.999,-747.014
464854.206,4491654.999,-751.401
464854.206,4491454.999,-756.143
464854.206,4491254.999,-763.830
464854.206,4491054.999,-769.143
464854.206,4490854.999,-774.774
464854.206,4490654.999,-780.758
464854.206,4490454.999,-784.394
464854.206,4490254.999,-787.197
464854.206,4490054.999,-787.888
464854.206,4489854.999,-790.757
464854.206,4489654.999,-792.256
464854.206,4489454.999,-794.392
464854.206,4489254.999,-795.833
464854.206,4489054.999,-799.262
464854.206,4488854.999,-802.314
464854.206,4488654.999,-804.370
464854.206,4488454.999,-806.764
464854.206,4488254.999,-809.174
464854.206,4488054.999,-811.025
464854.206,4487854.999,-812.761
464854.206,4487654.999,-813.337
464854.206,4487454.999,-813.088
464854.206,4487254.999,-813.088
464854.206,4487054.999,-814.562
464854.206,4486854.999,-816.023
464854.206,4486654.999,-817.552
464854.206,4486454.999,-816.471
464854.206,4486254.999,-818.940
464854.206,4486054.999,-819.008
464854.206,4485854.999,-813.173
464854.206,4485654.999,-804.384
464854.206,4485454.999,-796.625
464854.206,4485254.999,-757.827
464854.206,4485054.999,-719.706
464854.206,4484854.999,-693.343
464854.206,4484654.999,-667.248
464854.206,4484454.999,-645.799
464854.206,4484254.999,-627.369
464854.206,4484054.999,-610.725
464854.206,4483854.999,-591.100
464854.206,4483654.999,-577.134
464854.206,4483454.999,-563.455
464854.206,4483254.999,-552.906
464854.206,4483054.999,-556.405
464854.206,4482854.999,-567.637
464854.206,4482654.999,-537.614
464854.206,4482454.999,-532.554
464854.206,4482254.999,-530.646
464854.206,4482054.999,-530.302
464854.206,4481854.999,-529.302
464854.206,4481654.999,-530.862
464854.206,4475654.999,-455.498
464854.206,4475454.999,-448.180
464854.206,4475254.999,-437.738
464854.206,4475054.999,-423.658
464854.206,4474854.999,-413.166
464854.206,4474654.999,-391.559
464854.206,4474454.999,-380.412
464854.206,4474254.999,-374.816
465054.206,4494054.999,-582.393
465054.206,4493854.999,-608.217
465054.206,4493654.999,-629.120
465054.206,4493454.999,-674.663
465054.206,4493254.999,-698.226
465054.206,4493054.999,-710.538
465054.206,4492854.999,-721.168
465054.206,4492654.999,-726.347
465054.206,4492454.999,-731.255
465054.206,4492254.999,-735.374
465054.206,4492054.999,-740.479
465054.206,4491854.999,-745.055
465054.206,4491654.999,-749.670
465054.206,4491454.999,-755.713
465054.206,4491254.999,-761.295
465054.206,4491054.999,-767.713
465054.206,4490854.999,-774.943
465054.206,4490654.999,-780.115
465054.206,4490454.999,-782.733
465054.206,4490254.999,-784.479
465054.206,4490054.999,-786.389
465054.206,4489854.999,-789.327
465054.206,4489654.999,-789.342
465054.206,4489454.999,-792.823
465054.206,4489254.999,-792.593
465054.206,4489054.999,-797.331
465054.206,4488854.999,-799.480
465054.206,4488654.999,-801.390
465054.206,4488454.999,-804.819
465054.206,4488254.999,-806.703
465054.206,4488054.999,-808.351
465054.206,4487854.999,-809.393
465054.206,4487654.999,-809.913
465054.206,4487454.999,-810.555
465054.206,4487254.999,-810.372
465054.206,4487054.999,-811.976
465054.206,4486854.999,-814.982
465054.206,4486654.999,-816.574
465054.206,4486454.999,-816.735
465054.206,4486254.999,-818.141
465054.206,4486054.999,-818.312
465054.206,4485854.999,-804.054
465054.206,4485654.999,-792.003
465054.206,4485454.999,-763.483
465054.206,4485254.999,-734.180
465054.206,4485054.999,-699.065
465054.206,4484854.999,-668.666
465054.206,4484654.999,-644.811
465054.206,4484454.999,-624.940
465054.206,4484254.999,-602.818
465054.206,4484054.999,-587.001
465054.206,4483854.999,-576.282
465054.206,4483654.999,-561.213
465054.206,4483454.999,-546.764
465054.206,4483254.999,-538.932
465054.206,4483054.999,-539.444
465054.206,4482854.999,-551.351
465054.206,4482654.999,-532.874
465054.206,4482454.999,-527.500
465054.206,4482254.999,-524.654
465054.206,4482054.999,-524.024
465054.206,4481854.999,-523.582
465054.206,4475854.999,-449.171
465054.206,4475654.999,-441.845
465054.206,4475454.999,-432.570
465054.206,4475254.999,-420.336
465054.206,4475054.999,-410.749
465054.206,4474854.999,-398.969
465054.206,4474654.999,-382.905
465054.206,4474454.999,-376.358
465054.206,4474254.999,-1045.890
465254.206,4494054.999,-595.466
465254.206,4493854.999,-616.692
465254.206,4493654.999,-640.985
465254.206,4493454.999,-683.964
465254.206,4493254.999,-697.850
465254.206,4493054.999,-710.255
465254.206,4492854.999,-717.643
465254.206,4492654.999,-721.180
465254.206,4492454.999,-725.660
465254.206,4492254.999,-730.370
465254.206,4492054.999,-735.539
465254.206,4491854.999,-739.941
465254.206,4491654.999,-747.105
465254.206,4491454.999,-754.689
465254.206,4491254.999,-759.268
465254.206,4491054.999,-765.224
465254.206,4490854.999,-773.528
465254.206,4490654.999,-777.651
465254.206,4490454.999,-779.976
465254.206,4490254.999,-780.477
465254.206,4490054.999,-782.378
465254.206,4489854.999,-784.914
465254.206,4489654.999,-788.178
465254.206,4489454.999,-790.382
465254.206,4489254.999,-790.885
465254.206,4489054.999,-795.969
465254.206,4488854.999,-796.611
465254.206,4488654.999,-799.428
465254.206,4488454.999,-802.721
465254.206,4488254.999,-804.122
465254.206,4488054.999,-805.875
465254.206,4487854.999,-806.819
465254.206,4487654.999,-807.096
465254.206,4487454.999,-807.985
465254.206,4487254.999,-809.576
465254.206,4487054.999,-810.876
465254.206,4486854.999,-811.867
465254.206,4486654.999,-811.458
465254.206,4486454.999,-810.325
465254.206,4486254.999,-815.684
465254.206,4486054.999,-815.819
465254.206,4485854.999,-797.979
465254.206,4485654.999,-785.138
465254.206,4485454.999,-741.475
465254.206,4485254.999,-702.271
465254.206,4485054.999,-681.970
465254.206,4484854.999,-645.351
465254.206,4484654.999,-622.649
465254.206,4484454.999,-605.945
465254.206,4484254.999,-585.101
465254.206,4484054.999,-567.440
465254.206,4483854.999,-558.667
465254.206,4483654.999,-543.208
465254.206,4483454.999,-534.456
465254.206,4483254.999,-529.747
465254.206,4483054.999,-529.773
465254.206,4482854.999,-538.505
465254.206,4482654.999,-526.657
465254.206,4482454.999,-522.688
465254.206,4482254.999,-519.713
465254.206,4482054.999,-518.032
465254.206,4475854.999,-436.581
465254.206,4475654.999,-425.691
465254.206,4475454.999,-416.776
465254.206,4475254.999,-408.368
465254.206,4475054.999,-391.736
465254.206,4474854.999,-383.685
465254.206,4474654.999,-377.416
465254.206,4474454.999,-373.055
465454.206,4494054.999,-600.274
465454.206,4493854.999,-631.276
465454.206,4493654.999,-669.959
465454.206,4493454.999,-689.672
465454.206,4493254.999,-697.566
465454.206,4493054.999,-706.831
465454.206,4492854.999,-714.140
465454.206,4492654.999,-717.062
465454.206,4492454.999,-721.710
465454.206,4492254.999,-726.269
465454.206,4492054.999,-732.045
465454.206,4491854.999,-739.220
465454.206,4491654.999,-746.149
465454.206,4491454.999,-751.201
465454.206,4491254.999,-757.787
465454.206,4491054.999,-763.444
465454.206,4490854.999,-769.410
465454.206,4490654.999,-772.598
465454.206,4490454.999,-776.196
465454.206,4490254.999,-776.050
465454.206,4490054.999,-778.781
465454.206,4489854.999,-783.311
465454.206,4489654.999,-784.626
465454.206,4489454.999,-787.848
465454.206,4489254.999,-789.327
465454.206,4489054.999,-792.116
465454.206,4488854.999,-793.829
465454.206,4488654.999,-797.755
465454.206,4488454.999,-800.433
465454.206,4488254.999,-802.431
465454.206,4488054.999,-802.557
465454.206,4487854.999,-804.548
465454.206,4487654.999,-805.334
465454.206,4487454.999,-806.157
465454.206,4487254.999,-807.162
465454.206,4487054.999,-807.517
465454.206,4486854.999,-804.540
465454.206,4486654.999,-795.201
465454.206,4486454.999,-791.388
465454.206,4486254.999,-802.046
465454.206,4486054.999,-812.761
465454.206,4485854.999,-790.001
465454.206,4485654.999,-770.053
465454.206,4485454.999,-718.826
465454.206,4485254.999,-676.856
465454.206,4485054.999,-648.502
465454.206,4484854.999,-624.821
465454.206,4484654.999,-603.173
465454.206,4484454.999,-584.543
465454.206,4484254.999,-565.578
465454.206,4484054.999,-551.035
465454.206,4483854.999,-540.213
465454.206,4483654.999,-529.220
465454.206,4483454.999,-525.246
465454.206,4483254.999,-523.235
465454.206,4483054.999,-523.749
465454.206,4482854.999,-528.594
465454.206,4482654.999,-522.384
465454.206,4482454.999,-517.884
465454.206,4482254.999,-515.474
465454.206,4482054.999,-1148.992
465454.206,4476054.999,-436.451
465454.206,4475854.999,-420.679
465454.206,4475654.999,-405.116
465454.206,4475454.999,-401.962
465454.206,4475254.999,-397.475
465454.206,4475054.999,-381.383
465454.206,4474854.999,-376.911
465454.206,4474654.999,-373.484
465654.206,4494054.999,-581.884
465654.206,4493854.999,-622.022
465654.206,4493654.999,-657.581
465654.206,4493454.999,-673.268
465654.206,4493254.999,-691.172
465654.206,4493054.999,-701.716
465654.206,4492854.999,-708.488
465654.206,4492654.999,-714.070
465654.206,4492454.999,-718.321
465654.206,4492254.999,-723.831
465654.206,4492054.999,-728.490
465654.206,4491854.999,-733.967
465654.206,4491654.999,-741.751
465654.206,4491454.999,-749.635
465654.206,4491254.999,-756.591
465654.206,4491054.999,-760.420
465654.206,4490854.999,-766.266
465654.206,4490654.999,-770.559
465654.206,4490454.999,-773.224
465654.206,4490254.999,-773.262
465654.206,4490054.999,-777.627
465654.206,4489854.999,-780.351
465654.206,4489654.999,-783.555
465654.206,4489454.999,-787.444
465654.206,4489254.999,-786.831
465654.206,4489054.999,-789.221
465654.206,4488854.999,-792.769
465654.206,4488654.999,-794.625
465654.206,4488454.999,-797.148
465654.206,4488254.999,-799.562
465654.206,4488054.999,-800.281
465654.206,4487854.999,-801.573
465654.206,4487654.999,-802.838
465654.206,4487454.999,-804.328
465654.206,4487254.999,-804.323
465654.206,4487054.999,-800.842
465654.206,4486854.999,-790.442
465654.206,4486654.999,-774.636
465654.206,4486454.999,-763.523
465654.206,4486254.999,-773.007
465654.206,4486054.999,-808.620
465654.206,4485854.999,-789.292
465654.206,4485654.999,-732.636
465654.206,4485454.999,-696.217
465654.206,4485254.999,-667.567
465654.206,4485054.999,-629.219
465654.206,4484854.999,-601.486
465654.206,4484654.999,-586.003
465654.206,4484454.999,-561.816
465654.206,4484254.999,-545.713
465654.206,4484054.999,-536.432
465654.206,4483854.999,-525.060
465654.206,4483654.999,-520.244
465654.206,4483454.999,-519.132
465654.206,4483254.999,-518.661
465654.206,4483054.999,-518.259
465654.206,4482854.999,-521.597
465654.206,4482654.999,-517.681
465654.206,4482454.999,-513.980
465654.206,4482254.999,-511.860
465654.206,4476054.999,-420.586
465654.206,4475854.999,-405.550
465654.206,4475654.999,-394.386
465654.206,4475454.999,-390.797
465654.206,4475254.999,-385.539
465654.206,4475054.999,-374.911
465654.206,4474854.999,-371.974
465654.206,4474654.999,-1045.635
465854.206,4494054.999,-567.894
465854.206,4493854.999,-620.698
465854.206,4493654.999,-649.265
465854.206,4493454.999,-668.409
465854.206,4493254.999,-680.772
465854.206,4493054.999,-693.531
465854.206,4492854.999,-701.080
465854.206,4492654.999,-709.053
465854.206,4492454.999,-715.669
465854.206,4492254.999,-719.620
465854.206,4492054.999,-725.039
465854.206,4491854.999,-731.853
465854.206,4491654.999,-737.390
465854.206,4491454.999,-746.454
465854.206,4491254.999,-752.646
465854.206,4491054.999,-759.123
465854.206,4490854.999,-763.272
465854.206,4490654.999,-769.111
465854.206,4490454.999,-772.408
465854.206,4490254.999,-772.394
465854.206,4490054.999,-772.979
465854.206,4489854.999,-776.837
465854.206,4489654.999,-781.735
465854.206,4489454.999,-783.847
465854.206,4489254.999,-784.671
465854.206,4489054.999,-786.929
465854.206,4488854.999,-790.194
465854.206,4488654.999,-793.619
465854.206,4488454.999,-795.423
465854.206,4488254.999,-797.148
465854.206,4488054.999,-798.373
465854.206,4487854.999,-799.821
465854.206,4487654.999,-800.567
465854.206,4487454.999,-796.364
465854.206,4487254.999,-787.307
465854.206,4487054.999,-781.497
465854.206,4486854.999,-769.560
465854.206,4486654.999,-758.563
465854.206,4486454.999,-739.477
465854.206,4486254.999,-737.906
465854.206,4486054.999,-799.556
465854.206,4485854.999,-795.830
465854.206,4485654.999,-729.575
465854.206,4485454.999,-682.063
465854.206,4485254.999,-651.343
465854.206,4485054.999,-617.621
465854.206,4484854.999,-586.902
465854.206,4484654.999,-569.725
465854.206,4484454.999,-546.791
465854.206,4484254.999,-531.628
465854.206,4484054.999,-522.119
465854.206,4483854.999,-517.089
465854.206,4483654.999,-514.484
465854.206,4483454.999,-513.648
465854.206,4483254.999,-512.593
465854.206,4483054.999,-512.771
465854.206,4482854.999,-513.307
465854.206,4482654.999,-512.040
465854.206,4482454.999,-509.768
465854.206,4476254.999,-412.327
465854.206,4476054.999,-405.361
465854.206,4475854.999,-390.352
465854.206,4475654.999,-385.224
465854.206,4475454.999,-379.837
465854.206,4475254.999,-373.064
465854.206,4475054.999,-369.815
465854.206,4474854.999,-367.763
466054.206,4494054.999,-568.811
466054.206,4493854.999,-614.793
466054.206,4493654.999,-644.548
466054.206,4493454.999,-663.711
466054.206,4493254.999,-679.102
466054.206,4493054.999,-686.905
466054.206,4492854.999,-693.714
466054.206,4492654.999,-702.008
466054.206,4492454.999,-709.190
466054.206,4492254.999,-712.792
466054.206,4492054.999,-715.904
466054.206,4491854.999,-726.924
466054.206,4491654.999,-734.991
466054.206,4491454.999,-742.984
466054.206,4491254.999,-749.703
466054.206,4491054.999,-757.815
466054.206,4490854.999,-762.945
466054.206,4490654.999,-769.475
466054.206,4490454.999,-770.775
466054.206,4490254.999,-770.891
466054.206,4490054.999,-773.019
466054.206,4489854.999,-776.734
466054.206,4489654.999,-779.779
466054.206,4489454.999,-781.712
466054.206,4489254.999,-782.344
466054.206,4489054.999,-786.777
466054.206,4488854.999,-788.591
466054.206,4488654.999,-791.156
466054.206,4488454.999,-793.713
466054.206,4488254.999,-794.625
466054.206,4488054.999,-796.142
466054.206,4487854.999,-798.373
466054.206,4487654.999,-797.734
466054.206,4487454.999,-782.791
466054.206,4487254.999,-763.133
466054.206,4487054.999,-751.231
466054.206,4486854.999,-743.431
466054.206,4486654.999,-739.961
466054.206,4486454.999,-725.261
466054.206,4486254.999,-700.058
466054.206,4486054.999,-744.547
466054.206,4485854.999,-753.634
466054.206,4485654.999,-750.125
466054.206,4485454.999,-670.363
466054.206,4485254.999,-633.706
466054.206,4485054.999,-595.345
466054.206,4484854.999,-576.087
466054.206,4484654.999,-551.391
466054.206,4484454.999,-536.355
466054.206,4484254.999,-521.805
466054.206,4484054.999,-514.298
466054.206,4483854.999,-510.704
466054.206,4483654.999,-509.145
466054.206,4483454.999,-508.084
466054.206,4483254.999,-508.084
466054.206,4483054.999,-508.267
466054.206,4482854.999,-508.084
466054.206,4482654.999,-507.486
466054.206,4482454.999,-1143.619
466054.206,4476254.999,-396.358
466054.206,4476054.999,-385.537
466054.206,4475854.999,-378.740
466054.206,4475654.999,-376.487
466054.206,4475454.999,-370.377
466054.206,4475254.999,-368.145
466054.206,4475054.999,-366.270
466254.206,4494054.999,-589.028
466254.206,4493854.999,-607.204
466254.206,4493654.999,-636.381
466254.206,4493454.999,-657.158
466254.206,4493254.999,-669.453
466254.206,4493054.999,-677.573
466254.206,4492854.999,-686.884
466254.206,4492654.999,-696.250
466254.206,4492454.999,-702.751
466254.206,4492254.999,-711.074
466254.206,4492054.999,-718.189
466254.206,4491854.999,-724.487
466254.206,4491654.999,-731.780
466254.206,4491454.999,-741.810
466254.206,4491254.999,-747.452
466254.206,4491054.999,-754.289
466254.206,4490854.999,-757.813
466254.206,4490654.999,-763.163
466254.206,4490454.999,-766.547
466254.206,4490254.999,-770.481
466254.206,4490054.999,-773.373
466254.206,4489854.999,-775.442
466254.206,4489654.999,-776.879
466254.206,4489454.999,-777.515
466254.206,4489254.999,-781.227
466254.206,4489054.999,-783.952
466254.206,4488854.999,-786.716
466254.206,4488654.999,-788.425
466254.206,4488454.999,-790.370
466254.206,4488254.999,-791.818
466254.206,4488054.999,-794.207
466254.206,4487854.999,-795.648
466254.206,4487654.999,-784.398
466254.206,4487454.999,-763.975
466254.206,4487254.999,-745.048
466254.206,4487054.999,-726.984
466254.206,4486854.999,-711.275
466254.206,4486654.999,-707.015
466254.206,4486454.999,-706.808
466254.206,4486254.999,-677.085
466254.206,4486054.999,-684.137
466254.206,4485854.999,-725.872
466254.206,4485654.999,-706.126
466254.206,4485454.999,-669.645
466254.206,4485254.999,-600.095
466254.206,4485054.999,-574.746
466254.206,4484854.999,-561.258
466254.206,4484654.999,-536.614
466254.206,4484454.999,-523.767
466254.206,4484254.999,-514.960
466254.206,4484054.999,-508.875
466254.206,4483854.999,-506.523
466254.206,4483654.999,-504.926
466254.206,4483454.999,-505.066
466254.206,4483254.999,-504.103
466254.206,4483054.999,-504.103
466254.206,4482854.999,-503.318
466254.206,4482654.999,-502.762
466254.206,4476454.999,-394.129
466254.206,4476254.999,-379.171
466254.206,4476054.999,-373.537
466254.206,4475854.999,-373.103
466254.206,4475654.999,-367.354
466254.206,4475454.999,-363.823
466254.206,4475254.999,-363.605
466254.206,4475054.999,-1040.388
466454.206,4494054.999,-619.478
466454.206,4493854.999,-626.651
466454.206,4493654.999,-642.286
466454.206,4493454.999,-658.115
466454.206,4493254.999,-661.974
466454.206,4493054.999,-674.592
466454.206,4492854.999,-682.595
466454.206,4492654.999,-694.123
466454.206,4492454.999,-702.308
466454.206,4492254.999,-710.318
466454.206,4492054.999,-717.435
466454.206,4491854.999,-722.433
466454.206,4491654.999,-731.494
466454.206,4491454.999,-740.478
466454.206,4491254.999,-744.428
466454.206,4491054.999,-749.254
466454.206,4490854.999,-754.214
466454.206,4490654.999,-761.049
466454.206,4490454.999,-765.720
466454.206,4490254.999,-767.870
466454.206,4490054.999,-771.324
466454.206,4489854.999,-774.314
466454.206,4489654.999,-776.064
466454.206,4489454.999,-777.219
466454.206,4489254.999,-779.935
466454.206,4489054.999,-782.693
466454.206,4488854.999,-783.555
466454.206,4488654.999,-785.710
466454.206,4488454.999,-787.888
466454.206,4488254.999,-789.145
466454.206,4488054.999,-790.697
466454.206,4487854.999,-789.655
