744767.008,4425294.236,-2.122 
744767.008,4425193.599,-2.121 
744767.008,4425092.962,-2.122 
744767.008,4424992.325,-2.123 
744767.008,4424891.688,-2.125 
744767.008,4424791.051,-2.129 
744767.008,4424690.414,-2.131 
744767.008,4424589.777,-2.132 
744767.008,4424489.140,-2.131 
744767.008,4424388.503,-2.125 
744767.008,4424287.866,-2.116 
744767.008,4424187.229,-2.105 
744767.008,4424086.593,-2.093 
744767.008,4423985.956,-2.079 
744767.008,4423885.319,-2.071 
744767.008,4423784.682,-2.061 
744767.008,4423684.045,-2.051 
744767.008,4423583.408,-2.04 
744767.008,4423482.771,-2.027 
744767.008,4423382.134,-2.016 
744767.008,4423281.497,-2.004 
744767.008,4423180.860,-1.993 
744767.008,4423080.223,-1.984 
744767.008,4422979.586,-1.977 
744767.008,4422878.949,-1.97 
744767.008,4422778.312,-1.964 
744767.008,4422677.675,-1.958 
744767.008,4422577.038,-1.951 
744767.008,4422476.401,-1.944 
744767.008,4422375.765,-1.936 
744767.008,4422275.128,-1.928 
744767.008,4422174.491,-1.92 
744767.008,4422073.854,-1.912 
744767.008,4421973.217,-1.906 
744767.008,4421872.580,-1.901 
744767.008,4421771.943,-1.896 
744767.008,4421671.306,-1.89 
744767.008,4421570.669,-1.886 
744767.008,4421470.032,-1.882 
744767.008,4421369.395,-1.879 
744767.008,4421268.758,-1.876 
744767.008,4421168.121,-1.874 
744767.008,4421067.484,-1.872 
744767.008,4420966.847,-1.869 
744767.008,4420866.210,-1.865 
744767.008,4420765.573,-1.862 
744767.008,4420664.937,-1.858 
744767.008,4420564.300,-1.854 
744767.008,4420463.663,-1.849 
744767.008,4420363.026,-1.844 
744767.008,4420262.389,-1.84 
744767.008,4420161.752,-1.838 
744767.008,4420061.115,-1.836 
744767.008,4419960.478,-1.835 
744767.008,4419859.841,-1.836 
744767.008,4419759.204,-1.838 
744767.008,4419658.567,-1.839 
744767.008,4419557.930,-1.84 
744767.008,4419457.293,-1.838 
744767.008,4419356.656,-1.835 
744767.008,4419256.019,-1.834 
744767.008,4419155.382,-1.834 
744767.008,4419054.745,-1.833 
744767.008,4418954.109,-1.831 
744767.008,4418853.472,-1.827 
744767.008,4418752.835,-1.823 
744767.008,4418652.198,-1.821 
744767.008,4418551.561,-1.818 
744767.008,4418450.924,-1.816 
744767.008,4418350.287,-1.817 
744767.008,4418249.650,-1.817 
744767.008,4418149.013,-1.82 
744767.008,4418048.376,-1.823 
744767.008,4417947.739,-1.826 
744767.008,4417847.102,-1.827 
744767.008,4417746.465,-1.828 
744767.008,4417645.828,-1.826 
744767.008,4417545.191,-1.82 
744767.008,4417444.554,-1.808 
744767.008,4417343.917,-1.788 
744767.008,4417243.281,-1.763 
744767.008,4417142.644,-1.735 
744767.008,4417042.007,-1.711 
744767.008,4416941.370,-1.693 
744767.008,4416840.733,-1.681 
744767.008,4416740.096,-1.673 
744767.008,4416639.459,-1.669 
744767.008,4416538.822,-1.667 
744767.008,4416438.185,-1.666 
744767.008,4416337.548,-1.666 
744767.008,4416236.911,-1.665 
744767.008,4416136.274,-1.664 
744767.008,4416035.637,-1.664 
744767.008,4415935.000,-1.665 
744767.008,4415834.363,-1.667 
744767.008,4415733.726,-1.669 
744767.008,4415633.089,-1.672 
744767.008,4415532.453,-1.674 
744767.008,4415431.816,-1.676 
744767.008,4415331.179,-1.678 
744767.008,4415230.542,-1.681 
744767.008,4415129.905,-1.688 
744767.008,4415029.268,-1.694 
744767.008,4414928.631,-1.702 
744767.008,4414827.994,-1.711 
744767.008,4414727.357,-1.721 
744767.008,4414626.720,-1.733 
744767.008,4414526.083,-1.745 
744767.008,4414425.446,-1.757 
744767.008,4414324.809,-1.77 
744767.008,4414224.172,-1.784 
744767.008,4414123.535,-1.799 
744767.008,4414022.898,-1.816 
744767.008,4413922.261,-1.832 
744767.008,4413821.625,-1.849 
744767.008,4413720.988,-1.868 
744767.008,4413620.351,-1.885 
744767.008,4413519.714,-1.898 
744767.008,4413419.077,-1.906 
744767.008,4413318.440,-1.91 
744767.008,4413217.803,-1.912 
744767.008,4413117.166,-1.916 
744767.008,4413016.529,-1.92 
744767.008,4412915.892,-1.921 
744767.008,4412815.255,-1.922 
744767.008,4412714.618,-1.921 
744767.008,4412613.981,-1.92 
744767.008,4412513.344,-1.92 
744767.008,4412412.707,-1.918 
744767.008,4412312.070,-1.918 
744767.008,4412211.433,-1.917 
744767.008,4412110.797,-1.916 
744767.008,4412010.160,-1.916 
744767.008,4411909.523,-1.915 
744767.008,4411808.886,-1.911 
744767.008,4411708.249,-1.906 
744767.008,4411607.612,-1.902 
744767.008,4411506.975,-1.898 
744767.008,4411406.338,-1.894 
744767.008,4411305.701,-1.889 
744767.008,4411205.064,-1.883 
744767.008,4411104.427,-1.877 
744767.008,4411003.790,-1.869 
744767.008,4410903.153,-1.86 
744767.008,4410802.516,-1.851 
744767.008,4410701.879,-1.842 
744767.008,4410601.242,-1.833 
744767.008,4410500.605,-1.824 
744767.008,4410399.969,-1.814 
744767.008,4410299.332,-1.803 
744767.008,4410198.695,-1.791 
744767.008,4410098.058,-1.78 
744767.008,4409997.421,-1.773 
744767.008,4409896.784,-1.767 
744767.008,4409796.147,-1.761 
744767.008,4409695.510,-1.756 
744767.008,4409594.873,-1.751 
744767.008,4409494.236,-1.746 
744767.008,4409393.599,-1.742 
744767.008,4409292.962,-1.739 
744767.008,4409192.325,-1.736 
744767.008,4409091.688,-1.732 
744767.008,4408991.051,-1.73 
744767.008,4408890.414,-1.732 
744767.008,4408789.778,-1.738 
744767.008,4408689.141,-1.746 
744767.008,4408588.504,-1.754 
744767.008,4408487.867,-1.763 
744767.008,4408387.230,-1.772 
744767.008,4408286.593,-1.779 
744767.008,4408185.956,-1.789 
744767.008,4408085.319,-1.805 
744867.645,4433647.102,-1.412 
744867.645,4433546.465,-1.511 
744867.645,4433445.828,-1.588 
744867.645,4433345.191,-1.677 
744867.645,4433244.554,-1.739 
744867.645,4433143.917,-1.789 
744867.645,4433043.280,-1.834 
744867.645,4432942.643,-1.865 
744867.645,4432842.006,-1.879 
744867.645,4432741.369,-1.886 
744867.645,4432640.732,-1.881 
744867.645,4432540.096,-1.873 
744867.645,4432439.459,-1.868 
744867.645,4432338.822,-1.858 
744867.645,4432238.185,-1.839 
744867.645,4432137.548,-1.837 
744867.645,4432036.911,-1.839 
744867.645,4431936.274,-1.83 
744867.645,4431835.637,-1.817 
744867.645,4431735.000,-1.81 
744867.645,4431634.363,-1.806 
744867.645,4431533.726,-1.804 
744867.645,4431433.089,-1.805 
744867.645,4431332.452,-1.808 
744867.645,4431231.815,-1.816 
744867.645,4431131.178,-1.821 
744867.645,4431030.541,-1.827 
744867.645,4430929.904,-1.834 
744867.645,4430829.268,-1.844 
744867.645,4430728.631,-1.853 
744867.645,4430627.994,-1.859 
744867.645,4430527.357,-1.869 
744867.645,4430426.720,-1.878 
744867.645,4430326.083,-1.886 
744867.645,4430225.446,-1.895 
744867.645,4430124.809,-1.906 
744867.645,4430024.172,-1.918 
744867.645,4429923.535,-1.929 
744867.645,4429822.898,-1.94 
744867.645,4429722.261,-1.949 
744867.645,4429621.624,-1.961 
744867.645,4429520.987,-1.971 
744867.645,4429420.350,-1.98 
744867.645,4429319.713,-1.987 
744867.645,4429219.076,-1.995 
744867.645,4429118.440,-2.002 
744867.645,4429017.803,-2.009 
744867.645,4428917.166,-2.014 
744867.645,4428816.529,-2.018 
744867.645,4428715.892,-2.024 
744867.645,4428615.255,-2.029 
744867.645,4428514.618,-2.041 
744867.645,4428413.981,-2.049 
744867.645,4428313.344,-2.055 
744867.645,4428212.707,-2.061 
744867.645,4428112.070,-2.069 
744867.645,4428011.433,-2.078 
744867.645,4427910.796,-2.088 
744867.645,4427810.159,-2.101 
744867.645,4427709.522,-2.115 
744867.645,4427608.885,-2.128 
744867.645,4427508.248,-2.142 
744867.645,4427407.612,-2.153 
744867.645,4427306.975,-2.16 
744867.645,4427206.338,-2.164 
744867.645,4427105.701,-2.164 
744867.645,4427005.064,-2.163 
744867.645,4426904.427,-2.157 
744867.645,4426803.790,-2.154 
744867.645,4426703.153,-2.155 
744867.645,4426602.516,-2.158 
744867.645,4426501.879,-2.16 
744867.645,4426401.242,-2.161 
744867.645,4426300.605,-2.161 
744867.645,4426199.968,-2.161 
744867.645,4426099.331,-2.159 
744867.645,4425998.694,-2.154 
744867.645,4425898.057,-2.148 
744867.645,4425797.420,-2.14 
744867.645,4425696.784,-2.131 
744867.645,4425596.147,-2.123 
744867.645,4425495.510,-2.12 
744867.645,4425394.873,-2.12 
744867.645,4425294.236,-2.118 
744867.645,4425193.599,-2.117 
744867.645,4425092.962,-2.116 
744867.645,4424992.325,-2.117 
744867.645,4424891.688,-2.116 
744867.645,4424791.051,-2.118 
744867.645,4424690.414,-2.118 
744867.645,4424589.777,-2.119 
744867.645,4424489.140,-2.119 
744867.645,4424388.503,-2.116 
744867.645,4424287.866,-2.11 
744867.645,4424187.229,-2.102 
744867.645,4424086.593,-2.091 
744867.645,4423985.956,-2.078 
744867.645,4423885.319,-2.067 
744867.645,4423784.682,-2.056 
744867.645,4423684.045,-2.044 
744867.645,4423583.408,-2.033 
744867.645,4423482.771,-2.021 
744867.645,4423382.134,-2.009 
744867.645,4423281.497,-1.997 
744867.645,4423180.860,-1.986 
744867.645,4423080.223,-1.977 
744867.645,4422979.586,-1.97 
744867.645,4422878.949,-1.962 
744867.645,4422778.312,-1.955 
744867.645,4422677.675,-1.948 
744867.645,4422577.038,-1.942 
744867.645,4422476.401,-1.935 
744867.645,4422375.765,-1.928 
744867.645,4422275.128,-1.921 
744867.645,4422174.491,-1.913 
744867.645,4422073.854,-1.904 
744867.645,4421973.217,-1.897 
744867.645,4421872.580,-1.89 
744867.645,4421771.943,-1.885 
744867.645,4421671.306,-1.88 
744867.645,4421570.669,-1.877 
744867.645,4421470.032,-1.872 
744867.645,4421369.395,-1.868 
744867.645,4421268.758,-1.865 
744867.645,4421168.121,-1.862 
744867.645,4421067.484,-1.859 
744867.645,4420966.847,-1.856 
744867.645,4420866.210,-1.853 
744867.645,4420765.573,-1.85 
744867.645,4420664.937,-1.847 
744867.645,4420564.300,-1.843 
744867.645,4420463.663,-1.839 
744867.645,4420363.026,-1.834 
744867.645,4420262.389,-1.829 
744867.645,4420161.752,-1.826 
744867.645,4420061.115,-1.824 
744867.645,4419960.478,-1.822 
744867.645,4419859.841,-1.821 
744867.645,4419759.204,-1.821 
744867.645,4419658.567,-1.823 
744867.645,4419557.930,-1.824 
744867.645,4419457.293,-1.823 
744867.645,4419356.656,-1.821 
744867.645,4419256.019,-1.818 
744867.645,4419155.382,-1.817 
744867.645,4419054.745,-1.817 
744867.645,4418954.109,-1.816 
744867.645,4418853.472,-1.813 
744867.645,4418752.835,-1.809 
744867.645,4418652.198,-1.806 
744867.645,4418551.561,-1.803 
744867.645,4418450.924,-1.801 
744867.645,4418350.287,-1.801 
744867.645,4418249.650,-1.802 
744867.645,4418149.013,-1.805 
744867.645,4418048.376,-1.809 
744867.645,4417947.739,-1.813 
744867.645,4417847.102,-1.814 
744867.645,4417746.465,-1.814 
744867.645,4417645.828,-1.811 
744867.645,4417545.191,-1.804 
744867.645,4417444.554,-1.792 
744867.645,4417343.917,-1.773 
744867.645,4417243.281,-1.748 
744867.645,4417142.644,-1.723 
744867.645,4417042.007,-1.702 
744867.645,4416941.370,-1.685 
744867.645,4416840.733,-1.671 
744867.645,4416740.096,-1.661 
744867.645,4416639.459,-1.656 
744867.645,4416538.822,-1.654 
744867.645,4416438.185,-1.652 
744867.645,4416337.548,-1.652 
744867.645,4416236.911,-1.651 
744867.645,4416136.274,-1.651 
744867.645,4416035.637,-1.65 
744867.645,4415935.000,-1.651 
744867.645,4415834.363,-1.653 
744867.645,4415733.726,-1.655 
744867.645,4415633.089,-1.658 
744867.645,4415532.453,-1.66 
744867.645,4415431.816,-1.661 
744867.645,4415331.179,-1.663 
744867.645,4415230.542,-1.666 
744867.645,4415129.905,-1.671 
744867.645,4415029.268,-1.678 
744867.645,4414928.631,-1.685 
744867.645,4414827.994,-1.693 
744867.645,4414727.357,-1.703 
744867.645,4414626.720,-1.715 
744867.645,4414526.083,-1.727 
744867.645,4414425.446,-1.738 
744867.645,4414324.809,-1.75 
744867.645,4414224.172,-1.763 
744867.645,4414123.535,-1.778 
744867.645,4414022.898,-1.794 
744867.645,4413922.261,-1.811 
744867.645,4413821.625,-1.829 
744867.645,4413720.988,-1.847 
744867.645,4413620.351,-1.863 
744867.645,4413519.714,-1.877 
744867.645,4413419.077,-1.888 
744867.645,4413318.440,-1.894 
744867.645,4413217.803,-1.896 
744867.645,4413117.166,-1.898 
744867.645,4413016.529,-1.901 
744867.645,4412915.892,-1.904 
744867.645,4412815.255,-1.906 
744867.645,4412714.618,-1.907 
744867.645,4412613.981,-1.907 
744867.645,4412513.344,-1.907 
744867.645,4412412.707,-1.906 
744867.645,4412312.070,-1.905 
744867.645,4412211.433,-1.904 
744867.645,4412110.797,-1.903 
744867.645,4412010.160,-1.902 
744867.645,4411909.523,-1.901 
744867.645,4411808.886,-1.897 
744867.645,4411708.249,-1.892 
744867.645,4411607.612,-1.887 
744867.645,4411506.975,-1.883 
744867.645,4411406.338,-1.879 
744867.645,4411305.701,-1.874 
744867.645,4411205.064,-1.869 
744867.645,4411104.427,-1.864 
744867.645,4411003.790,-1.857 
744867.645,4410903.153,-1.85 
744867.645,4410802.516,-1.841 
744867.645,4410701.879,-1.832 
744867.645,4410601.242,-1.824 
744867.645,4410500.605,-1.815 
744867.645,4410399.969,-1.805 
744867.645,4410299.332,-1.794 
744867.645,4410198.695,-1.782 
744867.645,4410098.058,-1.771 
744867.645,4409997.421,-1.763 
744867.645,4409896.784,-1.757 
744867.645,4409796.147,-1.751 
744867.645,4409695.510,-1.746 
744867.645,4409594.873,-1.741 
744867.645,4409494.236,-1.735 
744867.645,4409393.599,-1.731 
744867.645,4409292.962,-1.728 
744867.645,4409192.325,-1.723 
744867.645,4409091.688,-1.717 
744867.645,4408991.051,-1.714 
744867.645,4408890.414,-1.717 
744867.645,4408789.778,-1.723 
744867.645,4408689.141,-1.729 
744867.645,4408588.504,-1.736 
744867.645,4408487.867,-1.744 
744867.645,4408387.230,-1.753 
744867.645,4408286.593,-1.761 
744867.645,4408185.956,-1.768 
744867.645,4408085.319,-1.781 
744968.282,4433546.465,-1.437 
744968.282,4433445.828,-1.537 
744968.282,4433345.191,-1.618 
744968.282,4433244.554,-1.676 
744968.282,4433143.917,-1.726 
744968.282,4433043.280,-1.771 
744968.282,4432942.643,-1.807 
744968.282,4432842.006,-1.834 
744968.282,4432741.369,-1.856 
744968.282,4432640.732,-1.859 
744968.282,4432540.096,-1.853 
744968.282,4432439.459,-1.847 
744968.282,4432338.822,-1.838 
744968.282,4432238.185,-1.822 
744968.282,4432137.548,-1.814 
744968.282,4432036.911,-1.826 
744968.282,4431936.274,-1.83 
744968.282,4431835.637,-1.815 
744968.282,4431735.000,-1.803 
744968.282,4431634.363,-1.798 
744968.282,4431533.726,-1.793 
744968.282,4431433.089,-1.79 
744968.282,4431332.452,-1.788 
744968.282,4431231.815,-1.796 
744968.282,4431131.178,-1.802 
744968.282,4431030.541,-1.804 
744968.282,4430929.904,-1.811 
744968.282,4430829.268,-1.817 
744968.282,4430728.631,-1.833 
744968.282,4430627.994,-1.84 
744968.282,4430527.357,-1.85 
744968.282,4430426.720,-1.859 
744968.282,4430326.083,-1.868 
744968.282,4430225.446,-1.879 
744968.282,4430124.809,-1.89 
744968.282,4430024.172,-1.902 
744968.282,4429923.535,-1.913 
744968.282,4429822.898,-1.924 
744968.282,4429722.261,-1.933 
744968.282,4429621.624,-1.943 
744968.282,4429520.987,-1.952 
744968.282,4429420.350,-1.963 
744968.282,4429319.713,-1.971 
744968.282,4429219.076,-1.978 
744968.282,4429118.440,-1.985 
744968.282,4429017.803,-1.99 
744968.282,4428917.166,-1.996 
744968.282,4428816.529,-2.001 
744968.282,4428715.892,-2.008 
744968.282,4428615.255,-2.013 
744968.282,4428514.618,-2.03 
744968.282,4428413.981,-2.041 
744968.282,4428313.344,-2.051 
744968.282,4428212.707,-2.061 
744968.282,4428112.070,-2.068 
744968.282,4428011.433,-2.076 
744968.282,4427910.796,-2.083 
744968.282,4427810.159,-2.092 
744968.282,4427709.522,-2.102 
744968.282,4427608.885,-2.11 
744968.282,4427508.248,-2.12 
744968.282,4427407.612,-2.128 
744968.282,4427306.975,-2.132 
744968.282,4427206.338,-2.134 
744968.282,4427105.701,-2.133 
744968.282,4427005.064,-2.132 
744968.282,4426904.427,-2.128 
744968.282,4426803.790,-2.124 
744968.282,4426703.153,-2.123 
744968.282,4426602.516,-2.124 
744968.282,4426501.879,-2.126 
744968.282,4426401.242,-2.127 
744968.282,4426300.605,-2.129 
744968.282,4426199.968,-2.129 
744968.282,4426099.331,-2.134 
744968.282,4425998.694,-2.131 
744968.282,4425898.057,-2.127 
744968.282,4425797.420,-2.122 
744968.282,4425696.784,-2.117 
744968.282,4425596.147,-2.111 
744968.282,4425495.510,-2.109 
744968.282,4425394.873,-2.111 
744968.282,4425294.236,-2.112 
744968.282,4425193.599,-2.113 
744968.282,4425092.962,-2.112 
744968.282,4424992.325,-2.111 
744968.282,4424891.688,-2.11 
744968.282,4424791.051,-2.109 
744968.282,4424690.414,-2.106 
744968.282,4424589.777,-2.104 
744968.282,4424489.140,-2.103 
744968.282,4424388.503,-2.1 
744968.282,4424287.866,-2.097 
744968.282,4424187.229,-2.092 
744968.282,4424086.593,-2.084 
744968.282,4423985.956,-2.075 
744968.282,4423885.319,-2.064 
744968.282,4423784.682,-2.051 
744968.282,4423684.045,-2.038 
744968.282,4423583.408,-2.027 
744968.282,4423482.771,-2.016 
744968.282,4423382.134,-2.004 
744968.282,4423281.497,-1.994 
744968.282,4423180.860,-1.983 
744968.282,4423080.223,-1.972 
744968.282,4422979.586,-1.962 
744968.282,4422878.949,-1.955 
744968.282,4422778.312,-1.948 
744968.282,4422677.675,-1.941 
744968.282,4422577.038,-1.935 
744968.282,4422476.401,-1.928 
744968.282,4422375.765,-1.919 
744968.282,4422275.128,-1.912 
744968.282,4422174.491,-1.906 
744968.282,4422073.854,-1.899 
744968.282,4421973.217,-1.89 
744968.282,4421872.580,-1.882 
744968.282,4421771.943,-1.876 
744968.282,4421671.306,-1.871 
744968.282,4421570.669,-1.867 
744968.282,4421470.032,-1.862 
744968.282,4421369.395,-1.857 
744968.282,4421268.758,-1.854 
744968.282,4421168.121,-1.85 
744968.282,4421067.484,-1.847 
744968.282,4420966.847,-1.844 
744968.282,4420866.210,-1.841 
744968.282,4420765.573,-1.838 
744968.282,4420664.937,-1.835 
744968.282,4420564.300,-1.832 
744968.282,4420463.663,-1.828 
744968.282,4420363.026,-1.823 
744968.282,4420262.389,-1.818 
744968.282,4420161.752,-1.814 
744968.282,4420061.115,-1.811 
744968.282,4419960.478,-1.809 
744968.282,4419859.841,-1.808 
744968.282,4419759.204,-1.806 
744968.282,4419658.567,-1.806 
744968.282,4419557.930,-1.807 
744968.282,4419457.293,-1.807 
744968.282,4419356.656,-1.806 
744968.282,4419256.019,-1.803 
744968.282,4419155.382,-1.801 
744968.282,4419054.745,-1.802 
744968.282,4418954.109,-1.801 
744968.282,4418853.472,-1.8 
744968.282,4418752.835,-1.796 
744968.282,4418652.198,-1.792 
744968.282,4418551.561,-1.788 
744968.282,4418450.924,-1.787 
744968.282,4418350.287,-1.786 
744968.282,4418249.650,-1.787 
744968.282,4418149.013,-1.79 
744968.282,4418048.376,-1.795 
744968.282,4417947.739,-1.799 
744968.282,4417847.102,-1.8 
744968.282,4417746.465,-1.799 
744968.282,4417645.828,-1.795 
744968.282,4417545.191,-1.787 
744968.282,4417444.554,-1.775 
744968.282,4417343.917,-1.758 
744968.282,4417243.281,-1.735 
744968.282,4417142.644,-1.712 
744968.282,4417042.007,-1.69 
744968.282,4416941.370,-1.673 
744968.282,4416840.733,-1.659 
744968.282,4416740.096,-1.648 
744968.282,4416639.459,-1.642 
744968.282,4416538.822,-1.64 
744968.282,4416438.185,-1.639 
744968.282,4416337.548,-1.639 
744968.282,4416236.911,-1.639 
744968.282,4416136.274,-1.639 
744968.282,4416035.637,-1.638 
744968.282,4415935.000,-1.638 
744968.282,4415834.363,-1.639 
744968.282,4415733.726,-1.641 
744968.282,4415633.089,-1.643 
744968.282,4415532.453,-1.646 
744968.282,4415431.816,-1.648 
744968.282,4415331.179,-1.651 
744968.282,4415230.542,-1.653 
744968.282,4415129.905,-1.656 
744968.282,4415029.268,-1.662 
744968.282,4414928.631,-1.669 
744968.282,4414827.994,-1.677 
744968.282,4414727.357,-1.686 
744968.282,4414626.720,-1.697 
744968.282,4414526.083,-1.708 
744968.282,4414425.446,-1.72 
744968.282,4414324.809,-1.731 
744968.282,4414224.172,-1.743 
744968.282,4414123.535,-1.756 
744968.282,4414022.898,-1.771 
744968.282,4413922.261,-1.788 
744968.282,4413821.625,-1.804 
744968.282,4413720.988,-1.821 
744968.282,4413620.351,-1.839 
744968.282,4413519.714,-1.855 
744968.282,4413419.077,-1.867 
744968.282,4413318.440,-1.875 
744968.282,4413217.803,-1.879 
744968.282,4413117.166,-1.88 
744968.282,4413016.529,-1.882 
744968.282,4412915.892,-1.887 
744968.282,4412815.255,-1.891 
744968.282,4412714.618,-1.892 
744968.282,4412613.981,-1.894 
744968.282,4412513.344,-1.895 
744968.282,4412412.707,-1.895 
744968.282,4412312.070,-1.894 
744968.282,4412211.433,-1.893 
744968.282,4412110.797,-1.893 
744968.282,4412010.160,-1.891 
744968.282,4411909.523,-1.889 
744968.282,4411808.886,-1.885 
744968.282,4411708.249,-1.88 
744968.282,4411607.612,-1.874 
744968.282,4411506.975,-1.87 
744968.282,4411406.338,-1.867 
744968.282,4411305.701,-1.863 
744968.282,4411205.064,-1.859 
744968.282,4411104.427,-1.854 
744968.282,4411003.790,-1.848 
744968.282,4410903.153,-1.84 
744968.282,4410802.516,-1.832 
744968.282,4410701.879,-1.824 
744968.282,4410601.242,-1.815 
744968.282,4410500.605,-1.806 
744968.282,4410399.969,-1.797 
744968.282,4410299.332,-1.787 
744968.282,4410198.695,-1.776 
744968.282,4410098.058,-1.764 
744968.282,4409997.421,-1.754 
744968.282,4409896.784,-1.748 
744968.282,4409796.147,-1.742 
744968.282,4409695.510,-1.737 
744968.282,4409594.873,-1.731 
744968.282,4409494.236,-1.726 
744968.282,4409393.599,-1.722 
744968.282,4409292.962,-1.717 
744968.282,4409192.325,-1.712 
744968.282,4409091.688,-1.707 
744968.282,4408991.051,-1.706 
744968.282,4408890.414,-1.708 
744968.282,4408789.778,-1.711 
744968.282,4408689.141,-1.715 
744968.282,4408588.504,-1.72 
744968.282,4408487.867,-1.726 
744968.282,4408387.230,-1.734 
744968.282,4408286.593,-1.741 
744968.282,4408185.956,-1.749 
744968.282,4408085.319,-1.76 
745068.918,4433445.828,-1.469 
745068.918,4433345.191,-1.547 
745068.918,4433244.554,-1.611 
745068.918,4433143.917,-1.659 
745068.918,4433043.280,-1.701 
745068.918,4432942.643,-1.738 
745068.918,4432842.006,-1.781 
745068.918,4432741.369,-1.818 
745068.918,4432640.732,-1.834 
745068.918,4432540.096,-1.832 
745068.918,4432439.459,-1.823 
745068.918,4432338.822,-1.82 
745068.918,4432238.185,-1.811 
745068.918,4432137.548,-1.8 
745068.918,4432036.911,-1.807 
745068.918,4431936.274,-1.819 
745068.918,4431835.637,-1.809 
745068.918,4431735.000,-1.796 
745068.918,4431634.363,-1.788 
745068.918,4431533.726,-1.782 
745068.918,4431433.089,-1.775 
745068.918,4431332.452,-1.768 
745068.918,4431231.815,-1.773 
745068.918,4431131.178,-1.783 
745068.918,4431030.541,-1.787 
745068.918,4430929.904,-1.791 
745068.918,4430829.268,-1.795 
745068.918,4430728.631,-1.809 
745068.918,4430627.994,-1.819 
745068.918,4430527.357,-1.825 
745068.918,4430426.720,-1.838 
745068.918,4430326.083,-1.849 
745068.918,4430225.446,-1.861 
745068.918,4430124.809,-1.873 
745068.918,4430024.172,-1.885 
745068.918,4429923.535,-1.896 
745068.918,4429822.898,-1.906 
745068.918,4429722.261,-1.914 
745068.918,4429621.624,-1.925 
745068.918,4429520.987,-1.933 
745068.918,4429420.350,-1.942 
745068.918,4429319.713,-1.951 
745068.918,4429219.076,-1.958 
745068.918,4429118.440,-1.964 
745068.918,4429017.803,-1.97 
745068.918,4428917.166,-1.975 
745068.918,4428816.529,-1.98 
745068.918,4428715.892,-1.988 
745068.918,4428615.255,-1.996 
745068.918,4428514.618,-2.008 
745068.918,4428413.981,-2.024 
745068.918,4428313.344,-2.038 
745068.918,4428212.707,-2.052 
745068.918,4428112.070,-2.062 
745068.918,4428011.433,-2.07 
745068.918,4427910.796,-2.077 
745068.918,4427810.159,-2.082 
745068.918,4427709.522,-2.089 
745068.918,4427608.885,-2.093 
745068.918,4427508.248,-2.097 
745068.918,4427407.612,-2.102 
745068.918,4427306.975,-2.104 
745068.918,4427206.338,-2.105 
745068.918,4427105.701,-2.105 
745068.918,4427005.064,-2.105 
745068.918,4426904.427,-2.105 
745068.918,4426803.790,-2.102 
745068.918,4426703.153,-2.098 
745068.918,4426602.516,-2.095 
745068.918,4426501.879,-2.095 
745068.918,4426401.242,-2.095 
745068.918,4426300.605,-2.097 
745068.918,4426199.968,-2.098 
745068.918,4426099.331,-2.104 
745068.918,4425998.694,-2.104 
745068.918,4425898.057,-2.102 
745068.918,4425797.420,-2.1 
745068.918,4425696.784,-2.098 
745068.918,4425596.147,-2.097 
745068.918,4425495.510,-2.098 
745068.918,4425394.873,-2.1 
745068.918,4425294.236,-2.104 
745068.918,4425193.599,-2.105 
745068.918,4425092.962,-2.105 
745068.918,4424992.325,-2.104 
745068.918,4424891.688,-2.102 
745068.918,4424791.051,-2.099 
745068.918,4424690.414,-2.095 
745068.918,4424589.777,-2.091 
745068.918,4424489.140,-2.087 
745068.918,4424388.503,-2.084 
745068.918,4424287.866,-2.081 
745068.918,4424187.229,-2.078 
745068.918,4424086.593,-2.073 
745068.918,4423985.956,-2.066 
745068.918,4423885.319,-2.057 
745068.918,4423784.682,-2.045 
745068.918,4423684.045,-2.033 
745068.918,4423583.408,-2.022 
745068.918,4423482.771,-2.011 
745068.918,4423382.134,-2.001 
745068.918,4423281.497,-1.991 
745068.918,4423180.860,-1.98 
745068.918,4423080.223,-1.968 
745068.918,4422979.586,-1.958 
745068.918,4422878.949,-1.948 
745068.918,4422778.312,-1.941 
745068.918,4422677.675,-1.934 
745068.918,4422577.038,-1.927 
745068.918,4422476.401,-1.92 
745068.918,4422375.765,-1.911 
745068.918,4422275.128,-1.905 
745068.918,4422174.491,-1.898 
745068.918,4422073.854,-1.891 
745068.918,4421973.217,-1.883 
745068.918,4421872.580,-1.875 
745068.918,4421771.943,-1.868 
745068.918,4421671.306,-1.861 
745068.918,4421570.669,-1.856 
745068.918,4421470.032,-1.851 
745068.918,4421369.395,-1.846 
745068.918,4421268.758,-1.843 
745068.918,4421168.121,-1.84 
745068.918,4421067.484,-1.836 
745068.918,4420966.847,-1.832 
745068.918,4420866.210,-1.83 
745068.918,4420765.573,-1.827 
745068.918,4420664.937,-1.824 
745068.918,4420564.300,-1.821 
745068.918,4420463.663,-1.817 
745068.918,4420363.026,-1.812 
745068.918,4420262.389,-1.809 
745068.918,4420161.752,-1.803 
745068.918,4420061.115,-1.798 
745068.918,4419960.478,-1.797 
745068.918,4419859.841,-1.796 
745068.918,4419759.204,-1.793 
745068.918,4419658.567,-1.792 
745068.918,4419557.930,-1.791 
745068.918,4419457.293,-1.791 
745068.918,4419356.656,-1.791 
745068.918,4419256.019,-1.79 
745068.918,4419155.382,-1.788 
745068.918,4419054.745,-1.787 
745068.918,4418954.109,-1.786 
745068.918,4418853.472,-1.785 
745068.918,4418752.835,-1.783 
745068.918,4418652.198,-1.779 
745068.918,4418551.561,-1.776 
745068.918,4418450.924,-1.773 
745068.918,4418350.287,-1.772 
745068.918,4418249.650,-1.773 
745068.918,4418149.013,-1.775 
745068.918,4418048.376,-1.779 
745068.918,4417947.739,-1.784 
745068.918,4417847.102,-1.786 
745068.918,4417746.465,-1.785 
745068.918,4417645.828,-1.78 
745068.918,4417545.191,-1.771 
745068.918,4417444.554,-1.758 
745068.918,4417343.917,-1.742 
745068.918,4417243.281,-1.721 
745068.918,4417142.644,-1.699 
745068.918,4417042.007,-1.679 
745068.918,4416941.370,-1.661 
745068.918,4416840.733,-1.648 
745068.918,4416740.096,-1.637 
745068.918,4416639.459,-1.63 
745068.918,4416538.822,-1.627 
745068.918,4416438.185,-1.626 
745068.918,4416337.548,-1.626 
745068.918,4416236.911,-1.626 
745068.918,4416136.274,-1.626 
745068.918,4416035.637,-1.625 
745068.918,4415935.000,-1.624 
745068.918,4415834.363,-1.625 
745068.918,4415733.726,-1.628 
745068.918,4415633.089,-1.631 
745068.918,4415532.453,-1.633 
745068.918,4415431.816,-1.635 
745068.918,4415331.179,-1.638 
745068.918,4415230.542,-1.641 
745068.918,4415129.905,-1.643 
745068.918,4415029.268,-1.648 
745068.918,4414928.631,-1.654 
745068.918,4414827.994,-1.661 
745068.918,4414727.357,-1.67 
745068.918,4414626.720,-1.679 
745068.918,4414526.083,-1.689 
745068.918,4414425.446,-1.7 
745068.918,4414324.809,-1.711 
745068.918,4414224.172,-1.722 
745068.918,4414123.535,-1.733 
745068.918,4414022.898,-1.747 
745068.918,4413922.261,-1.762 
745068.918,4413821.625,-1.777 
745068.918,4413720.988,-1.793 
745068.918,4413620.351,-1.811 
745068.918,4413519.714,-1.828 
745068.918,4413419.077,-1.843 
745068.918,4413318.440,-1.855 
745068.918,4413217.803,-1.862 
745068.918,4413117.166,-1.863 
745068.918,4413016.529,-1.864 
745068.918,4412915.892,-1.869 
745068.918,4412815.255,-1.875 
745068.918,4412714.618,-1.879 
745068.918,4412613.981,-1.882 
745068.918,4412513.344,-1.884 
745068.918,4412412.707,-1.884 
745068.918,4412312.070,-1.884 
745068.918,4412211.433,-1.883 
745068.918,4412110.797,-1.882 
745068.918,4412010.160,-1.88 
745068.918,4411909.523,-1.878 
745068.918,4411808.886,-1.875 
745068.918,4411708.249,-1.87 
745068.918,4411607.612,-1.864 
745068.918,4411506.975,-1.86 
745068.918,4411406.338,-1.856 
745068.918,4411305.701,-1.852 
745068.918,4411205.064,-1.848 
745068.918,4411104.427,-1.843 
745068.918,4411003.790,-1.838 
745068.918,4410903.153,-1.831 
745068.918,4410802.516,-1.823 
745068.918,4410701.879,-1.815 
745068.918,4410601.242,-1.807 
745068.918,4410500.605,-1.798 
745068.918,4410399.969,-1.789 
745068.918,4410299.332,-1.779 
745068.918,4410198.695,-1.769 
745068.918,4410098.058,-1.758 
745068.918,4409997.421,-1.747 
745068.918,4409896.784,-1.74 
745068.918,4409796.147,-1.734 
745068.918,4409695.510,-1.728 
745068.918,4409594.873,-1.722 
745068.918,4409494.236,-1.716 
745068.918,4409393.599,-1.711 
745068.918,4409292.962,-1.706 
745068.918,4409192.325,-1.703 
745068.918,4409091.688,-1.7 
745068.918,4408991.051,-1.699 
745068.918,4408890.414,-1.699 
745068.918,4408789.778,-1.7 
745068.918,4408689.141,-1.702 
745068.918,4408588.504,-1.706 
745068.918,4408487.867,-1.71 
745068.918,4408387.230,-1.717 
745068.918,4408286.593,-1.722 
745068.918,4408185.956,-1.728 
745068.918,4408085.319,-1.741 
745169.555,4433345.191,-1.474 
745169.555,4433244.554,-1.537 
745169.555,4433143.917,-1.589 
745169.555,4433043.280,-1.628 
745169.555,4432942.643,-1.668 
745169.555,4432842.006,-1.721 
745169.555,4432741.369,-1.768 
745169.555,4432640.732,-1.797 
745169.555,4432540.096,-1.805 
745169.555,4432439.459,-1.792 
745169.555,4432338.822,-1.783 
745169.555,4432238.185,-1.787 
745169.555,4432137.548,-1.786 
745169.555,4432036.911,-1.794 
745169.555,4431936.274,-1.803 
745169.555,4431835.637,-1.799 
745169.555,4431735.000,-1.788 
745169.555,4431634.363,-1.778 
745169.555,4431533.726,-1.77 
745169.555,4431433.089,-1.761 
745169.555,4431332.452,-1.752 
745169.555,4431231.815,-1.752 
745169.555,4431131.178,-1.761 
745169.555,4431030.541,-1.771 
745169.555,4430929.904,-1.775 
745169.555,4430829.268,-1.779 
745169.555,4430728.631,-1.788 
745169.555,4430627.994,-1.797 
745169.555,4430527.357,-1.803 
745169.555,4430426.720,-1.814 
745169.555,4430326.083,-1.829 
745169.555,4430225.446,-1.841 
745169.555,4430124.809,-1.854 
745169.555,4430024.172,-1.867 
745169.555,4429923.535,-1.878 
745169.555,4429822.898,-1.888 
745169.555,4429722.261,-1.896 
745169.555,4429621.624,-1.906 
745169.555,4429520.987,-1.914 
745169.555,4429420.350,-1.922 
745169.555,4429319.713,-1.93 
745169.555,4429219.076,-1.938 
745169.555,4429118.440,-1.944 
745169.555,4429017.803,-1.949 
745169.555,4428917.166,-1.953 
745169.555,4428816.529,-1.958 
745169.555,4428715.892,-1.966 
745169.555,4428615.255,-1.976 
745169.555,4428514.618,-1.988 
745169.555,4428413.981,-2.002 
745169.555,4428313.344,-2.018 
745169.555,4428212.707,-2.035 
745169.555,4428112.070,-2.047 
745169.555,4428011.433,-2.059 
745169.555,4427910.796,-2.066 
745169.555,4427810.159,-2.07 
745169.555,4427709.522,-2.074 
745169.555,4427608.885,-2.076 
745169.555,4427508.248,-2.077 
745169.555,4427407.612,-2.08 
745169.555,4427306.975,-2.079 
745169.555,4427206.338,-2.079 
745169.555,4427105.701,-2.078 
745169.555,4427005.064,-2.08 
745169.555,4426904.427,-2.082 
745169.555,4426803.790,-2.083 
745169.555,4426703.153,-2.081 
745169.555,4426602.516,-2.078 
745169.555,4426501.879,-2.076 
745169.555,4426401.242,-2.074 
745169.555,4426300.605,-2.073 
745169.555,4426199.968,-2.075 
745169.555,4426099.331,-2.076 
745169.555,4425998.694,-2.078 
745169.555,4425898.057,-2.078 
745169.555,4425797.420,-2.078 
745169.555,4425696.784,-2.079 
745169.555,4425596.147,-2.082 
745169.555,4425495.510,-2.085 
745169.555,4425394.873,-2.089 
745169.555,4425294.236,-2.092 
745169.555,4425193.599,-2.094 
745169.555,4425092.962,-2.097 
745169.555,4424992.325,-2.098 
745169.555,4424891.688,-2.096 
745169.555,4424791.051,-2.092 
745169.555,4424690.414,-2.085 
745169.555,4424589.777,-2.081 
745169.555,4424489.140,-2.076 
745169.555,4424388.503,-2.072 
745169.555,4424287.866,-2.07 
745169.555,4424187.229,-2.068 
745169.555,4424086.593,-2.061 
745169.555,4423985.956,-2.055 
745169.555,4423885.319,-2.049 
745169.555,4423784.682,-2.038 
745169.555,4423684.045,-2.027 
745169.555,4423583.408,-2.017 
745169.555,4423482.771,-2.005 
745169.555,4423382.134,-1.995 
745169.555,4423281.497,-1.984 
745169.555,4423180.860,-1.972 
745169.555,4423080.223,-1.962 
745169.555,4422979.586,-1.953 
745169.555,4422878.949,-1.943 
745169.555,4422778.312,-1.934 
745169.555,4422677.675,-1.926 
745169.555,4422577.038,-1.919 
745169.555,4422476.401,-1.911 
745169.555,4422375.765,-1.904 
745169.555,4422275.128,-1.897 
745169.555,4422174.491,-1.888 
745169.555,4422073.854,-1.88 
745169.555,4421973.217,-1.873 
745169.555,4421872.580,-1.866 
745169.555,4421771.943,-1.859 
745169.555,4421671.306,-1.852 
745169.555,4421570.669,-1.844 
745169.555,4421470.032,-1.838 
745169.555,4421369.395,-1.834 
745169.555,4421268.758,-1.831 
745169.555,4421168.121,-1.829 
745169.555,4421067.484,-1.826 
745169.555,4420966.847,-1.822 
745169.555,4420866.210,-1.819 
745169.555,4420765.573,-1.816 
745169.555,4420664.937,-1.813 
745169.555,4420564.300,-1.81 
745169.555,4420463.663,-1.806 
745169.555,4420363.026,-1.8 
745169.555,4420262.389,-1.796 
745169.555,4420161.752,-1.793 
745169.555,4420061.115,-1.789 
745169.555,4419960.478,-1.786 
745169.555,4419859.841,-1.783 
745169.555,4419759.204,-1.78 
745169.555,4419658.567,-1.778 
745169.555,4419557.930,-1.776 
745169.555,4419457.293,-1.773 
745169.555,4419356.656,-1.775 
745169.555,4419256.019,-1.776 
745169.555,4419155.382,-1.775 
745169.555,4419054.745,-1.775 
745169.555,4418954.109,-1.773 
745169.555,4418853.472,-1.771 
745169.555,4418752.835,-1.768 
745169.555,4418652.198,-1.766 
745169.555,4418551.561,-1.763 
745169.555,4418450.924,-1.76 
745169.555,4418350.287,-1.758 
745169.555,4418249.650,-1.759 
745169.555,4418149.013,-1.76 
745169.555,4418048.376,-1.764 
745169.555,4417947.739,-1.769 
745169.555,4417847.102,-1.772 
745169.555,4417746.465,-1.771 
745169.555,4417645.828,-1.766 
745169.555,4417545.191,-1.756 
745169.555,4417444.554,-1.742 
745169.555,4417343.917,-1.724 
745169.555,4417243.281,-1.705 
745169.555,4417142.644,-1.685 
745169.555,4417042.007,-1.666 
745169.555,4416941.370,-1.65 
745169.555,4416840.733,-1.636 
745169.555,4416740.096,-1.625 
745169.555,4416639.459,-1.618 
745169.555,4416538.822,-1.615 
745169.555,4416438.185,-1.612 
745169.555,4416337.548,-1.61 
745169.555,4416236.911,-1.611 
745169.555,4416136.274,-1.613 
745169.555,4416035.637,-1.614 
745169.555,4415935.000,-1.614 
745169.555,4415834.363,-1.614 
745169.555,4415733.726,-1.616 
745169.555,4415633.089,-1.619 
745169.555,4415532.453,-1.621 
745169.555,4415431.816,-1.623 
745169.555,4415331.179,-1.626 
745169.555,4415230.542,-1.628 
745169.555,4415129.905,-1.631 
745169.555,4415029.268,-1.634 
745169.555,4414928.631,-1.639 
745169.555,4414827.994,-1.645 
745169.555,4414727.357,-1.653 
745169.555,4414626.720,-1.66 
745169.555,4414526.083,-1.669 
745169.555,4414425.446,-1.679 
745169.555,4414324.809,-1.69 
745169.555,4414224.172,-1.701 
745169.555,4414123.535,-1.711 
745169.555,4414022.898,-1.721 
745169.555,4413922.261,-1.735 
745169.555,4413821.625,-1.751 
745169.555,4413720.988,-1.767 
745169.555,4413620.351,-1.783 
745169.555,4413519.714,-1.801 
745169.555,4413419.077,-1.818 
745169.555,4413318.440,-1.832 
745169.555,4413217.803,-1.842 
745169.555,4413117.166,-1.847 
745169.555,4413016.529,-1.848 
745169.555,4412915.892,-1.852 
745169.555,4412815.255,-1.858 
745169.555,4412714.618,-1.863 
745169.555,4412613.981,-1.868 
745169.555,4412513.344,-1.871 
745169.555,4412412.707,-1.872 
745169.555,4412312.070,-1.872 
745169.555,4412211.433,-1.872 
745169.555,4412110.797,-1.871 
745169.555,4412010.160,-1.869 
745169.555,4411909.523,-1.868 
745169.555,4411808.886,-1.865 
745169.555,4411708.249,-1.861 
745169.555,4411607.612,-1.855 
745169.555,4411506.975,-1.85 
745169.555,4411406.338,-1.846 
745169.555,4411305.701,-1.842 
745169.555,4411205.064,-1.839 
745169.555,4411104.427,-1.834 
745169.555,4411003.790,-1.829 
745169.555,4410903.153,-1.823 
745169.555,4410802.516,-1.815 
745169.555,4410701.879,-1.807 
745169.555,4410601.242,-1.798 
745169.555,4410500.605,-1.789 
745169.555,4410399.969,-1.781 
745169.555,4410299.332,-1.773 
745169.555,4410198.695,-1.763 
745169.555,4410098.058,-1.753 
745169.555,4409997.421,-1.742 
745169.555,4409896.784,-1.733 
745169.555,4409796.147,-1.726 
745169.555,4409695.510,-1.72 
745169.555,4409594.873,-1.714 
745169.555,4409494.236,-1.707 
745169.555,4409393.599,-1.702 
745169.555,4409292.962,-1.697 
745169.555,4409192.325,-1.694 
745169.555,4409091.688,-1.692 
745169.555,4408991.051,-1.691 
745169.555,4408890.414,-1.69 
745169.555,4408789.778,-1.689 
745169.555,4408689.141,-1.69 
745169.555,4408588.504,-1.692 
745169.555,4408487.867,-1.695 
745169.555,4408387.230,-1.699 
745169.555,4408286.593,-1.703 
745169.555,4408185.956,-1.707 
745169.555,4408085.319,-1.72 
745270.192,4433244.554,-1.443 
745270.192,4433143.917,-1.502 
745270.192,4433043.280,-1.555 
745270.192,4432942.643,-1.598 
745270.192,4432842.006,-1.654 
745270.192,4432741.369,-1.707 
745270.192,4432640.732,-1.748 
745270.192,4432540.096,-1.763 
745270.192,4432439.459,-1.763 
745270.192,4432338.822,-1.758 
745270.192,4432238.185,-1.758 
745270.192,4432137.548,-1.761 
745270.192,4432036.911,-1.777 
745270.192,4431936.274,-1.785 
745270.192,4431835.637,-1.785 
745270.192,4431735.000,-1.776 
745270.192,4431634.363,-1.765 
745270.192,4431533.726,-1.757 
745270.192,4431433.089,-1.749 
745270.192,4431332.452,-1.739 
745270.192,4431231.815,-1.736 
745270.192,4431131.178,-1.742 
745270.192,4431030.541,-1.751 
745270.192,4430929.904,-1.758 
745270.192,4430829.268,-1.764 
745270.192,4430728.631,-1.768 
745270.192,4430627.994,-1.775 
745270.192,4430527.357,-1.785 
745270.192,4430426.720,-1.795 
745270.192,4430326.083,-1.808 
745270.192,4430225.446,-1.821 
745270.192,4430124.809,-1.834 
745270.192,4430024.172,-1.847 
745270.192,4429923.535,-1.859 
745270.192,4429822.898,-1.87 
745270.192,4429722.261,-1.878 
745270.192,4429621.624,-1.888 
745270.192,4429520.987,-1.896 
745270.192,4429420.350,-1.902 
745270.192,4429319.713,-1.91 
745270.192,4429219.076,-1.916 
745270.192,4429118.440,-1.922 
745270.192,4429017.803,-1.926 
745270.192,4428917.166,-1.933 
745270.192,4428816.529,-1.937 
745270.192,4428715.892,-1.944 
745270.192,4428615.255,-1.955 
745270.192,4428514.618,-1.968 
745270.192,4428413.981,-1.982 
745270.192,4428313.344,-1.997 
745270.192,4428212.707,-2.013 
745270.192,4428112.070,-2.027 
745270.192,4428011.433,-2.038 
745270.192,4427910.796,-2.046 
745270.192,4427810.159,-2.054 
745270.192,4427709.522,-2.057 
745270.192,4427608.885,-2.058 
745270.192,4427508.248,-2.059 
745270.192,4427407.612,-2.059 
745270.192,4427306.975,-2.058 
745270.192,4427206.338,-2.057 
745270.192,4427105.701,-2.057 
745270.192,4427005.064,-2.058 
745270.192,4426904.427,-2.06 
745270.192,4426803.790,-2.063 
745270.192,4426703.153,-2.066 
745270.192,4426602.516,-2.067 
745270.192,4426501.879,-2.065 
745270.192,4426401.242,-2.066 
745270.192,4426300.605,-2.064 
745270.192,4426199.968,-2.063 
745270.192,4426099.331,-2.062 
745270.192,4425998.694,-2.064 
745270.192,4425898.057,-2.064 
745270.192,4425797.420,-2.066 
745270.192,4425696.784,-2.069 
745270.192,4425596.147,-2.072 
745270.192,4425495.510,-2.076 
745270.192,4425394.873,-2.081 
745270.192,4425294.236,-2.084 
745270.192,4425193.599,-2.087 
745270.192,4425092.962,-2.088 
745270.192,4424992.325,-2.089 
745270.192,4424891.688,-2.088 
745270.192,4424791.051,-2.085 
745270.192,4424690.414,-2.079 
745270.192,4424589.777,-2.072 
745270.192,4424489.140,-2.068 
745270.192,4424388.503,-2.064 
745270.192,4424287.866,-2.06 
745270.192,4424187.229,-2.057 
745270.192,4424086.593,-2.053 
745270.192,4423985.956,-2.047 
745270.192,4423885.319,-2.041 
745270.192,4423784.682,-2.032 
745270.192,4423684.045,-2.021 
745270.192,4423583.408,-2.01 
745270.192,4423482.771,-1.998 
745270.192,4423382.134,-1.986 
745270.192,4423281.497,-1.974 
745270.192,4423180.860,-1.963 
745270.192,4423080.223,-1.954 
745270.192,4422979.586,-1.946 
745270.192,4422878.949,-1.936 
745270.192,4422778.312,-1.929 
745270.192,4422677.675,-1.92 
745270.192,4422577.038,-1.911 
745270.192,4422476.401,-1.902 
745270.192,4422375.765,-1.895 
745270.192,4422275.128,-1.886 
745270.192,4422174.491,-1.877 
745270.192,4422073.854,-1.869 
745270.192,4421973.217,-1.862 
745270.192,4421872.580,-1.855 
745270.192,4421771.943,-1.848 
745270.192,4421671.306,-1.841 
745270.192,4421570.669,-1.834 
745270.192,4421470.032,-1.828 
745270.192,4421369.395,-1.825 
745270.192,4421268.758,-1.822 
745270.192,4421168.121,-1.819 
745270.192,4421067.484,-1.816 
745270.192,4420966.847,-1.812 
745270.192,4420866.210,-1.809 
745270.192,4420765.573,-1.805 
745270.192,4420664.937,-1.801 
745270.192,4420564.300,-1.797 
745270.192,4420463.663,-1.794 
745270.192,4420363.026,-1.79 
745270.192,4420262.389,-1.785 
745270.192,4420161.752,-1.781 
745270.192,4420061.115,-1.777 
745270.192,4419960.478,-1.773 
745270.192,4419859.841,-1.77 
745270.192,4419759.204,-1.768 
745270.192,4419658.567,-1.766 
745270.192,4419557.930,-1.763 
745270.192,4419457.293,-1.761 
745270.192,4419356.656,-1.76 
745270.192,4419256.019,-1.761 
745270.192,4419155.382,-1.761 
745270.192,4419054.745,-1.761 
745270.192,4418954.109,-1.76 
745270.192,4418853.472,-1.758 
745270.192,4418752.835,-1.756 
745270.192,4418652.198,-1.754 
745270.192,4418551.561,-1.751 
745270.192,4418450.924,-1.748 
745270.192,4418350.287,-1.746 
745270.192,4418249.650,-1.747 
745270.192,4418149.013,-1.748 
745270.192,4418048.376,-1.75 
745270.192,4417947.739,-1.754 
745270.192,4417847.102,-1.757 
745270.192,4417746.465,-1.756 
745270.192,4417645.828,-1.752 
745270.192,4417545.191,-1.742 
745270.192,4417444.554,-1.727 
745270.192,4417343.917,-1.709 
745270.192,4417243.281,-1.688 
745270.192,4417142.644,-1.668 
745270.192,4417042.007,-1.652 
745270.192,4416941.370,-1.638 
745270.192,4416840.733,-1.625 
745270.192,4416740.096,-1.614 
745270.192,4416639.459,-1.607 
745270.192,4416538.822,-1.602 
745270.192,4416438.185,-1.6 
745270.192,4416337.548,-1.599 
745270.192,4416236.911,-1.599 
745270.192,4416136.274,-1.6 
745270.192,4416035.637,-1.601 
745270.192,4415935.000,-1.602 
745270.192,4415834.363,-1.603 
745270.192,4415733.726,-1.604 
745270.192,4415633.089,-1.605 
745270.192,4415532.453,-1.607 
745270.192,4415431.816,-1.61 
745270.192,4415331.179,-1.612 
745270.192,4415230.542,-1.615 
745270.192,4415129.905,-1.619 
745270.192,4415029.268,-1.621 
745270.192,4414928.631,-1.625 
745270.192,4414827.994,-1.631 
745270.192,4414727.357,-1.637 
745270.192,4414626.720,-1.644 
745270.192,4414526.083,-1.651 
745270.192,4414425.446,-1.659 
745270.192,4414324.809,-1.669 
745270.192,4414224.172,-1.68 
745270.192,4414123.535,-1.69 
745270.192,4414022.898,-1.7 
745270.192,4413922.261,-1.712 
745270.192,4413821.625,-1.726 
745270.192,4413720.988,-1.741 
745270.192,4413620.351,-1.756 
745270.192,4413519.714,-1.772 
745270.192,4413419.077,-1.79 
745270.192,4413318.440,-1.807 
745270.192,4413217.803,-1.82 
745270.192,4413117.166,-1.829 
745270.192,4413016.529,-1.833 
745270.192,4412915.892,-1.835 
745270.192,4412815.255,-1.839 
745270.192,4412714.618,-1.845 
745270.192,4412613.981,-1.85 
745270.192,4412513.344,-1.855 
745270.192,4412412.707,-1.857 
745270.192,4412312.070,-1.858 
745270.192,4412211.433,-1.858 
745270.192,4412110.797,-1.858 
745270.192,4412010.160,-1.857 
745270.192,4411909.523,-1.856 
745270.192,4411808.886,-1.853 
745270.192,4411708.249,-1.85 
745270.192,4411607.612,-1.845 
745270.192,4411506.975,-1.84 
745270.192,4411406.338,-1.836 
745270.192,4411305.701,-1.832 
745270.192,4411205.064,-1.829 
745270.192,4411104.427,-1.826 
745270.192,4411003.790,-1.821 
745270.192,4410903.153,-1.815 
745270.192,4410802.516,-1.808 
745270.192,4410701.879,-1.8 
745270.192,4410601.242,-1.791 
745270.192,4410500.605,-1.783 
745270.192,4410399.969,-1.775 
745270.192,4410299.332,-1.766 
745270.192,4410198.695,-1.757 
745270.192,4410098.058,-1.747 
745270.192,4409997.421,-1.736 
745270.192,4409896.784,-1.726 
745270.192,4409796.147,-1.719 
745270.192,4409695.510,-1.713 
745270.192,4409594.873,-1.706 
745270.192,4409494.236,-1.699 
745270.192,4409393.599,-1.693 
745270.192,4409292.962,-1.688 
745270.192,4409192.325,-1.685 
745270.192,4409091.688,-1.683 
745270.192,4408991.051,-1.682 
745270.192,4408890.414,-1.681 
745270.192,4408789.778,-1.679 
745270.192,4408689.141,-1.679 
745270.192,4408588.504,-1.679 
745270.192,4408487.867,-1.681 
745270.192,4408387.230,-1.683 
745270.192,4408286.593,-1.686 
745270.192,4408185.956,-1.691 
745270.192,4408085.319,-1.701 
745370.829,4433143.917,-1.389 
745370.829,4433043.280,-1.466 
745370.829,4432942.643,-1.529 
745370.829,4432842.006,-1.587 
745370.829,4432741.369,-1.644 
745370.829,4432640.732,-1.691 
745370.829,4432540.096,-1.715 
745370.829,4432439.459,-1.73 
745370.829,4432338.822,-1.731 
745370.829,4432238.185,-1.731 
745370.829,4432137.548,-1.736 
745370.829,4432036.911,-1.751 
745370.829,4431936.274,-1.762 
745370.829,4431835.637,-1.766 
745370.829,4431735.000,-1.759 
745370.829,4431634.363,-1.75 
745370.829,4431533.726,-1.743 
745370.829,4431433.089,-1.738 
745370.829,4431332.452,-1.728 
745370.829,4431231.815,-1.724 
745370.829,4431131.178,-1.725 
745370.829,4431030.541,-1.73 
745370.829,4430929.904,-1.735 
745370.829,4430829.268,-1.743 
745370.829,4430728.631,-1.745 
745370.829,4430627.994,-1.753 
745370.829,4430527.357,-1.765 
745370.829,4430426.720,-1.776 
745370.829,4430326.083,-1.788 
745370.829,4430225.446,-1.801 
745370.829,4430124.809,-1.814 
745370.829,4430024.172,-1.826 
745370.829,4429923.535,-1.839 
745370.829,4429822.898,-1.849 
745370.829,4429722.261,-1.86 
745370.829,4429621.624,-1.869 
745370.829,4429520.987,-1.877 
745370.829,4429420.350,-1.883 
745370.829,4429319.713,-1.889 
745370.829,4429219.076,-1.897 
745370.829,4429118.440,-1.903 
745370.829,4429017.803,-1.907 
745370.829,4428917.166,-1.914 
745370.829,4428816.529,-1.919 
745370.829,4428715.892,-1.926 
745370.829,4428615.255,-1.935 
745370.829,4428514.618,-1.948 
745370.829,4428413.981,-1.962 
745370.829,4428313.344,-1.977 
745370.829,4428212.707,-1.991 
745370.829,4428112.070,-2.003 
745370.829,4428011.433,-2.01 
745370.829,4427910.796,-2.025 
745370.829,4427810.159,-2.031 
745370.829,4427709.522,-2.038 
745370.829,4427608.885,-2.041 
745370.829,4427508.248,-2.041 
745370.829,4427407.612,-2.04 
745370.829,4427306.975,-2.039 
745370.829,4427206.338,-2.037 
745370.829,4427105.701,-2.037 
745370.829,4427005.064,-2.037 
745370.829,4426904.427,-2.039 
745370.829,4426803.790,-2.042 
745370.829,4426703.153,-2.047 
745370.829,4426602.516,-2.054 
745370.829,4426501.879,-2.059 
