369571.441,4265205.486,-2288.591
369571.441,4265005.486,-2250.963
369571.441,4264805.486,-2230.053
369571.441,4264605.486,-2203.025
369571.441,4264405.486,-2161.406
369571.441,4264205.486,-2111.945
369571.441,4264005.486,-2076.616
369571.441,4263805.486,-2030.744
369571.441,4263605.486,-1987.328
369571.441,4263405.486,-1967.192
369571.441,4263205.486,-1947.247
369571.441,4263005.486,-1931.277
369771.441,4300405.486,-2900.152
369771.441,4300205.486,-2903.479
369771.441,4300005.486,-2912.600
369771.441,4299805.486,-2919.085
369771.441,4299605.486,-2922.899
369771.441,4299405.486,-2916.517
369771.441,4299205.486,-2912.496
369771.441,4299005.486,-2906.306
369771.441,4298805.486,-2896.583
369771.441,4298605.486,-2889.911
369771.441,4298405.486,-2877.068
369771.441,4298205.486,-2854.518
369771.441,4298005.486,-2840.966
369771.441,4297805.486,-2817.773
369771.441,4297605.486,-2814.252
369771.441,4297405.486,-2828.206
369771.441,4297205.486,-2825.274
369771.441,4297005.486,-2830.935
369771.441,4296805.486,-2852.683
369771.441,4296605.486,-2855.315
369771.441,4296405.486,-2856.403
369771.441,4296205.486,-2847.338
369771.441,4296005.486,-2850.054
369771.441,4295805.486,-2831.439
369771.441,4295605.486,-2798.793
369771.441,4295405.486,-2781.328
369771.441,4295205.486,-2755.823
369771.441,4295005.486,-2710.950
369771.441,4294805.486,-2697.262
369771.441,4294605.486,-2682.367
369771.441,4294405.486,-2665.128
369771.441,4294205.486,-2655.183
369771.441,4294005.486,-2650.067
369771.441,4293805.486,-2652.576
369771.441,4293605.486,-2647.317
369771.441,4293405.486,-2635.458
369771.441,4293205.486,-2632.561
369771.441,4293005.486,-2626.560
369771.441,4292805.486,-2608.400
369771.441,4292605.486,-2593.589
369771.441,4292405.486,-2568.608
369771.441,4292205.486,-2532.044
369771.441,4292005.486,-2527.508
369771.441,4291805.486,-2515.099
369771.441,4291605.486,-2473.321
369771.441,4291405.486,-2460.885
369771.441,4291205.486,-2458.027
369771.441,4291005.486,-2446.472
369771.441,4290805.486,-2446.841
369771.441,4290605.486,-2439.925
369771.441,4290405.486,-2417.486
369771.441,4290205.486,-2396.796
369771.441,4290005.486,-2378.064
369771.441,4289805.486,-2349.321
369771.441,4289605.486,-2354.659
369771.441,4289405.486,-2356.079
369771.441,4289205.486,-2375.695
369771.441,4289005.486,-2381.408
369771.441,4288805.486,-2389.551
369771.441,4288605.486,-2393.865
369771.441,4288405.486,-2399.438
369771.441,4288205.486,-2399.101
369771.441,4288005.486,-2394.083
369771.441,4287805.486,-2375.770
369771.441,4287605.486,-2316.823
369771.441,4287405.486,-2256.810
369771.441,4287205.486,-2235.087
369771.441,4287005.486,-2235.688
369771.441,4286805.486,-2253.274
369771.441,4286605.486,-2275.148
369771.441,4286405.486,-2285.020
369771.441,4286205.486,-2295.718
369771.441,4286005.486,-2301.486
369771.441,4285805.486,-2301.376
369771.441,4285605.486,-2299.019
369771.441,4285405.486,-2300.921
369771.441,4285205.486,-2300.135
369771.441,4285005.486,-2299.502
369771.441,4284805.486,-2299.810
369771.441,4284605.486,-2294.684
369771.441,4284405.486,-2296.045
369771.441,4284205.486,-2297.443
369771.441,4284005.486,-2299.582
369771.441,4283805.486,-2303.318
369771.441,4283605.486,-2301.259
369771.441,4283405.486,-2299.391
369771.441,4283205.486,-2293.011
369771.441,4283005.486,-2291.851
369771.441,4282805.486,-2285.524
369771.441,4282605.486,-2281.239
369771.441,4282405.486,-2275.297
369771.441,4282205.486,-2268.012
369771.441,4282005.486,-2261.654
369771.441,4281805.486,-2250.774
369771.441,4281605.486,-2226.803
369771.441,4281405.486,-2222.626
369771.441,4281205.486,-2249.275
369771.441,4281005.486,-2247.457
369771.441,4280805.486,-2242.063
369771.441,4280605.486,-2211.555
369771.441,4280405.486,-2176.388
369771.441,4280205.486,-2148.819
369771.441,4280005.486,-2126.178
369771.441,4279805.486,-2102.510
369771.441,4279605.486,-2083.717
369771.441,4279405.486,-2036.682
369771.441,4279205.486,-2006.431
369771.441,4279005.486,-1953.424
369771.441,4278805.486,-1921.013
369771.441,4278605.486,-1914.887
369771.441,4278405.486,-1908.837
369771.441,4278205.486,-1909.405
369771.441,4278005.486,-1910.406
369771.441,4277805.486,-1957.765
369771.441,4277605.486,-1984.451
369771.441,4277405.486,-2043.520
369771.441,4277205.486,-2102.328
369771.441,4277005.486,-2130.155
369771.441,4276805.486,-2155.652
369771.441,4276605.486,-2183.596
369771.441,4276405.486,-2179.678
369771.441,4276205.486,-2193.579
369771.441,4276005.486,-2181.415
369771.441,4275805.486,-2172.443
369771.441,4275605.486,-2208.356
369771.441,4275405.486,-2258.421
369771.441,4275205.486,-2279.495
369771.441,4275005.486,-2290.094
369771.441,4274805.486,-2285.218
369771.441,4274605.486,-2284.709
369771.441,4274405.486,-2286.799
369771.441,4274205.486,-2285.989
369771.441,4274005.486,-2290.809
369771.441,4273805.486,-2290.681
369771.441,4273605.486,-2294.123
369771.441,4273405.486,-2295.729
369771.441,4273205.486,-2295.146
369771.441,4273005.486,-2297.921
369771.441,4272805.486,-2299.137
369771.441,4272605.486,-2304.472
369771.441,4272405.486,-2300.329
369771.441,4272205.486,-2299.789
369771.441,4272005.486,-2303.125
369771.441,4271805.486,-2303.436
369771.441,4271605.486,-2303.993
369771.441,4271405.486,-2305.123
369771.441,4271205.486,-2307.561
369771.441,4271005.486,-2309.641
369771.441,4270805.486,-2312.919
369771.441,4270605.486,-2318.186
369771.441,4270405.486,-2315.918
369771.441,4270205.486,-2318.196
369771.441,4270005.486,-2323.826
369771.441,4269805.486,-2325.362
369771.441,4269605.486,-2320.652
369771.441,4269405.486,-2321.540
369771.441,4269205.486,-2324.958
369771.441,4269005.486,-2324.910
369771.441,4268805.486,-2322.035
369771.441,4268605.486,-2325.873
369771.441,4268405.486,-2328.765
369771.441,4268205.486,-2326.872
369771.441,4268005.486,-2326.586
369771.441,4267805.486,-2331.552
369771.441,4267605.486,-2335.402
369771.441,4267405.486,-2335.591
369771.441,4267205.486,-2337.511
369771.441,4267005.486,-2343.118
369771.441,4266805.486,-2344.442
369771.441,4266605.486,-2346.561
369771.441,4266405.486,-2357.081
369771.441,4266205.486,-2361.055
369771.441,4266005.486,-2369.991
369771.441,4265805.486,-2370.212
369771.441,4265605.486,-2374.271
369771.441,4265405.486,-2353.406
369771.441,4265205.486,-2280.214
369771.441,4265005.486,-2226.956
369771.441,4264805.486,-2176.410
369771.441,4264605.486,-2148.167
369771.441,4264405.486,-2110.482
369771.441,4264205.486,-2074.706
369771.441,4264005.486,-2037.953
369771.441,4263805.486,-1998.967
369771.441,4263605.486,-1966.896
369771.441,4263405.486,-1937.118
369771.441,4263205.486,-1908.634
369771.441,4263005.486,-1918.585
369971.441,4300405.486,-2903.215
369971.441,4300205.486,-2905.615
369971.441,4300005.486,-2913.851
369971.441,4299805.486,-2916.002
369971.441,4299605.486,-2915.967
369971.441,4299405.486,-2914.537
369971.441,4299205.486,-2908.787
369971.441,4299005.486,-2905.078
369971.441,4298805.486,-2891.865
369971.441,4298605.486,-2872.671
369971.441,4298405.486,-2856.932
369971.441,4298205.486,-2849.539
369971.441,4298005.486,-2838.171
369971.441,4297805.486,-2816.755
369971.441,4297605.486,-2823.905
369971.441,4297405.486,-2839.009
369971.441,4297205.486,-2841.129
369971.441,4297005.486,-2833.336
369971.441,4296805.486,-2856.450
369971.441,4296605.486,-2858.595
369971.441,4296405.486,-2861.907
369971.441,4296205.486,-2855.275
369971.441,4296005.486,-2854.167
369971.441,4295805.486,-2841.488
369971.441,4295605.486,-2812.120
369971.441,4295405.486,-2786.283
369971.441,4295205.486,-2759.599
369971.441,4295005.486,-2713.583
369971.441,4294805.486,-2705.041
369971.441,4294605.486,-2687.080
369971.441,4294405.486,-2669.769
369971.441,4294205.486,-2662.612
369971.441,4294005.486,-2660.644
369971.441,4293805.486,-2664.131
369971.441,4293605.486,-2653.316
369971.441,4293405.486,-2647.634
369971.441,4293205.486,-2641.611
369971.441,4293005.486,-2630.833
369971.441,4292805.486,-2615.979
369971.441,4292605.486,-2597.304
369971.441,4292405.486,-2569.069
369971.441,4292205.486,-2551.050
369971.441,4292005.486,-2534.313
369971.441,4291805.486,-2525.317
369971.441,4291605.486,-2450.453
369971.441,4291405.486,-2468.525
369971.441,4291205.486,-2472.729
369971.441,4291005.486,-2471.245
369971.441,4290805.486,-2461.344
369971.441,4290605.486,-2444.442
369971.441,4290405.486,-2403.651
369971.441,4290205.486,-2367.024
369971.441,4290005.486,-2364.729
369971.441,4289805.486,-2339.360
369971.441,4289605.486,-2334.213
369971.441,4289405.486,-2336.801
369971.441,4289205.486,-2359.017
369971.441,4289005.486,-2373.875
369971.441,4288805.486,-2383.110
369971.441,4288605.486,-2392.838
369971.441,4288405.486,-2402.300
369971.441,4288205.486,-2403.744
369971.441,4288005.486,-2401.241
369971.441,4287805.486,-2394.694
369971.441,4287605.486,-2346.949
369971.441,4287405.486,-2296.419
369971.441,4287205.486,-2267.264
369971.441,4287005.486,-2227.180
369971.441,4286805.486,-2225.847
369971.441,4286605.486,-2239.548
369971.441,4286405.486,-2265.689
369971.441,4286205.486,-2288.198
369971.441,4286005.486,-2297.164
369971.441,4285805.486,-2299.749
369971.441,4285605.486,-2302.206
369971.441,4285405.486,-2303.036
369971.441,4285205.486,-2303.578
369971.441,4285005.486,-2301.835
369971.441,4284805.486,-2300.997
369971.441,4284605.486,-2299.490
369971.441,4284405.486,-2293.270
369971.441,4284205.486,-2297.769
369971.441,4284005.486,-2307.674
369971.441,4283805.486,-2304.328
369971.441,4283605.486,-2304.661
369971.441,4283405.486,-2302.965
369971.441,4283205.486,-2297.024
369971.441,4283005.486,-2290.753
369971.441,4282805.486,-2286.197
369971.441,4282605.486,-2278.738
369971.441,4282405.486,-2261.327
369971.441,4282205.486,-2251.350
369971.441,4282005.486,-2238.133
369971.441,4281805.486,-2220.400
369971.441,4281605.486,-2196.698
369971.441,4281405.486,-2202.621
369971.441,4281205.486,-2240.729
369971.441,4281005.486,-2242.927
369971.441,4280805.486,-2234.386
369971.441,4280605.486,-2207.826
369971.441,4280405.486,-2173.304
369971.441,4280205.486,-2114.170
369971.441,4280005.486,-2068.937
369971.441,4279805.486,-2066.685
369971.441,4279605.486,-2056.696
369971.441,4279405.486,-2030.557
369971.441,4279205.486,-1930.976
369971.441,4279005.486,-1925.950
369971.441,4278805.486,-1920.238
369971.441,4278605.486,-1914.207
369971.441,4278405.486,-1910.895
369971.441,4278205.486,-1923.670
369971.441,4278005.486,-1980.056
369971.441,4277805.486,-2002.387
369971.441,4277605.486,-1997.994
369971.441,4277405.486,-2038.961
369971.441,4277205.486,-2109.847
369971.441,4277005.486,-2156.825
369971.441,4276805.486,-2195.242
369971.441,4276605.486,-2189.975
369971.441,4276405.486,-2153.706
369971.441,4276205.486,-2158.814
369971.441,4276005.486,-2165.826
369971.441,4275805.486,-2195.545
369971.441,4275605.486,-2221.208
369971.441,4275405.486,-2250.132
369971.441,4275205.486,-2271.083
369971.441,4275005.486,-2283.461
369971.441,4274805.486,-2285.339
369971.441,4274605.486,-2283.296
369971.441,4274405.486,-2286.612
369971.441,4274205.486,-2287.217
369971.441,4274005.486,-2290.470
369971.441,4273805.486,-2292.020
369971.441,4273605.486,-2294.215
369971.441,4273405.486,-2295.213
369971.441,4273205.486,-2296.799
369971.441,4273005.486,-2297.774
369971.441,4272805.486,-2293.786
369971.441,4272605.486,-2297.105
369971.441,4272405.486,-2298.097
369971.441,4272205.486,-2301.257
369971.441,4272005.486,-2301.766
369971.441,4271805.486,-2302.824
369971.441,4271605.486,-2304.113
369971.441,4271405.486,-2305.497
369971.441,4271205.486,-2305.832
369971.441,4271005.486,-2308.159
369971.441,4270805.486,-2315.012
369971.441,4270605.486,-2314.879
369971.441,4270405.486,-2316.268
369971.441,4270205.486,-2318.685
369971.441,4270005.486,-2316.284
369971.441,4269805.486,-2320.529
369971.441,4269605.486,-2316.037
369971.441,4269405.486,-2322.396
369971.441,4269205.486,-2324.448
369971.441,4269005.486,-2322.288
369971.441,4268805.486,-2321.758
369971.441,4268605.486,-2326.127
369971.441,4268405.486,-2322.459
369971.441,4268205.486,-2327.447
369971.441,4268005.486,-2323.805
369971.441,4267805.486,-2330.025
369971.441,4267605.486,-2331.447
369971.441,4267405.486,-2324.647
369971.441,4267205.486,-2337.069
369971.441,4267005.486,-2344.460
369971.441,4266805.486,-2332.824
369971.441,4266605.486,-2338.235
369971.441,4266405.486,-2330.887
369971.441,4266205.486,-2351.275
369971.441,4266005.486,-2373.065
369971.441,4265805.486,-2361.990
369971.441,4265605.486,-2367.190
369971.441,4265405.486,-2362.216
369971.441,4265205.486,-2301.384
369971.441,4265005.486,-2252.834
369971.441,4264805.486,-2162.816
369971.441,4264605.486,-2101.154
369971.441,4264405.486,-2049.372
369971.441,4264205.486,-2038.836
369971.441,4264005.486,-2022.775
369971.441,4263805.486,-1980.525
369971.441,4263605.486,-1935.363
369971.441,4263405.486,-1900.761
369971.441,4263205.486,-1892.074
369971.441,4263005.486,-1875.480
370171.441,4300405.486,-2922.479
370171.441,4300205.486,-2919.438
370171.441,4300005.486,-2922.564
370171.441,4299805.486,-2922.719
370171.441,4299605.486,-2921.094
370171.441,4299405.486,-2918.354
370171.441,4299205.486,-2917.811
370171.441,4299005.486,-2912.240
370171.441,4298805.486,-2894.415
370171.441,4298605.486,-2872.802
370171.441,4298405.486,-2852.972
370171.441,4298205.486,-2845.983
370171.441,4298005.486,-2825.289
370171.441,4297805.486,-2817.285
370171.441,4297605.486,-2831.586
370171.441,4297405.486,-2846.720
370171.441,4297205.486,-2847.490
370171.441,4297005.486,-2843.316
370171.441,4296805.486,-2865.785
370171.441,4296605.486,-2861.893
370171.441,4296405.486,-2862.095
370171.441,4296205.486,-2862.454
370171.441,4296005.486,-2859.370
370171.441,4295805.486,-2849.154
370171.441,4295605.486,-2825.887
370171.441,4295405.486,-2784.693
370171.441,4295205.486,-2754.254
370171.441,4295005.486,-2719.353
370171.441,4294805.486,-2714.560
370171.441,4294605.486,-2698.731
370171.441,4294405.486,-2675.257
370171.441,4294205.486,-2662.921
370171.441,4294005.486,-2668.348
370171.441,4293805.486,-2666.147
370171.441,4293605.486,-2660.251
370171.441,4293405.486,-2653.550
370171.441,4293205.486,-2643.112
370171.441,4293005.486,-2628.125
370171.441,4292805.486,-2614.401
370171.441,4292605.486,-2602.397
370171.441,4292405.486,-2581.436
370171.441,4292205.486,-2557.137
370171.441,4292005.486,-2527.913
370171.441,4291805.486,-2510.359
370171.441,4291605.486,-2489.668
370171.441,4291405.486,-2476.052
370171.441,4291205.486,-2480.809
370171.441,4291005.486,-2483.587
370171.441,4290805.486,-2470.035
370171.441,4290605.486,-2449.351
370171.441,4290405.486,-2387.951
370171.441,4290205.486,-2332.115
370171.441,4290005.486,-2341.212
370171.441,4289805.486,-2326.509
370171.441,4289605.486,-2323.434
370171.441,4289405.486,-2327.064
370171.441,4289205.486,-2345.706
370171.441,4289005.486,-2364.981
370171.441,4288805.486,-2373.804
370171.441,4288605.486,-2382.148
370171.441,4288405.486,-2395.178
370171.441,4288205.486,-2401.510
370171.441,4288005.486,-2405.291
370171.441,4287805.486,-2408.870
370171.441,4287605.486,-2381.153
370171.441,4287405.486,-2333.833
370171.441,4287205.486,-2292.655
370171.441,4287005.486,-2238.219
370171.441,4286805.486,-2227.159
370171.441,4286605.486,-2226.007
370171.441,4286405.486,-2239.287
370171.441,4286205.486,-2273.075
370171.441,4286005.486,-2292.075
370171.441,4285805.486,-2298.287
370171.441,4285605.486,-2301.841
370171.441,4285405.486,-2303.659
370171.441,4285205.486,-2304.689
370171.441,4285005.486,-2302.200
370171.441,4284805.486,-2301.421
370171.441,4284605.486,-2301.385
370171.441,4284405.486,-2290.495
370171.441,4284205.486,-2299.280
370171.441,4284005.486,-2304.024
370171.441,4283805.486,-2304.701
370171.441,4283605.486,-2298.250
370171.441,4283405.486,-2302.287
370171.441,4283205.486,-2304.246
370171.441,4283005.486,-2289.920
370171.441,4282805.486,-2282.885
370171.441,4282605.486,-2276.048
370171.441,4282405.486,-2257.017
370171.441,4282205.486,-2224.946
370171.441,4282005.486,-2207.339
370171.441,4281805.486,-2192.643
370171.441,4281605.486,-2169.791
370171.441,4281405.486,-2183.339
370171.441,4281205.486,-2235.183
370171.441,4281005.486,-2239.217
370171.441,4280805.486,-2208.617
370171.441,4280605.486,-2182.039
370171.441,4280405.486,-2153.489
370171.441,4280205.486,-2111.393
370171.441,4280005.486,-2057.003
370171.441,4279805.486,-2022.374
370171.441,4279605.486,-2015.838
370171.441,4279405.486,-1977.025
370171.441,4279205.486,-1934.932
370171.441,4279005.486,-1920.290
370171.441,4278805.486,-1916.007
370171.441,4278605.486,-1903.378
370171.441,4278405.486,-1917.111
370171.441,4278005.486,-2014.663
370171.441,4277805.486,-2017.020
370171.441,4277605.486,-2018.246
370171.441,4277405.486,-2047.388
370171.441,4277205.486,-2133.533
370171.441,4277005.486,-2179.013
370171.441,4276805.486,-2191.747
370171.441,4276605.486,-2190.114
370171.441,4276405.486,-2150.384
370171.441,4276205.486,-2138.021
370171.441,4276005.486,-2143.829
370171.441,4275805.486,-2194.364
370171.441,4275605.486,-2247.385
370171.441,4275405.486,-2258.223
370171.441,4275205.486,-2263.772
370171.441,4275005.486,-2283.529
370171.441,4274805.486,-2280.559
370171.441,4274605.486,-2282.512
370171.441,4274405.486,-2283.412
370171.441,4274205.486,-2281.938
370171.441,4274005.486,-2283.514
370171.441,4273805.486,-2293.308
370171.441,4273605.486,-2295.093
370171.441,4273405.486,-2294.368
370171.441,4273205.486,-2294.398
370171.441,4273005.486,-2295.446
370171.441,4272805.486,-2296.337
370171.441,4272605.486,-2298.506
370171.441,4272405.486,-2299.348
370171.441,4272205.486,-2301.188
370171.441,4272005.486,-2303.009
370171.441,4271805.486,-2303.873
370171.441,4271605.486,-2303.815
370171.441,4271405.486,-2303.360
370171.441,4271205.486,-2305.571
370171.441,4271005.486,-2308.868
370171.441,4270805.486,-2307.694
370171.441,4270605.486,-2310.751
370171.441,4270405.486,-2311.745
370171.441,4270205.486,-2314.133
370171.441,4270005.486,-2309.698
370171.441,4269805.486,-2317.234
370171.441,4269605.486,-2317.022
370171.441,4269405.486,-2319.290
370171.441,4269205.486,-2320.118
370171.441,4269005.486,-2318.987
370171.441,4268805.486,-2320.319
370171.441,4268605.486,-2323.166
370171.441,4268405.486,-2320.127
370171.441,4268205.486,-2324.030
370171.441,4268005.486,-2322.852
370171.441,4267805.486,-2325.845
370171.441,4267605.486,-2327.997
370171.441,4267405.486,-2317.027
370171.441,4267205.486,-2322.214
370171.441,4267005.486,-2333.740
370171.441,4266805.486,-2313.968
370171.441,4266605.486,-2296.960
370171.441,4266405.486,-2300.116
370171.441,4266205.486,-2316.519
370171.441,4266005.486,-2345.075
370171.441,4265805.486,-2373.086
370171.441,4265605.486,-2366.223
370171.441,4265405.486,-2355.661
370171.441,4265205.486,-2303.029
370171.441,4265005.486,-2237.626
370171.441,4264805.486,-2190.642
370171.441,4264605.486,-2094.467
370171.441,4264405.486,-2036.260
370171.441,4264205.486,-2014.003
370171.441,4264005.486,-2001.934
370171.441,4263805.486,-1976.812
370171.441,4263605.486,-1929.823
370171.441,4263405.486,-1874.427
370171.441,4263205.486,-1855.229
370171.441,4263005.486,-1839.004
370371.441,4300405.486,-2922.114
370371.441,4300205.486,-2925.489
370371.441,4300005.486,-2926.147
370371.441,4299805.486,-2924.541
370371.441,4299605.486,-2920.977
370371.441,4299405.486,-2916.096
370371.441,4299205.486,-2914.292
370371.441,4299005.486,-2905.958
370371.441,4298805.486,-2894.489
370371.441,4298605.486,-2882.789
370371.441,4298405.486,-2855.247
370371.441,4298205.486,-2842.648
370371.441,4298005.486,-2826.687
370371.441,4297805.486,-2831.543
370371.441,4297605.486,-2841.199
370371.441,4297405.486,-2849.313
370371.441,4297205.486,-2854.836
370371.441,4297005.486,-2860.220
370371.441,4296805.486,-2866.734
370371.441,4296605.486,-2861.733
370371.441,4296405.486,-2866.949
370371.441,4296205.486,-2863.193
370371.441,4296005.486,-2857.950
370371.441,4295805.486,-2854.553
370371.441,4295605.486,-2831.337
370371.441,4295405.486,-2782.823
370371.441,4295205.486,-2746.184
370371.441,4295005.486,-2737.738
370371.441,4294805.486,-2720.137
370371.441,4294605.486,-2710.375
370371.441,4294405.486,-2690.887
370371.441,4294205.486,-2672.411
370371.441,4294005.486,-2676.163
370371.441,4293805.486,-2674.549
370371.441,4293605.486,-2667.414
370371.441,4293405.486,-2657.308
370371.441,4293205.486,-2645.457
370371.441,4293005.486,-2627.880
370371.441,4292805.486,-2617.496
370371.441,4292605.486,-2605.100
370371.441,4292405.486,-2586.263
370371.441,4292205.486,-2561.559
370371.441,4292005.486,-2530.412
370371.441,4291805.486,-2515.480
370371.441,4291605.486,-2495.843
370371.441,4291405.486,-2475.333
370371.441,4291205.486,-2489.637
370371.441,4291005.486,-2485.046
370371.441,4290805.486,-2479.198
370371.441,4290605.486,-2453.307
370371.441,4290405.486,-2393.903
370371.441,4290205.486,-2338.894
370371.441,4290005.486,-2342.888
370371.441,4289805.486,-2321.886
370371.441,4289605.486,-2312.546
370371.441,4289405.486,-2314.302
370371.441,4289205.486,-2331.525
370371.441,4289005.486,-2346.614
370371.441,4288805.486,-2357.667
370371.441,4288605.486,-2374.556
370371.441,4288405.486,-2388.640
370371.441,4288205.486,-2399.049
370371.441,4288005.486,-2406.301
370371.441,4287805.486,-2417.616
370371.441,4287605.486,-2405.499
370371.441,4287405.486,-2369.414
370371.441,4287205.486,-2318.474
370371.441,4287005.486,-2271.393
370371.441,4286805.486,-2225.855
370371.441,4286605.486,-2224.236
370371.441,4286405.486,-2222.085
370371.441,4286205.486,-2248.812
370371.441,4286005.486,-2283.142
370371.441,4285805.486,-2289.488
370371.441,4285605.486,-2298.946
370371.441,4285405.486,-2301.791
370371.441,4285205.486,-2301.894
370371.441,4285005.486,-2304.095
370371.441,4284805.486,-2303.961
370371.441,4284605.486,-2301.672
370371.441,4284405.486,-2299.653
370371.441,4284205.486,-2304.562
370371.441,4284005.486,-2297.339
370371.441,4283805.486,-2302.317
370371.441,4283605.486,-2303.196
370371.441,4283405.486,-2300.000
370371.441,4283205.486,-2298.466
370371.441,4283005.486,-2292.797
370371.441,4282805.486,-2284.816
370371.441,4282605.486,-2263.953
370371.441,4282405.486,-2229.396
370371.441,4282205.486,-2196.201
370371.441,4282005.486,-2184.040
370371.441,4281805.486,-2169.703
370371.441,4281605.486,-2143.445
370371.441,4281405.486,-2161.636
370371.441,4281205.486,-2205.433
370371.441,4281005.486,-2214.374
370371.441,4280805.486,-2189.397
370371.441,4280605.486,-2154.041
370371.441,4280405.486,-2120.715
370371.441,4280205.486,-2094.681
370371.441,4280005.486,-2026.417
370371.441,4279805.486,-1978.121
370371.441,4279605.486,-1970.166
370371.441,4279405.486,-1946.863
370371.441,4279205.486,-1933.557
370371.441,4279005.486,-1924.627
370371.441,4278805.486,-1918.011
370371.441,4278605.486,-1929.036
370371.441,4278405.486,-1972.870
370371.441,4278205.486,-2009.434
370371.441,4278005.486,-2051.044
370371.441,4277805.486,-2058.705
370371.441,4277605.486,-2040.435
370371.441,4277405.486,-2090.613
370371.441,4277205.486,-2158.385
370371.441,4277005.486,-2199.945
370371.441,4276805.486,-2200.580
370371.441,4276605.486,-2189.628
370371.441,4276405.486,-2161.694
370371.441,4276205.486,-2134.431
370371.441,4276005.486,-2148.784
370371.441,4275805.486,-2195.255
370371.441,4275605.486,-2246.049
370371.441,4275405.486,-2270.247
370371.441,4275205.486,-2278.665
370371.441,4275005.486,-2283.062
370371.441,4274805.486,-2278.905
370371.441,4274605.486,-2281.518
370371.441,4274405.486,-2281.650
370371.441,4274205.486,-2283.681
370371.441,4274005.486,-2290.609
370371.441,4273805.486,-2290.161
370371.441,4273605.486,-2294.580
370371.441,4273405.486,-2289.351
370371.441,4273205.486,-2291.308
370371.441,4273005.486,-2293.195
370371.441,4272805.486,-2294.858
370371.441,4272605.486,-2296.200
370371.441,4272405.486,-2298.698
370371.441,4272205.486,-2299.550
370371.441,4272005.486,-2302.150
370371.441,4271805.486,-2302.950
370371.441,4271605.486,-2303.956
370371.441,4271405.486,-2305.347
370371.441,4271205.486,-2307.055
370371.441,4271005.486,-2307.608
370371.441,4270805.486,-2309.165
370371.441,4270605.486,-2307.916
370371.441,4270405.486,-2311.737
370371.441,4270205.486,-2309.882
370371.441,4270005.486,-2310.273
370371.441,4269805.486,-2310.174
370371.441,4269605.486,-2313.073
370371.441,4269405.486,-2313.958
370371.441,4269205.486,-2318.514
370371.441,4269005.486,-2316.062
370371.441,4268805.486,-2317.186
370371.441,4268605.486,-2320.167
370371.441,4268405.486,-2316.944
370371.441,4268205.486,-2318.757
370371.441,4268005.486,-2309.739
370371.441,4267805.486,-2319.728
370371.441,4267605.486,-2329.374
370371.441,4267405.486,-2319.031
370371.441,4267205.486,-2310.261
370371.441,4267005.486,-2312.119
370371.441,4266805.486,-2297.136
370371.441,4266605.486,-2288.900
370371.441,4266405.486,-2282.459
370371.441,4266205.486,-2272.875
370371.441,4266005.486,-2315.091
370371.441,4265805.486,-2333.640
370371.441,4265605.486,-2358.482
370371.441,4265405.486,-2368.185
370371.441,4265205.486,-2279.195
370371.441,4265005.486,-2193.187
370371.441,4264805.486,-2129.883
370371.441,4264605.486,-2085.307
370371.441,4264405.486,-2030.122
370371.441,4264205.486,-1999.660
370371.441,4264005.486,-1970.517
370371.441,4263805.486,-1942.618
370371.441,4263605.486,-1890.452
370371.441,4263405.486,-1847.475
370371.441,4263205.486,-1789.443
370371.441,4263005.486,-1789.335
370571.441,4300405.486,-2928.029
370571.441,4300205.486,-2929.012
370571.441,4300005.486,-2927.641
370571.441,4299805.486,-2926.077
370571.441,4299605.486,-2923.743
370571.441,4299405.486,-2921.583
370571.441,4299205.486,-2918.229
370571.441,4299005.486,-2913.506
370571.441,4298805.486,-2903.146
370571.441,4298605.486,-2884.721
370571.441,4298405.486,-2858.523
370571.441,4298205.486,-2851.038
370571.441,4298005.486,-2847.257
370571.441,4297805.486,-2849.307
370571.441,4297605.486,-2852.302
370571.441,4297405.486,-2859.377
370571.441,4297205.486,-2868.728
370571.441,4297005.486,-2870.898
370571.441,4296805.486,-2872.757
370571.441,4296605.486,-2874.447
370571.441,4296405.486,-2869.963
370571.441,4296205.486,-2866.694
370571.441,4296005.486,-2865.879
370571.441,4295805.486,-2857.381
370571.441,4295605.486,-2834.936
370571.441,4295405.486,-2785.515
370571.441,4295205.486,-2772.649
370571.441,4295005.486,-2748.172
370571.441,4294805.486,-2731.783
370571.441,4294605.486,-2719.248
370571.441,4294405.486,-2697.956
370571.441,4294205.486,-2688.181
370571.441,4294005.486,-2687.597
370571.441,4293805.486,-2681.275
370571.441,4293605.486,-2672.444
370571.441,4293405.486,-2659.210
370571.441,4293205.486,-2643.619
370571.441,4293005.486,-2628.172
370571.441,4292805.486,-2618.889
370571.441,4292605.486,-2610.495
370571.441,4292405.486,-2596.870
370571.441,4292205.486,-2569.386
370571.441,4292005.486,-2547.599
370571.441,4291805.486,-2534.607
370571.441,4291605.486,-2498.061
370571.441,4291405.486,-2486.903
370571.441,4291205.486,-2494.473
370571.441,4291005.486,-2490.305
370571.441,4290805.486,-2485.687
370571.441,4290605.486,-2449.809
370571.441,4290405.486,-2389.843
370571.441,4290205.486,-2335.116
370571.441,4290005.486,-2351.918
370571.441,4289805.486,-2322.811
370571.441,4289605.486,-2320.497
370571.441,4289405.486,-2321.082
370571.441,4289205.486,-2321.245
370571.441,4289005.486,-2325.628
370571.441,4288805.486,-2352.605
370571.441,4288605.486,-2373.354
370571.441,4288405.486,-2391.180
370571.441,4288205.486,-2404.001
370571.441,4288005.486,-2407.781
370571.441,4287805.486,-2417.283
370571.441,4287605.486,-2411.465
370571.441,4287405.486,-2394.173
370571.441,4287205.486,-2351.199
370571.441,4287005.486,-2290.719
370571.441,4286805.486,-2239.912
370571.441,4286605.486,-2219.090
370571.441,4286405.486,-2223.017
370571.441,4286205.486,-2233.322
370571.441,4286005.486,-2264.554
370571.441,4285805.486,-2285.390
370571.441,4285605.486,-2296.541
370571.441,4285405.486,-2301.738
370571.441,4285205.486,-2303.350
370571.441,4285005.486,-2302.214
370571.441,4284805.486,-2303.103
370571.441,4284605.486,-2303.428
370571.441,4284405.486,-2304.756
370571.441,4284205.486,-2302.171
370571.441,4284005.486,-2300.168
370571.441,4283805.486,-2299.010
370571.441,4283605.486,-2299.276
370571.441,4283405.486,-2295.644
370571.441,4283205.486,-2295.981
370571.441,4283005.486,-2293.786
370571.441,4282805.486,-2284.781
370571.441,4282605.486,-2248.202
370571.441,4282405.486,-2211.359
370571.441,4282205.486,-2171.292
370571.441,4282005.486,-2153.594
370571.441,4281805.486,-2147.348
370571.441,4281605.486,-2133.643
370571.441,4281405.486,-2139.093
370571.441,4281205.486,-2166.377
370571.441,4281005.486,-2159.098
370571.441,4280805.486,-2142.259
370571.441,4280605.486,-2128.175
370571.441,4280405.486,-2095.655
370571.441,4280205.486,-2069.471
370571.441,4280005.486,-2018.495
370571.441,4279805.486,-1974.585
370571.441,4279605.486,-1957.293
370571.441,4279405.486,-1948.013
370571.441,4279205.486,-1926.369
370571.441,4279005.486,-1918.490
370571.441,4278805.486,-1952.550
370571.441,4278605.486,-1987.128
370571.441,4278405.486,-2027.315
370571.441,4278205.486,-2069.152
370571.441,4278005.486,-2089.726
370571.441,4277805.486,-2070.346
370571.441,4277605.486,-2073.695
370571.441,4277405.486,-2141.054
370571.441,4277205.486,-2180.926
370571.441,4277005.486,-2197.096
370571.441,4276805.486,-2199.396
370571.441,4276605.486,-2187.495
370571.441,4276405.486,-2172.906
370571.441,4276205.486,-2152.797
370571.441,4276005.486,-2174.157
370571.441,4275805.486,-2215.678
370571.441,4275605.486,-2254.058
370571.441,4275405.486,-2276.954
370571.441,4275205.486,-2278.682
370571.441,4275005.486,-2282.122
370571.441,4274805.486,-2276.957
370571.441,4274605.486,-2279.103
370571.441,4274405.486,-2279.141
370571.441,4274205.486,-2279.005
370571.441,4274005.486,-2292.357
370571.441,4273805.486,-2290.127
370571.441,4273605.486,-2293.987
370571.441,4273405.486,-2290.558
370571.441,4273205.486,-2290.333
370571.441,4273005.486,-2291.042
370571.441,4272805.486,-2292.193
370571.441,4272605.486,-2294.554
370571.441,4272405.486,-2298.111
370571.441,4272205.486,-2299.463
370571.441,4272005.486,-2299.397
370571.441,4271805.486,-2300.051
370571.441,4271605.486,-2301.683
370571.441,4271405.486,-2302.649
370571.441,4271205.486,-2305.157
370571.441,4271005.486,-2308.365
370571.441,4270805.486,-2308.974
370571.441,4270605.486,-2303.689
370571.441,4270405.486,-2307.540
370571.441,4270205.486,-2306.114
370571.441,4270005.486,-2308.665
370571.441,4269805.486,-2308.156
370571.441,4269605.486,-2304.715
370571.441,4269405.486,-2316.373
370571.441,4269205.486,-2315.439
370571.441,4269005.486,-2313.976
370571.441,4268805.486,-2315.215
370571.441,4268605.486,-2316.502
370571.441,4268405.486,-2314.148
370571.441,4268205.486,-2314.077
370571.441,4268005.486,-2313.257
370571.441,4267805.486,-2318.516
370571.441,4267605.486,-2323.332
370571.441,4267405.486,-2315.990
370571.441,4267205.486,-2313.982
370571.441,4267005.486,-2312.062
370571.441,4266805.486,-2282.619
370571.441,4266605.486,-2260.765
370571.441,4266405.486,-2249.928
370571.441,4266205.486,-2245.910
370571.441,4266005.486,-2246.284
370571.441,4265805.486,-2241.691
370571.441,4265605.486,-2293.736
370571.441,4265405.486,-2305.248
370571.441,4265205.486,-2282.671
370571.441,4265005.486,-2198.149
370571.441,4264805.486,-2094.771
370571.441,4264605.486,-2047.077
370571.441,4264405.486,-2004.180
370571.441,4264205.486,-1969.868
370571.441,4264005.486,-1935.055
370571.441,4263805.486,-1887.191
370571.441,4263605.486,-1823.111
370571.441,4263405.486,-1771.887
370571.441,4263205.486,-1725.654
370571.441,4263005.486,-1707.944
370771.441,4300405.486,-2923.714
370771.441,4300205.486,-2925.369
370771.441,4300005.486,-2928.015
370771.441,4299805.486,-2930.731
370771.441,4299605.486,-2929.280
370771.441,4299405.486,-2922.877
370771.441,4299205.486,-2917.786
370771.441,4299005.486,-2910.496
370771.441,4298805.486,-2894.186
370771.441,4298605.486,-2877.553
370771.441,4298405.486,-2859.976
370771.441,4298205.486,-2851.452
370771.441,4298005.486,-2850.838
370771.441,4297805.486,-2856.430
370771.441,4297605.486,-2856.397
370771.441,4297405.486,-2862.065
370771.441,4297205.486,-2872.766
370771.441,4297005.486,-2875.625
370771.441,4296805.486,-2877.975
370771.441,4296605.486,-2875.693
370771.441,4296405.486,-2873.922
370771.441,4296205.486,-2871.159
370771.441,4296005.486,-2869.112
370771.441,4295805.486,-2864.548
370771.441,4295605.486,-2841.590
370771.441,4295405.486,-2798.301
370771.441,4295205.486,-2776.719
370771.441,4295005.486,-2758.676
370771.441,4294805.486,-2743.307
370771.441,4294605.486,-2729.223
370771.441,4294405.486,-2707.427
370771.441,4294205.486,-2696.760
370771.441,4294005.486,-2692.458
370771.441,4293805.486,-2683.284
370771.441,4293605.486,-2669.370
370771.441,4293405.486,-2654.104
370771.441,4293205.486,-2647.265
370771.441,4293005.486,-2637.509
370771.441,4292805.486,-2625.347
370771.441,4292605.486,-2613.778
370771.441,4292405.486,-2600.335
370771.441,4292205.486,-2576.381
370771.441,4292005.486,-2558.129
370771.441,4291805.486,-2542.679
370771.441,4291605.486,-2519.927
370771.441,4291405.486,-2489.020
370771.441,4291205.486,-2497.070
370771.441,4291005.486,-2495.231
370771.441,4290805.486,-2490.057
370771.441,4290605.486,-2453.082
370771.441,4290405.486,-2412.395
370771.441,4290205.486,-2384.545
370771.441,4290005.486,-2353.098
370771.441,4289805.486,-2328.953
370771.441,4289605.486,-2324.391
370771.441,4289405.486,-2317.811
370771.441,4289205.486,-2308.959
370771.441,4289005.486,-2319.541
370771.441,4288805.486,-2346.398
370771.441,4288605.486,-2371.812
370771.441,4288405.486,-2390.646
370771.441,4288205.486,-2402.597
370771.441,4288005.486,-2407.863
370771.441,4287805.486,-2415.011
370771.441,4287605.486,-2417.766
370771.441,4287405.486,-2406.374
370771.441,4287205.486,-2382.929
370771.441,4287005.486,-2343.265
370771.441,4286805.486,-2284.147
370771.441,4286605.486,-2238.010
370771.441,4286405.486,-2221.379
370771.441,4286205.486,-2226.757
370771.441,4286005.486,-2229.928
370771.441,4285805.486,-2256.436
370771.441,4285605.486,-2284.806
370771.441,4285405.486,-2300.378
370771.441,4285205.486,-2304.171
370771.441,4285005.486,-2304.961
370771.441,4284805.486,-2304.744
370771.441,4284605.486,-2303.839
370771.441,4284405.486,-2301.543
370771.441,4284205.486,-2298.761
370771.441,4284005.486,-2299.803
370771.441,4283805.486,-2298.097
370771.441,4283605.486,-2297.321
370771.441,4283405.486,-2293.603
370771.441,4283205.486,-2290.548
370771.441,4283005.486,-2285.784
370771.441,4282805.486,-2284.832
370771.441,4282605.486,-2246.289
370771.441,4282405.486,-2203.179
370771.441,4282205.486,-2172.267
370771.441,4282005.486,-2140.958
370771.441,4281805.486,-2118.668
370771.441,4281605.486,-2116.350
370771.441,4281405.486,-2127.850
370771.441,4281205.486,-2138.517
370771.441,4281005.486,-2136.535
370771.441,4280805.486,-2114.644
370771.441,4280605.486,-2108.115
370771.441,4280405.486,-2069.725
370771.441,4280205.486,-2038.356
370771.441,4280005.486,-1979.958
370771.441,4279805.486,-1952.440
370771.441,4279605.486,-1941.173
370771.441,4279405.486,-1932.901
370771.441,4279205.486,-1927.929
370771.441,4279005.486,-1958.291
370771.441,4278805.486,-1993.475
370771.441,4278605.486,-2045.926
370771.441,4278405.486,-2098.647
370771.441,4278205.486,-2115.572
370771.441,4278005.486,-2119.289
370771.441,4277805.486,-2097.580
370771.441,4277605.486,-2119.489
370771.441,4277405.486,-2165.925
370771.441,4277205.486,-2182.199
370771.441,4277005.486,-2189.598
370771.441,4276805.486,-2177.572
370771.441,4276605.486,-2170.080
370771.441,4276405.486,-2179.428
370771.441,4276205.486,-2189.477
370771.441,4276005.486,-2200.316
370771.441,4275805.486,-2228.031
370771.441,4275605.486,-2252.561
370771.441,4275405.486,-2275.713
370771.441,4275205.486,-2274.212
370771.441,4275005.486,-2277.489
370771.441,4274805.486,-2278.868
370771.441,4274605.486,-2278.149
370771.441,4274405.486,-2278.793
370771.441,4274205.486,-2283.230
370771.441,4274005.486,-2287.103
370771.441,4273805.486,-2290.597
370771.441,4273605.486,-2290.385
370771.441,4273405.486,-2291.554
370771.441,4273205.486,-2292.312
370771.441,4273005.486,-2292.012
370771.441,4272805.486,-2294.097
370771.441,4272605.486,-2294.973
370771.441,4272405.486,-2298.331
370771.441,4272205.486,-2297.047
370771.441,4272005.486,-2300.747
370771.441,4271805.486,-2298.296
370771.441,4271605.486,-2299.591
370771.441,4271405.486,-2301.707
370771.441,4271205.486,-2305.233
370771.441,4271005.486,-2302.524
370771.441,4270805.486,-2307.148
370771.441,4270605.486,-2301.346
370771.441,4270405.486,-2306.526
370771.441,4270205.486,-2307.804
370771.441,4270005.486,-2306.107
370771.441,4269805.486,-2304.911
370771.441,4269605.486,-2303.994
370771.441,4269405.486,-2313.730
370771.441,4269205.486,-2310.176
370771.441,4269005.486,-2312.639
370771.441,4268805.486,-2311.346
370771.441,4268605.486,-2312.294
370771.441,4268405.486,-2305.413
370771.441,4268205.486,-2314.148
370771.441,4268005.486,-2312.464
370771.441,4267805.486,-2313.816
370771.441,4267605.486,-2316.658
370771.441,4267405.486,-2311.357
370771.441,4267205.486,-2302.828
370771.441,4267005.486,-2319.989
370771.441,4266805.486,-2295.119
370771.441,4266605.486,-2263.978
370771.441,4266405.486,-2232.222
370771.441,4266205.486,-2205.278
370771.441,4266005.486,-2178.275
370771.441,4265805.486,-2175.447
370771.441,4265605.486,-2197.859
370771.441,4265405.486,-2226.485
370771.441,4265205.486,-2216.133
370771.441,4265005.486,-2152.974
370771.441,4264805.486,-2074.400
370771.441,4264605.486,-2017.790
370771.441,4264405.486,-1971.869
370771.441,4264205.486,-1930.560
370771.441,4264005.486,-1894.313
370771.441,4263805.486,-1831.180
370771.441,4263605.486,-1770.019
370771.441,4263405.486,-1721.260
370771.441,4263205.486,-1669.089
370771.441,4263005.486,-1659.228
370971.441,4300405.486,-2933.690
370971.441,4300205.486,-2934.972
370971.441,4300005.486,-2932.995
370971.441,4299805.486,-2927.790
370971.441,4299605.486,-2925.498
370971.441,4299405.486,-2922.001
370971.441,4299205.486,-2919.042
370971.441,4299005.486,-2914.564
370971.441,4298805.486,-2892.804
370971.441,4298605.486,-2872.959
370971.441,4298405.486,-2866.213
370971.441,4298205.486,-2862.953
370971.441,4298005.486,-2864.938
370971.441,4297805.486,-2862.970
370971.441,4297605.486,-2863.912
370971.441,4297405.486,-2873.593
370971.441,4297205.486,-2878.693
370971.441,4297005.486,-2882.322
370971.441,4296805.486,-2882.551
370971.441,4296605.486,-2874.461
370971.441,4296405.486,-2886.089
370971.441,4296205.486,-2876.380
370971.441,4296005.486,-2868.737
370971.441,4295805.486,-2864.182
370971.441,4295605.486,-2851.793
370971.441,4295405.486,-2812.361
370971.441,4295205.486,-2791.193
370971.441,4295005.486,-2782.553
370971.441,4294805.486,-2759.387
370971.441,4294605.486,-2738.518
370971.441,4294405.486,-2717.024
370971.441,4294205.486,-2707.195
370971.441,4294005.486,-2700.672
370971.441,4293805.486,-2689.206
370971.441,4293605.486,-2675.921
370971.441,4293405.486,-2661.233
370971.441,4293205.486,-2650.415
370971.441,4293005.486,-2639.853
370971.441,4292805.486,-2632.069
370971.441,4292605.486,-2620.295
370971.441,4292405.486,-2605.969
370971.441,4292205.486,-2585.107
370971.441,4292005.486,-2565.443
370971.441,4291805.486,-2562.786
370971.441,4291605.486,-2502.940
370971.441,4291405.486,-2512.763
370971.441,4291205.486,-2510.332
370971.441,4291005.486,-2512.100
370971.441,4290805.486,-2504.015
370971.441,4290605.486,-2464.565
370971.441,4290405.486,-2413.627
370971.441,4290205.486,-2374.124
370971.441,4290005.486,-2368.527
370971.441,4289805.486,-2350.156
370971.441,4289605.486,-2327.718
370971.441,4289405.486,-2305.342
370971.441,4289205.486,-2313.985
370971.441,4289005.486,-2329.416
370971.441,4288805.486,-2343.819
370971.441,4288605.486,-2370.975
370971.441,4288405.486,-2390.994
370971.441,4288205.486,-2401.495
370971.441,4288005.486,-2406.289
370971.441,4287805.486,-2413.770
370971.441,4287605.486,-2416.507
370971.441,4287405.486,-2408.912
370971.441,4287205.486,-2397.442
370971.441,4287005.486,-2380.845
370971.441,4286805.486,-2332.300
370971.441,4286605.486,-2288.225
370971.441,4286405.486,-2262.627
370971.441,4286205.486,-2236.746
370971.441,4286005.486,-2225.679
370971.441,4285805.486,-2229.098
370971.441,4285605.486,-2265.419
370971.441,4285405.486,-2292.284
370971.441,4285205.486,-2302.156
370971.441,4285005.486,-2303.737
370971.441,4284805.486,-2302.740
370971.441,4284605.486,-2303.944
370971.441,4284405.486,-2299.802
370971.441,4284205.486,-2298.912
370971.441,4284005.486,-2296.383
370971.441,4283805.486,-2295.087
370971.441,4283605.486,-2291.270
370971.441,4283405.486,-2285.440
370971.441,4283205.486,-2288.461
370971.441,4283005.486,-2283.852
370971.441,4282805.486,-2292.343
370971.441,4282605.486,-2261.670
370971.441,4282405.486,-2221.852
370971.441,4282205.486,-2188.106
370971.441,4282005.486,-2147.750
370971.441,4281805.486,-2110.922
370971.441,4281605.486,-2080.579
370971.441,4281405.486,-2080.281
370971.441,4281205.486,-2113.190
370971.441,4281005.486,-2111.552
370971.441,4280805.486,-2100.758
370971.441,4280605.486,-2092.510
370971.441,4280405.486,-2063.547
370971.441,4280205.486,-2021.173
370971.441,4280005.486,-1977.453
370971.441,4279805.486,-1944.186
370971.441,4279605.486,-1919.986
370971.441,4279405.486,-1940.019
370971.441,4279205.486,-1976.235
370971.441,4279005.486,-2003.199
370971.441,4278805.486,-2052.470
370971.441,4278605.486,-2091.295
370971.441,4278405.486,-2130.282
370971.441,4278205.486,-2145.628
370971.441,4278005.486,-2164.010
370971.441,4277805.486,-2142.918
370971.441,4277605.486,-2169.132
370971.441,4277405.486,-2178.847
370971.441,4277205.486,-2172.437
370971.441,4277005.486,-2152.454
370971.441,4276805.486,-2156.730
370971.441,4276605.486,-2165.728
370971.441,4276405.486,-2181.468
370971.441,4276205.486,-2207.859
370971.441,4276005.486,-2213.363
370971.441,4275805.486,-2227.722
370971.441,4275605.486,-2250.634
370971.441,4275405.486,-2264.548
370971.441,4275205.486,-2268.435
370971.441,4275005.486,-2269.140
370971.441,4274805.486,-2275.844
370971.441,4274605.486,-2275.788
370971.441,4274405.486,-2276.644
370971.441,4274205.486,-2281.612
370971.441,4274005.486,-2283.717
370971.441,4273805.486,-2291.060
370971.441,4273605.486,-2291.812
370971.441,4273405.486,-2291.986
370971.441,4273205.486,-2290.788
370971.441,4273005.486,-2292.372
370971.441,4272805.486,-2293.748
370971.441,4272605.486,-2294.940
370971.441,4272405.486,-2296.817
370971.441,4272205.486,-2298.963
370971.441,4272005.486,-2298.492
370971.441,4271805.486,-2295.753
370971.441,4271605.486,-2300.223
370971.441,4271405.486,-2301.289
370971.441,4271205.486,-2300.761
370971.441,4271005.486,-2300.146
370971.441,4270805.486,-2300.344
370971.441,4270605.486,-2298.130
370971.441,4270405.486,-2299.009
370971.441,4270205.486,-2305.121
370971.441,4270005.486,-2307.042
370971.441,4269805.486,-2308.920
370971.441,4269605.486,-2303.207
370971.441,4269405.486,-2307.224
370971.441,4269205.486,-2308.597
370971.441,4269005.486,-2309.755
370971.441,4268805.486,-2311.686
370971.441,4268605.486,-2311.973
370971.441,4268405.486,-2301.821
370971.441,4268205.486,-2313.257
370971.441,4268005.486,-2308.790
370971.441,4267805.486,-2311.277
370971.441,4267605.486,-2316.243
370971.441,4267405.486,-2310.503
370971.441,4267205.486,-2312.091
370971.441,4267005.486,-2314.638
370971.441,4266805.486,-2298.810
370971.441,4266605.486,-2273.982
370971.441,4266405.486,-2244.504
370971.441,4266205.486,-2185.577
370971.441,4266005.486,-2129.966
370971.441,4265805.486,-2085.157
370971.441,4265605.486,-2099.316
370971.441,4265405.486,-2125.455
370971.441,4265205.486,-2137.016
370971.441,4265005.486,-2101.658
370971.441,4264805.486,-2062.850
370971.441,4264605.486,-1995.934
370971.441,4264405.486,-1953.974
370971.441,4264205.486,-1873.714
370971.441,4264005.486,-1854.510
370971.441,4263805.486,-1796.526
370971.441,4263605.486,-1736.976
370971.441,4263405.486,-1684.434
370971.441,4263205.486,-1644.712
370971.441,4263005.486,-1613.849
371171.441,4300405.486,-2943.748
371171.441,4300205.486,-2939.927
371171.441,4300005.486,-2935.576
371171.441,4299805.486,-2932.288
371171.441,4299605.486,-2928.104
371171.441,4299405.486,-2919.166
371171.441,4299205.486,-2914.844
371171.441,4299005.486,-2905.331
371171.441,4298805.486,-2897.994
371171.441,4298605.486,-2887.212
371171.441,4298405.486,-2879.932
371171.441,4298205.486,-2879.394
371171.441,4298005.486,-2881.768
371171.441,4297805.486,-2881.887
371171.441,4297605.486,-2881.576
371171.441,4297405.486,-2886.085
371171.441,4297205.486,-2885.852
371171.441,4297005.486,-2882.854
371171.441,4296805.486,-2880.063
371171.441,4296605.486,-2879.324
371171.441,4296405.486,-2881.507
371171.441,4296205.486,-2875.150
371171.441,4296005.486,-2870.573
371171.441,4295805.486,-2866.429
371171.441,4295605.486,-2862.378
371171.441,4295405.486,-2837.111
371171.441,4295205.486,-2812.285
371171.441,4295005.486,-2795.799
371171.441,4294805.486,-2776.287
371171.441,4294605.486,-2762.327
371171.441,4294405.486,-2733.210
371171.441,4294205.486,-2719.529
371171.441,4294005.486,-2707.965
371171.441,4293805.486,-2703.582
371171.441,4293605.486,-2684.007
371171.441,4293405.486,-2668.158
371171.441,4293205.486,-2651.572
371171.441,4293005.486,-2649.345
371171.441,4292805.486,-2645.728
371171.441,4292605.486,-2623.325
371171.441,4292405.486,-2611.514
371171.441,4292205.486,-2592.471
371171.441,4292005.486,-2577.704
371171.441,4291805.486,-2560.260
371171.441,4291605.486,-2543.196
371171.441,4291405.486,-2535.207
371171.441,4291205.486,-2524.928
371171.441,4291005.486,-2520.594
371171.441,4290805.486,-2509.272
371171.441,4290605.486,-2478.030
371171.441,4290405.486,-2420.735
371171.441,4290205.486,-2372.918
371171.441,4290005.486,-2374.743
371171.441,4289805.486,-2354.392
371171.441,4289605.486,-2327.335
371171.441,4289405.486,-2308.085
371171.441,4289205.486,-2329.613
371171.441,4289005.486,-2352.021
371171.441,4288805.486,-2365.700
371171.441,4288605.486,-2382.148
371171.441,4288405.486,-2393.463
371171.441,4288205.486,-2398.986
371171.441,4288005.486,-2403.045
371171.441,4287805.486,-2413.465
371171.441,4287605.486,-2411.966
371171.441,4287405.486,-2410.303
371171.441,4287205.486,-2402.913
371171.441,4287005.486,-2389.691
371171.441,4286805.486,-2361.865
371171.441,4286605.486,-2335.876
371171.441,4286405.486,-2314.284
371171.441,4286205.486,-2278.346
371171.441,4286005.486,-2228.102
371171.441,4285805.486,-2231.588
371171.441,4285605.486,-2254.737
371171.441,4285405.486,-2287.858
371171.441,4285205.486,-2300.636
371171.441,4285005.486,-2304.182
371171.441,4284805.486,-2304.393
371171.441,4284605.486,-2302.546
371171.441,4284405.486,-2292.987
371171.441,4284205.486,-2296.181
371171.441,4284005.486,-2294.418
371171.441,4283805.486,-2290.563
