685187.700,4306072.766,-98.57 
685187.700,4306022.769,-98.92 
685187.700,4305972.773,-101.32 
685187.700,4305922.777,-102.45 
685187.700,4305872.781,-104.39 
685187.700,4305822.785,-106.45 
685187.700,4305772.789,-109.39 
685187.700,4305722.793,-112.35 
685187.700,4305672.797,-115.36 
685187.700,4305622.801,-117.9 
685187.700,4305572.805,-120.22 
685187.700,4305522.808,-122.48 
685187.700,4305472.812,-125.11 
685187.700,4305422.816,-128 
685187.700,4305372.820,-131.17 
685187.700,4305322.824,-134.91 
685187.700,4305272.828,-138.76 
685187.700,4305222.832,-142.89 
685187.700,4305172.836,-147.16 
685187.700,4305122.840,-151.57 
685187.700,4305072.844,-156.09 
685187.700,4305022.847,-160.97 
685187.700,4304972.851,-166.11 
685187.700,4304922.855,-171.69 
685187.700,4304872.859,-177.18 
685237.700,4306122.762,-98.33 
685237.700,4306072.766,-98.45 
685237.700,4306022.769,-100.79 
685237.700,4305972.773,-102.93 
685237.700,4305922.777,-104.64 
685237.700,4305872.781,-106.51 
685237.700,4305822.785,-109.6 
685237.700,4305772.789,-112.63 
685237.700,4305722.793,-115.47 
685237.700,4305672.797,-117.99 
685237.700,4305622.801,-120.07 
685237.700,4305572.805,-122.23 
685237.700,4305522.808,-124.66 
685237.700,4305472.812,-127.45 
685237.700,4305422.816,-130.44 
685237.700,4305372.820,-133.88 
685237.700,4305322.824,-137.53 
685237.700,4305272.828,-141.47 
685237.700,4305222.832,-145.46 
685237.700,4305172.836,-149.82 
685237.700,4305122.840,-154.14 
685237.700,4305072.844,-158.88 
685237.700,4305022.847,-163.75 
685237.700,4304972.851,-169.05 
685237.700,4304922.855,-174.73 
685287.700,4306172.758,-97.81 
685287.700,4306122.762,-97.83 
685287.700,4306072.766,-100.41 
685287.700,4306022.769,-103.33 
685287.700,4305972.773,-104.66 
685287.700,4305922.777,-107.06 
685287.700,4305872.781,-109.54 
685287.700,4305822.785,-112.65 
685287.700,4305772.789,-115.61 
685287.700,4305722.793,-117.97 
685287.700,4305672.797,-120.01 
685287.700,4305622.801,-122.08 
685287.700,4305572.805,-124.39 
685287.700,4305522.808,-127 
685287.700,4305472.812,-129.88 
685287.700,4305422.816,-133.05 
685287.700,4305372.820,-136.31 
685287.700,4305322.824,-140.07 
685287.700,4305272.828,-144.05 
685287.700,4305222.832,-148.09 
685287.700,4305172.836,-152.39 
685287.700,4305122.840,-156.88 
685287.700,4305072.844,-161.62 
685287.700,4305022.847,-166.63 
685287.700,4304972.851,-172.13 
685287.700,4304922.855,-177.47 
685337.700,4306222.754,-97.24 
685337.700,4306172.758,-98.56 
685337.700,4306122.762,-101.09 
685337.700,4306072.766,-102.79 
685337.700,4306022.769,-104.77 
685337.700,4305972.773,-107.25 
685337.700,4305922.777,-109.81 
685337.700,4305872.781,-112.64 
685337.700,4305822.785,-115.54 
685337.700,4305772.789,-117.97 
685337.700,4305722.793,-120 
685337.700,4305672.797,-122.08 
685337.700,4305622.801,-124.34 
685337.700,4305572.805,-126.76 
685337.700,4305522.808,-129.5 
685337.700,4305472.812,-132.42 
685337.700,4305422.816,-135.6 
685337.700,4305372.820,-138.95 
685337.700,4305322.824,-142.67 
685337.700,4305272.828,-146.57 
685337.700,4305222.832,-150.66 
685337.700,4305172.836,-155.02 
685337.700,4305122.840,-159.62 
685337.700,4305072.844,-164.51 
685337.700,4305022.847,-169.71 
685337.700,4304972.851,-175.01 
685387.700,4306272.750,-96.82 
685387.700,4306222.754,-97.87 
685387.700,4306172.758,-100.81 
685387.700,4306122.762,-103.06 
685387.700,4306072.766,-104.86 
685387.700,4306022.769,-107.43 
685387.700,4305972.773,-109.98 
685387.700,4305922.777,-112.8 
685387.700,4305872.781,-115.55 
685387.700,4305822.785,-117.8 
685387.700,4305772.789,-120.06 
685387.700,4305722.793,-122.18 
685387.700,4305672.797,-124.36 
685387.700,4305622.801,-126.69 
685387.700,4305572.805,-129.29 
685387.700,4305522.808,-132 
685387.700,4305472.812,-134.93 
685387.700,4305422.816,-138.12 
685387.700,4305372.820,-141.6 
685387.700,4305322.824,-145.18 
685387.700,4305272.828,-149.12 
685387.700,4305222.832,-153.28 
685387.700,4305172.836,-157.68 
685387.700,4305122.840,-162.38 
685387.700,4305072.844,-167.34 
685387.700,4305022.847,-172.67 
685387.700,4304972.851,-177.21 
685437.700,4306322.746,-97.09 
685437.700,4306272.750,-98.16 
685437.700,4306222.754,-100.7 
685437.700,4306172.758,-102.59 
685437.700,4306122.762,-104.93 
685437.700,4306072.766,-107.52 
685437.700,4306022.769,-110.31 
685437.700,4305972.773,-112.99 
685437.700,4305922.777,-115.58 
685437.700,4305872.781,-117.85 
685437.700,4305822.785,-119.97 
685437.700,4305772.789,-122.14 
685437.700,4305722.793,-124.35 
685437.700,4305672.797,-126.69 
685437.700,4305622.801,-129.17 
685437.700,4305572.805,-131.79 
685437.700,4305522.808,-134.42 
685437.700,4305472.812,-137.37 
685437.700,4305422.816,-140.56 
685437.700,4305372.820,-144.13 
685437.700,4305322.824,-147.73 
685437.700,4305272.828,-151.66 
685437.700,4305222.832,-155.88 
685437.700,4305172.836,-160.45 
685437.700,4305122.840,-165.23 
685437.700,4305072.844,-170.3 
685437.700,4305022.847,-175.41 
685487.700,4306372.742,-96.14 
685487.700,4306322.746,-97.29 
685487.700,4306272.750,-100.43 
685487.700,4306222.754,-102.26 
685487.700,4306172.758,-104.89 
685487.700,4306122.762,-107.44 
685487.700,4306072.766,-110.5 
685487.700,4306022.769,-113.12 
685487.700,4305972.773,-115.6 
685487.700,4305922.777,-117.76 
685487.700,4305872.781,-119.94 
685487.700,4305822.785,-122.05 
685487.700,4305772.789,-124.28 
685487.700,4305722.793,-126.62 
685487.700,4305672.797,-129.16 
685487.700,4305622.801,-131.59 
685487.700,4305572.805,-134.13 
685487.700,4305522.808,-136.96 
685487.700,4305472.812,-139.8 
685487.700,4305422.816,-143.1 
685487.700,4305372.820,-146.55 
685487.700,4305322.824,-150.34 
685487.700,4305272.828,-154.29 
685487.700,4305222.832,-158.56 
685487.700,4305172.836,-163.27 
685487.700,4305122.840,-168.15 
685487.700,4305072.844,-173.33 
685487.700,4305022.847,-177.8 
685537.700,4306422.738,-96.22 
685537.700,4306372.742,-98.14 
685537.700,4306322.746,-100.63 
685537.700,4306272.750,-102.65 
685537.700,4306222.754,-105.01 
685537.700,4306172.758,-107.66 
685537.700,4306122.762,-110.59 
685537.700,4306072.766,-113.29 
685537.700,4306022.769,-115.62 
685537.700,4305972.773,-117.68 
685537.700,4305922.777,-119.82 
685537.700,4305872.781,-121.99 
685537.700,4305822.785,-124.24 
685537.700,4305772.789,-126.61 
685537.700,4305722.793,-129.02 
685537.700,4305672.797,-131.5 
685537.700,4305622.801,-133.95 
685537.700,4305572.805,-136.53 
685537.700,4305522.808,-139.27 
685537.700,4305472.812,-142.29 
685537.700,4305422.816,-145.58 
685537.700,4305372.820,-149.11 
685537.700,4305322.824,-152.91 
685537.700,4305272.828,-156.91 
685537.700,4305222.832,-161.39 
685537.700,4305172.836,-166.15 
685537.700,4305122.840,-171.09 
685537.700,4305072.844,-176.14 
685587.700,4306472.734,-97.01 
685587.700,4306422.738,-98.68 
685587.700,4306372.742,-100.96 
685587.700,4306322.746,-102.56 
685587.700,4306272.750,-104.97 
685587.700,4306222.754,-107.9 
685587.700,4306172.758,-110.9 
685587.700,4306122.762,-113.42 
685587.700,4306072.766,-115.51 
685587.700,4306022.769,-117.66 
685587.700,4305972.773,-119.73 
685587.700,4305922.777,-121.92 
685587.700,4305872.781,-124.15 
685587.700,4305822.785,-126.54 
685587.700,4305772.789,-129.08 
685587.700,4305722.793,-131.47 
685587.700,4305672.797,-133.91 
685587.700,4305622.801,-136.35 
685587.700,4305572.805,-138.97 
685587.700,4305522.808,-141.73 
685587.700,4305472.812,-144.71 
685587.700,4305422.816,-148.12 
685587.700,4305372.820,-151.63 
685587.700,4305322.824,-155.51 
685587.700,4305272.828,-159.74 
685587.700,4305222.832,-164.27 
685587.700,4305172.836,-169.03 
685587.700,4305122.840,-174.21 
685587.700,4305072.844,-178.37 
685637.700,4306522.731,-96.61 
685637.700,4306472.734,-99.04 
685637.700,4306422.738,-100.89 
685637.700,4306372.742,-103.21 
685637.700,4306322.746,-105.19 
685637.700,4306272.750,-108.07 
685637.700,4306222.754,-110.89 
685637.700,4306172.758,-113.65 
685637.700,4306122.762,-115.77 
685637.700,4306072.766,-117.61 
685637.700,4306022.769,-119.74 
685637.700,4305972.773,-121.87 
685637.700,4305922.777,-124.18 
685637.700,4305872.781,-126.44 
685637.700,4305822.785,-128.96 
685637.700,4305772.789,-131.38 
685637.700,4305722.793,-133.83 
685637.700,4305672.797,-136.26 
685637.700,4305622.801,-138.8 
685637.700,4305572.805,-141.36 
685637.700,4305522.808,-144.02 
685637.700,4305472.812,-147.22 
685637.700,4305422.816,-150.47 
685637.700,4305372.820,-154.16 
685637.700,4305322.824,-158.19 
685637.700,4305272.828,-162.46 
685637.700,4305222.832,-167.05 
685637.700,4305172.836,-172.18 
685637.700,4305122.840,-177.08 
685687.700,4306622.723,-97.49 
685687.700,4306572.727,-96.85 
685687.700,4306522.731,-98.5 
685687.700,4306472.734,-101.29 
685687.700,4306422.738,-103.32 
685687.700,4306372.742,-105.77 
685687.700,4306322.746,-108.47 
685687.700,4306272.750,-111.31 
685687.700,4306222.754,-113.63 
685687.700,4306172.758,-115.83 
685687.700,4306122.762,-117.76 
685687.700,4306072.766,-119.73 
685687.700,4306022.769,-121.89 
685687.700,4305972.773,-124.18 
685687.700,4305922.777,-126.57 
685687.700,4305872.781,-128.94 
685687.700,4305822.785,-131.25 
685687.700,4305772.789,-133.77 
685687.700,4305722.793,-136.18 
685687.700,4305672.797,-138.51 
685687.700,4305622.801,-141.01 
685687.700,4305572.805,-143.51 
685687.700,4305522.808,-146.58 
685687.700,4305472.812,-149.67 
685687.700,4305422.816,-153.04 
685687.700,4305372.820,-156.9 
685687.700,4305322.824,-160.89 
685687.700,4305272.828,-165.28 
685687.700,4305222.832,-170.19 
685687.700,4305172.836,-175.18 
685687.700,4305122.840,-179.35 
685737.700,4306622.723,-97.36 
685737.700,4306572.727,-98.72 
685737.700,4306522.731,-100.99 
685737.700,4306472.734,-103.72 
685737.700,4306422.738,-105.93 
685737.700,4306372.742,-108.9 
685737.700,4306322.746,-111.62 
685737.700,4306272.750,-114.14 
685737.700,4306222.754,-116.07 
685737.700,4306172.758,-117.81 
685737.700,4306122.762,-119.83 
685737.700,4306072.766,-121.96 
685737.700,4306022.769,-124.19 
685737.700,4305972.773,-126.54 
685737.700,4305922.777,-129.04 
685737.700,4305872.781,-131.23 
685737.700,4305822.785,-133.68 
685737.700,4305772.789,-136.08 
685737.700,4305722.793,-138.44 
685737.700,4305672.797,-140.77 
685737.700,4305622.801,-143.26 
685737.700,4305572.805,-146.12 
685737.700,4305522.808,-149.15 
685737.700,4305472.812,-152.13 
685737.700,4305422.816,-155.75 
685737.700,4305372.820,-159.53 
685737.700,4305322.824,-163.65 
685737.700,4305272.828,-168.25 
685737.700,4305222.832,-173.1 
685737.700,4305172.836,-177.24 
685787.700,4306722.715,-97.62 
685787.700,4306672.719,-96.65 
685787.700,4306622.723,-99.28 
685787.700,4306572.727,-101.3 
685787.700,4306522.731,-103.81 
685787.700,4306472.734,-106.37 
685787.700,4306422.738,-109.31 
685787.700,4306372.742,-111.91 
685787.700,4306322.746,-114.41 
685787.700,4306272.750,-116.33 
685787.700,4306222.754,-118.2 
685787.700,4306172.758,-120 
685787.700,4306122.762,-122.08 
685787.700,4306072.766,-124.32 
685787.700,4306022.769,-126.59 
685787.700,4305972.773,-129.01 
685787.700,4305922.777,-131.27 
685787.700,4305872.781,-133.54 
685787.700,4305822.785,-135.99 
685787.700,4305772.789,-138.4 
685787.700,4305722.793,-140.66 
685787.700,4305672.797,-143.06 
685787.700,4305622.801,-145.78 
685787.700,4305572.805,-148.63 
685787.700,4305522.808,-151.62 
685787.700,4305472.812,-154.76 
685787.700,4305422.816,-158.33 
685787.700,4305372.820,-162.17 
685787.700,4305322.824,-166.5 
685787.700,4305272.828,-171.21 
685787.700,4305222.832,-175.98 
685837.700,4306772.711,-95.9 
685837.700,4306722.715,-97.19 
685837.700,4306672.719,-99.53 
685837.700,4306622.723,-101.87 
685837.700,4306572.727,-104.05 
685837.700,4306522.731,-106.87 
685837.700,4306472.734,-109.6 
685837.700,4306422.738,-112.45 
685837.700,4306372.742,-114.64 
685837.700,4306322.746,-116.6 
685837.700,4306272.750,-118.47 
685837.700,4306222.754,-120.47 
685837.700,4306172.758,-122.38 
685837.700,4306122.762,-124.44 
685837.700,4306072.766,-126.8 
685837.700,4306022.769,-129.08 
685837.700,4305972.773,-131.25 
685837.700,4305922.777,-133.49 
685837.700,4305872.781,-135.8 
685837.700,4305822.785,-138.22 
685837.700,4305772.789,-140.65 
685837.700,4305722.793,-142.92 
685837.700,4305672.797,-145.5 
685837.700,4305622.801,-148.29 
685837.700,4305572.805,-151.14 
685837.700,4305522.808,-154.07 
685837.700,4305472.812,-157.37 
685837.700,4305422.816,-160.98 
685837.700,4305372.820,-165.03 
685837.700,4305322.824,-169.4 
685837.700,4305272.828,-174.25 
685837.700,4305222.832,-178.33 
685887.700,4306822.707,-96.28 
685887.700,4306772.711,-95.96 
685887.700,4306722.715,-99.84 
685887.700,4306672.719,-102.3 
685887.700,4306622.723,-104.49 
685887.700,4306572.727,-107.26 
685887.700,4306522.731,-110.17 
685887.700,4306472.734,-112.82 
685887.700,4306422.738,-115.06 
685887.700,4306372.742,-116.94 
685887.700,4306322.746,-118.86 
685887.700,4306272.750,-120.75 
685887.700,4306222.754,-122.8 
685887.700,4306172.758,-124.79 
685887.700,4306122.762,-126.91 
685887.700,4306072.766,-129.21 
685887.700,4306022.769,-131.35 
685887.700,4305972.773,-133.63 
685887.700,4305922.777,-135.82 
685887.700,4305872.781,-138.01 
685887.700,4305822.785,-140.42 
685887.700,4305772.789,-143.01 
685887.700,4305722.793,-145.35 
685887.700,4305672.797,-147.83 
685887.700,4305622.801,-150.73 
685887.700,4305572.805,-153.67 
685887.700,4305522.808,-156.61 
685887.700,4305472.812,-159.92 
685887.700,4305422.816,-163.69 
685887.700,4305372.820,-167.79 
685887.700,4305322.824,-172.42 
685887.700,4305272.828,-177.12 
685937.700,4306872.703,-96.08 
685937.700,4306822.707,-96.73 
685937.700,4306772.711,-100.16 
685937.700,4306722.715,-102.11 
685937.700,4306672.719,-105.26 
685937.700,4306622.723,-107.98 
685937.700,4306572.727,-110.71 
685937.700,4306522.731,-113.19 
685937.700,4306472.734,-115.4 
685937.700,4306422.738,-117.38 
685937.700,4306372.742,-119.28 
685937.700,4306322.746,-121.23 
685937.700,4306272.750,-123.2 
685937.700,4306222.754,-125.18 
685937.700,4306172.758,-127.2 
685937.700,4306122.762,-129.33 
685937.700,4306072.766,-131.53 
685937.700,4306022.769,-133.7 
685937.700,4305972.773,-135.98 
685937.700,4305922.777,-138.15 
685937.700,4305872.781,-140.24 
685937.700,4305822.785,-142.55 
685937.700,4305772.789,-145.11 
685937.700,4305722.793,-147.63 
685937.700,4305672.797,-150.25 
685937.700,4305622.801,-153.26 
685937.700,4305572.805,-156.23 
685937.700,4305522.808,-159.29 
685937.700,4305472.812,-162.63 
685937.700,4305422.816,-166.44 
685937.700,4305372.820,-170.74 
685937.700,4305322.824,-175.43 
685937.700,4305272.828,-179.38 
685987.700,4306922.699,-95.75 
685987.700,4306872.703,-96.99 
685987.700,4306822.707,-100.09 
685987.700,4306772.711,-102.85 
685987.700,4306722.715,-105.64 
685987.700,4306672.719,-108.51 
685987.700,4306622.723,-111.25 
685987.700,4306572.727,-113.72 
685987.700,4306522.731,-115.8 
685987.700,4306472.734,-117.79 
685987.700,4306422.738,-119.77 
685987.700,4306372.742,-121.75 
685987.700,4306322.746,-123.74 
685987.700,4306272.750,-125.65 
685987.700,4306222.754,-127.66 
685987.700,4306172.758,-129.67 
685987.700,4306122.762,-131.86 
685987.700,4306072.766,-134.01 
685987.700,4306022.769,-136.09 
685987.700,4305972.773,-138.23 
685987.700,4305922.777,-140.27 
685987.700,4305872.781,-142.49 
685987.700,4305822.785,-144.86 
685987.700,4305772.789,-147.3 
685987.700,4305722.793,-149.97 
685987.700,4305672.797,-152.8 
685987.700,4305622.801,-155.75 
685987.700,4305572.805,-158.82 
685987.700,4305522.808,-161.98 
685987.700,4305472.812,-165.37 
685987.700,4305422.816,-169.27 
685987.700,4305372.820,-173.62 
685987.700,4305322.824,-177.54 
686037.700,4306972.695,-95.93 
686037.700,4306922.699,-96.74 
686037.700,4306872.703,-100.3 
686037.700,4306822.707,-103.35 
686037.700,4306772.711,-106.29 
686037.700,4306722.715,-109.03 
686037.700,4306672.719,-111.7 
686037.700,4306622.723,-114.12 
686037.700,4306572.727,-116.33 
686037.700,4306522.731,-118.35 
686037.700,4306472.734,-120.35 
686037.700,4306422.738,-122.3 
686037.700,4306372.742,-124.3 
686037.700,4306322.746,-126.33 
686037.700,4306272.750,-128.33 
686037.700,4306222.754,-130.27 
686037.700,4306172.758,-132.26 
686037.700,4306122.762,-134.33 
686037.700,4306072.766,-136.45 
686037.700,4306022.769,-138.46 
686037.700,4305972.773,-140.44 
686037.700,4305922.777,-142.57 
686037.700,4305872.781,-144.72 
686037.700,4305822.785,-147.03 
686037.700,4305772.789,-149.62 
686037.700,4305722.793,-152.47 
686037.700,4305672.797,-155.21 
686037.700,4305622.801,-158.32 
686037.700,4305572.805,-161.42 
686037.700,4305522.808,-164.67 
686037.700,4305472.812,-168.25 
686037.700,4305422.816,-172.26 
686037.700,4305372.820,-176.64 
686087.700,4307022.692,-95.78 
686087.700,4306972.695,-97.22 
686087.700,4306922.699,-100.52 
686087.700,4306872.703,-103.38 
686087.700,4306822.707,-106.71 
686087.700,4306772.711,-109.51 
686087.700,4306722.715,-112.19 
686087.700,4306672.719,-114.62 
686087.700,4306622.723,-116.79 
686087.700,4306572.727,-118.94 
686087.700,4306522.731,-121 
686087.700,4306472.734,-123.03 
686087.700,4306422.738,-125.01 
686087.700,4306372.742,-126.92 
686087.700,4306322.746,-129.02 
686087.700,4306272.750,-130.91 
686087.700,4306222.754,-132.9 
686087.700,4306172.758,-134.84 
686087.700,4306122.762,-136.78 
686087.700,4306072.766,-138.85 
686087.700,4306022.769,-140.73 
686087.700,4305972.773,-142.7 
686087.700,4305922.777,-144.83 
686087.700,4305872.781,-146.9 
686087.700,4305822.785,-149.38 
686087.700,4305772.789,-151.99 
686087.700,4305722.793,-154.94 
686087.700,4305672.797,-157.82 
686087.700,4305622.801,-161.02 
686087.700,4305572.805,-164.23 
686087.700,4305522.808,-167.59 
686087.700,4305472.812,-171.15 
686087.700,4305422.816,-175.36 
686087.700,4305372.820,-179.21 
686137.700,4307072.688,-95.35 
686137.700,4307022.692,-97.25 
686137.700,4306972.695,-101.28 
686137.700,4306922.699,-104.4 
686137.700,4306872.703,-107.16 
686137.700,4306822.707,-110.06 
686137.700,4306772.711,-112.69 
686137.700,4306722.715,-115.13 
686137.700,4306672.719,-117.37 
686137.700,4306622.723,-119.54 
686137.700,4306572.727,-121.72 
686137.700,4306522.731,-123.81 
686137.700,4306472.734,-125.79 
686137.700,4306422.738,-127.67 
686137.700,4306372.742,-129.76 
686137.700,4306322.746,-131.63 
686137.700,4306272.750,-133.59 
686137.700,4306222.754,-135.44 
686137.700,4306172.758,-137.32 
686137.700,4306122.762,-139.32 
686137.700,4306072.766,-141.24 
686137.700,4306022.769,-143.05 
686137.700,4305972.773,-144.91 
686137.700,4305922.777,-147.07 
686137.700,4305872.781,-149.26 
686137.700,4305822.785,-151.88 
686137.700,4305772.789,-154.35 
686137.700,4305722.793,-157.42 
686137.700,4305672.797,-160.47 
686137.700,4305622.801,-163.72 
686137.700,4305572.805,-167.22 
686137.700,4305522.808,-170.44 
686137.700,4305472.812,-174.19 
686137.700,4305422.816,-177.62 
686187.700,4307172.680,-96.14 
686187.700,4307122.684,-96.71 
686187.700,4307072.688,-98.04 
686187.700,4307022.692,-101.56 
686187.700,4306972.695,-105 
686187.700,4306922.699,-108.03 
686187.700,4306872.703,-110.7 
686187.700,4306822.707,-113.24 
686187.700,4306772.711,-115.63 
686187.700,4306722.715,-118 
686187.700,4306672.719,-120.27 
686187.700,4306622.723,-122.52 
686187.700,4306572.727,-124.68 
686187.700,4306522.731,-126.84 
686187.700,4306472.734,-128.79 
686187.700,4306422.738,-130.74 
686187.700,4306372.742,-132.61 
686187.700,4306322.746,-134.43 
686187.700,4306272.750,-136.17 
686187.700,4306222.754,-138.16 
686187.700,4306172.758,-140 
686187.700,4306122.762,-141.76 
686187.700,4306072.766,-143.61 
686187.700,4306022.769,-145.28 
686187.700,4305972.773,-147.3 
686187.700,4305922.777,-149.28 
686187.700,4305872.781,-151.65 
686187.700,4305822.785,-154.14 
686187.700,4305772.789,-156.86 
686187.700,4305722.793,-159.89 
686187.700,4305672.797,-163.3 
686187.700,4305622.801,-166.66 
686187.700,4305572.805,-170.15 
686187.700,4305522.808,-173.44 
686187.700,4305472.812,-177.27 
686237.700,4307222.676,-94.92 
686237.700,4307172.680,-96.96 
686237.700,4307122.684,-99 
686237.700,4307072.688,-102.99 
686237.700,4307022.692,-105.73 
686237.700,4306972.695,-108.94 
686237.700,4306922.699,-111.41 
686237.700,4306872.703,-113.93 
686237.700,4306822.707,-116.31 
686237.700,4306772.711,-118.74 
686237.700,4306722.715,-121.05 
686237.700,4306672.719,-123.4 
686237.700,4306622.723,-125.71 
686237.700,4306572.727,-127.9 
686237.700,4306522.731,-130.01 
686237.700,4306472.734,-132.04 
686237.700,4306422.738,-133.74 
686237.700,4306372.742,-135.61 
686237.700,4306322.746,-137.42 
686237.700,4306272.750,-139.06 
686237.700,4306222.754,-140.87 
686237.700,4306172.758,-142.57 
686237.700,4306122.762,-144.24 
686237.700,4306072.766,-145.83 
686237.700,4306022.769,-147.66 
686237.700,4305972.773,-149.65 
686237.700,4305922.777,-151.64 
686237.700,4305872.781,-153.91 
686237.700,4305822.785,-156.63 
686237.700,4305772.789,-159.48 
686237.700,4305722.793,-162.76 
686237.700,4305672.797,-166.19 
686237.700,4305622.801,-169.7 
686237.700,4305572.805,-173.22 
686237.700,4305522.808,-176.62 
686237.700,4305472.812,-179.9 
686287.700,4307272.672,-94.92 
686287.700,4307222.676,-96.61 
686287.700,4307172.680,-99.93 
686287.700,4307122.684,-103.68 
686287.700,4307072.688,-106.85 
686287.700,4307022.692,-109.79 
686287.700,4306972.695,-112.38 
686287.700,4306922.699,-114.68 
686287.700,4306872.703,-117.17 
686287.700,4306822.707,-119.53 
686287.700,4306772.711,-121.99 
686287.700,4306722.715,-124.4 
686287.700,4306672.719,-126.84 
686287.700,4306622.723,-129.19 
686287.700,4306572.727,-131.37 
686287.700,4306522.731,-133.25 
686287.700,4306472.734,-135.16 
686287.700,4306422.738,-136.98 
686287.700,4306372.742,-138.68 
686287.700,4306322.746,-140.37 
686287.700,4306272.750,-142.03 
686287.700,4306222.754,-143.52 
686287.700,4306172.758,-145.04 
686287.700,4306122.762,-146.64 
686287.700,4306072.766,-148.24 
686287.700,4306022.769,-150.19 
686287.700,4305972.773,-152.18 
686287.700,4305922.777,-154.12 
686287.700,4305872.781,-156.46 
686287.700,4305822.785,-159.19 
686287.700,4305772.789,-162.27 
686287.700,4305722.793,-165.76 
686287.700,4305672.797,-169.25 
686287.700,4305622.801,-172.9 
686287.700,4305572.805,-176.36 
686287.700,4305522.808,-179.03 
686337.700,4307322.668,-94.34 
686337.700,4307272.672,-96.63 
686337.700,4307222.676,-100.78 
686337.700,4307172.680,-104.36 
686337.700,4307122.684,-108.43 
686337.700,4307072.688,-111.32 
686337.700,4307022.692,-113.72 
686337.700,4306972.695,-115.85 
686337.700,4306922.699,-118.15 
686337.700,4306872.703,-120.58 
686337.700,4306822.707,-123 
686337.700,4306772.711,-125.53 
686337.700,4306722.715,-128.08 
686337.700,4306672.719,-130.51 
686337.700,4306622.723,-132.88 
686337.700,4306572.727,-134.95 
686337.700,4306522.731,-136.71 
686337.700,4306472.734,-138.49 
686337.700,4306422.738,-140.22 
686337.700,4306372.742,-141.84 
686337.700,4306322.746,-143.33 
686337.700,4306272.750,-144.87 
686337.700,4306222.754,-146.32 
686337.700,4306172.758,-147.64 
686337.700,4306122.762,-149.15 
686337.700,4306072.766,-150.89 
686337.700,4306022.769,-152.78 
686337.700,4305972.773,-154.77 
686337.700,4305922.777,-156.9 
686337.700,4305872.781,-159.25 
686337.700,4305822.785,-162.11 
686337.700,4305772.789,-165.28 
686337.700,4305722.793,-168.94 
686337.700,4305672.797,-172.57 
686337.700,4305622.801,-176.14 
686337.700,4305572.805,-178.8 
686387.700,4307372.664,-95.04 
686387.700,4307322.668,-97.5 
686387.700,4307272.672,-101.62 
686387.700,4307222.676,-105.7 
686387.700,4307172.680,-109.84 
686387.700,4307122.684,-112.76 
686387.700,4307072.688,-115.35 
686387.700,4307022.692,-117.46 
686387.700,4306972.695,-119.65 
686387.700,4306922.699,-121.93 
686387.700,4306872.703,-124.32 
686387.700,4306822.707,-126.83 
686387.700,4306772.711,-129.52 
686387.700,4306722.715,-132.07 
686387.700,4306672.719,-134.44 
686387.700,4306622.723,-136.61 
686387.700,4306572.727,-138.62 
686387.700,4306522.731,-140.27 
686387.700,4306472.734,-141.94 
686387.700,4306422.738,-143.57 
686387.700,4306372.742,-145 
686387.700,4306322.746,-146.33 
686387.700,4306272.750,-147.72 
686387.700,4306222.754,-149.08 
686387.700,4306172.758,-150.39 
686387.700,4306122.762,-151.71 
686387.700,4306072.766,-153.59 
686387.700,4306022.769,-155.62 
686387.700,4305972.773,-157.66 
686387.700,4305922.777,-159.73 
686387.700,4305872.781,-162.31 
686387.700,4305822.785,-165.26 
686387.700,4305772.789,-168.53 
686387.700,4305722.793,-172.15 
686387.700,4305672.797,-176.02 
686387.700,4305622.801,-178.63 
686437.700,4307422.660,-94.61 
686437.700,4307372.664,-97.84 
686437.700,4307322.668,-102.58 
686437.700,4307272.672,-107.02 
686437.700,4307222.676,-111.49 
686437.700,4307172.680,-114.82 
686437.700,4307122.684,-117.32 
686437.700,4307072.688,-119.46 
686437.700,4307022.692,-121.47 
686437.700,4306972.695,-123.64 
686437.700,4306922.699,-125.93 
686437.700,4306872.703,-128.43 
686437.700,4306822.707,-131.02 
686437.700,4306772.711,-133.75 
686437.700,4306722.715,-136.35 
686437.700,4306672.719,-138.67 
686437.700,4306622.723,-140.58 
686437.700,4306572.727,-142.48 
686437.700,4306522.731,-144.06 
686437.700,4306472.734,-145.51 
686437.700,4306422.738,-146.93 
686437.700,4306372.742,-148.29 
686437.700,4306322.746,-149.51 
686437.700,4306272.750,-150.66 
686437.700,4306222.754,-151.94 
686437.700,4306172.758,-153.39 
686437.700,4306122.762,-154.6 
686437.700,4306072.766,-156.49 
686437.700,4306022.769,-158.57 
686437.700,4305972.773,-160.57 
686437.700,4305922.777,-162.93 
686437.700,4305872.781,-165.53 
686437.700,4305822.785,-168.59 
686437.700,4305772.789,-171.94 
686437.700,4305722.793,-175.43 
686437.700,4305672.797,-178.41 
686487.700,4307472.656,-95.82 
686487.700,4307422.660,-98.4 
686487.700,4307372.664,-103.7 
686487.700,4307322.668,-108.47 
686487.700,4307272.672,-112.96 
686487.700,4307222.676,-116.83 
686487.700,4307172.680,-119.63 
686487.700,4307122.684,-121.96 
686487.700,4307072.688,-123.86 
686487.700,4307022.692,-125.86 
686487.700,4306972.695,-128 
686487.700,4306922.699,-130.37 
686487.700,4306872.703,-132.87 
686487.700,4306822.707,-135.57 
686487.700,4306772.711,-138.28 
686487.700,4306722.715,-140.75 
686487.700,4306672.719,-142.98 
686487.700,4306622.723,-144.93 
686487.700,4306572.727,-146.56 
686487.700,4306522.731,-147.95 
686487.700,4306472.734,-149.25 
686487.700,4306422.738,-150.53 
686487.700,4306372.742,-151.7 
686487.700,4306322.746,-152.72 
686487.700,4306272.750,-153.97 
686487.700,4306222.754,-155.07 
686487.700,4306172.758,-156.49 
686487.700,4306122.762,-157.86 
686487.700,4306072.766,-159.85 
686487.700,4306022.769,-161.68 
686487.700,4305972.773,-163.89 
686487.700,4305922.777,-166.48 
686487.700,4305872.781,-169.02 
686487.700,4305822.785,-172.07 
686487.700,4305772.789,-175.41 
686487.700,4305722.793,-178.2 
686537.700,4307522.653,-95.96 
686537.700,4307472.656,-99.27 
686537.700,4307422.660,-104.74 
686537.700,4307372.664,-109.43 
686537.700,4307322.668,-114.62 
686537.700,4307272.672,-118.78 
686537.700,4307222.676,-122.1 
686537.700,4307172.680,-124.75 
686537.700,4307122.684,-126.78 
686537.700,4307072.688,-128.64 
686537.700,4307022.692,-130.59 
686537.700,4306972.695,-132.76 
686537.700,4306922.699,-135.14 
686537.700,4306872.703,-137.67 
686537.700,4306822.707,-140.38 
686537.700,4306772.711,-142.94 
686537.700,4306722.715,-145.47 
686537.700,4306672.719,-147.78 
686537.700,4306622.723,-149.53 
686537.700,4306572.727,-150.89 
686537.700,4306522.731,-152.08 
686537.700,4306472.734,-153.3 
686537.700,4306422.738,-154.46 
686537.700,4306372.742,-155.38 
686537.700,4306322.746,-156.31 
686537.700,4306272.750,-157.48 
686537.700,4306222.754,-158.52 
686537.700,4306172.758,-159.9 
686537.700,4306122.762,-161.33 
686537.700,4306072.766,-163.06 
686537.700,4306022.769,-165.31 
686537.700,4305972.773,-167.59 
686537.700,4305922.777,-170.06 
686537.700,4305872.781,-172.98 
686537.700,4305822.785,-175.93 
686537.700,4305772.789,-178.07 
686587.700,4307572.649,-96.28 
686587.700,4307522.653,-100.14 
686587.700,4307472.656,-105.3 
686587.700,4307422.660,-110.74 
686587.700,4307372.664,-115.72 
686587.700,4307322.668,-120.72 
686587.700,4307272.672,-124.52 
686587.700,4307222.676,-127.46 
686587.700,4307172.680,-130.01 
686587.700,4307122.684,-132.04 
686587.700,4307072.688,-133.76 
686587.700,4307022.692,-135.72 
686587.700,4306972.695,-137.89 
686587.700,4306922.699,-140.18 
686587.700,4306872.703,-142.77 
686587.700,4306822.707,-145.41 
686587.700,4306772.711,-148.01 
686587.700,4306722.715,-150.53 
686587.700,4306672.719,-152.76 
686587.700,4306622.723,-154.51 
686587.700,4306572.727,-155.69 
686587.700,4306522.731,-156.77 
686587.700,4306472.734,-157.74 
686587.700,4306422.738,-158.63 
686587.700,4306372.742,-159.49 
686587.700,4306322.746,-160.27 
686587.700,4306272.750,-161.07 
686587.700,4306222.754,-162.35 
686587.700,4306172.758,-163.62 
686587.700,4306122.762,-165.01 
686587.700,4306072.766,-166.95 
686587.700,4306022.769,-169.09 
686587.700,4305972.773,-171.53 
686587.700,4305922.777,-173.92 
686587.700,4305872.781,-175.83 
686587.700,4305822.785,-179.09 
686637.700,4307672.641,-93.87 
686637.700,4307622.645,-96.25 
686637.700,4307572.649,-100.53 
686637.700,4307522.653,-106.1 
686637.700,4307472.656,-111.72 
686637.700,4307422.660,-117.22 
686637.700,4307372.664,-122.21 
686637.700,4307322.668,-126.61 
686637.700,4307272.672,-130.54 
686637.700,4307222.676,-133.43 
686637.700,4307172.680,-135.85 
686637.700,4307122.684,-137.69 
686637.700,4307072.688,-139.44 
686637.700,4307022.692,-141.26 
686637.700,4306972.695,-143.3 
686637.700,4306922.699,-145.59 
686637.700,4306872.703,-148.12 
686637.700,4306822.707,-150.75 
686637.700,4306772.711,-153.58 
686637.700,4306722.715,-156.17 
686637.700,4306672.719,-158.28 
686637.700,4306622.723,-160.01 
686637.700,4306572.727,-161.08 
686637.700,4306522.731,-161.98 
686637.700,4306472.734,-162.6 
686637.700,4306422.738,-163.22 
686637.700,4306372.742,-163.85 
686637.700,4306322.746,-164.32 
686637.700,4306272.750,-165.3 
686637.700,4306222.754,-166.43 
686637.700,4306172.758,-167.67 
686637.700,4306122.762,-169.21 
686637.700,4306072.766,-171.31 
686637.700,4306022.769,-173.34 
686637.700,4305972.773,-175.82 
686637.700,4305922.777,-176.98 
686687.700,4307722.637,-94.25 
686687.700,4307672.641,-95.92 
686687.700,4307622.645,-100.88 
686687.700,4307572.649,-106.34 
686687.700,4307522.653,-112.67 
686687.700,4307472.656,-117.97 
686687.700,4307422.660,-123.52 
686687.700,4307372.664,-128.36 
686687.700,4307322.668,-132.73 
686687.700,4307272.672,-136.78 
686687.700,4307222.676,-139.77 
686687.700,4307172.680,-142.03 
686687.700,4307122.684,-143.8 
686687.700,4307072.688,-145.54 
686687.700,4307022.692,-147.18 
686687.700,4306972.695,-149.14 
686687.700,4306922.699,-151.3 
686687.700,4306872.703,-154 
686687.700,4306822.707,-156.75 
686687.700,4306772.711,-159.69 
686687.700,4306722.715,-162.34 
686687.700,4306672.719,-164.42 
686687.700,4306622.723,-166.02 
686687.700,4306572.727,-166.9 
686687.700,4306522.731,-167.51 
686687.700,4306472.734,-167.8 
686687.700,4306422.738,-167.97 
686687.700,4306372.742,-168.19 
686687.700,4306322.746,-168.76 
686687.700,4306272.750,-169.27 
686687.700,4306222.754,-170.61 
686687.700,4306172.758,-171.94 
686687.700,4306122.762,-173.68 
686687.700,4306072.766,-175.83 
686687.700,4306022.769,-176.67 
686687.700,4305972.773,-179.1 
686737.700,4307772.633,-95.37 
686737.700,4307722.637,-97.18 
686737.700,4307672.641,-101.31 
686737.700,4307622.645,-106.67 
686737.700,4307572.649,-112.71 
686737.700,4307522.653,-118.41 
686737.700,4307472.656,-124.06 
686737.700,4307422.660,-129.5 
686737.700,4307372.664,-134.48 
686737.700,4307322.668,-139.05 
686737.700,4307272.672,-143.05 
686737.700,4307222.676,-146.34 
686737.700,4307172.680,-148.72 
686737.700,4307122.684,-150.32 
686737.700,4307072.688,-152.02 
686737.700,4307022.692,-153.69 
686737.700,4306972.695,-155.5 
686737.700,4306922.699,-157.84 
686737.700,4306872.703,-160.55 
686737.700,4306822.707,-163.4 
686737.700,4306772.711,-166.34 
686737.700,4306722.715,-169.12 
686737.700,4306672.719,-171.15 
686737.700,4306622.723,-172.43 
686737.700,4306572.727,-173.09 
686737.700,4306522.731,-173.19 
686737.700,4306472.734,-173.25 
686737.700,4306422.738,-172.9 
686737.700,4306372.742,-173.15 
686737.700,4306322.746,-173.28 
686737.700,4306272.750,-173.68 
686737.700,4306222.754,-174.79 
686737.700,4306172.758,-175.26 
686737.700,4306122.762,-177.07 
686737.700,4306072.766,-179.29 
686787.700,4307822.629,-95.24 
686787.700,4307772.633,-97.79 
686787.700,4307722.637,-102.06 
686787.700,4307672.641,-107.46 
686787.700,4307622.645,-112.93 
686787.700,4307572.649,-118.56 
686787.700,4307522.653,-124.28 
686787.700,4307472.656,-129.71 
686787.700,4307422.660,-135.23 
686787.700,4307372.664,-140.41 
686787.700,4307322.668,-145.32 
686787.700,4307272.672,-149.6 
686787.700,4307222.676,-153.06 
686787.700,4307172.680,-155.9 
686787.700,4307122.684,-157.72 
686787.700,4307072.688,-159.11 
686787.700,4307022.692,-160.72 
686787.700,4306972.695,-162.69 
686787.700,4306922.699,-165.08 
686787.700,4306872.703,-167.73 
686787.700,4306822.707,-170.67 
686787.700,4306772.711,-173.25 
686787.700,4306722.715,-174.37 
686787.700,4306672.719,-176.36 
686787.700,4306622.723,-177.08 
686787.700,4306572.727,-177.79 
686787.700,4306522.731,-177.5 
686787.700,4306472.734,-177.2 
686787.700,4306422.738,-177.07 
686787.700,4306372.742,-176.68 
686787.700,4306322.746,-176.7 
686787.700,4306272.750,-177.31 
686787.700,4306222.754,-177.98 
686837.700,4307872.625,-94.53 
686837.700,4307822.629,-97.79 
686837.700,4307772.633,-102.45 
686837.700,4307722.637,-107.63 
686837.700,4307672.641,-112.61 
686837.700,4307622.645,-118.17 
686837.700,4307572.649,-123.84 
686837.700,4307522.653,-129.29 
686837.700,4307472.656,-134.95 
686837.700,4307422.660,-140.7 
686837.700,4307372.664,-146.29 
686837.700,4307322.668,-151.67 
686837.700,4307272.672,-156.59 
686837.700,4307222.676,-160.41 
686837.700,4307172.680,-163.59 
686837.700,4307122.684,-165.56 
686837.700,4307072.688,-167.07 
686837.700,4307022.692,-168.54 
686837.700,4306972.695,-170.36 
686837.700,4306922.699,-172.6 
686837.700,4306872.703,-173.21 
686837.700,4306822.707,-176.09 
686837.700,4306772.711,-178.64 
686887.700,4307922.621,-96.1 
686887.700,4307872.625,-98.62 
686887.700,4307822.629,-102.63 
686887.700,4307772.633,-107.77 
686887.700,4307722.637,-112.61 
686887.700,4307672.641,-117.77 
686887.700,4307622.645,-123.01 
686887.700,4307572.649,-128.62 
686887.700,4307522.653,-134.31 
686887.700,4307472.656,-140.22 
686887.700,4307422.660,-146.29 
686887.700,4307372.664,-152.37 
686887.700,4307322.668,-158.23 
686887.700,4307272.672,-163.62 
686887.700,4307222.676,-168.39 
686887.700,4307172.680,-171.73 
686887.700,4307122.684,-171.85 
686887.700,4307072.688,-173.41 
686887.700,4307022.692,-174.55 
686887.700,4306972.695,-176.18 
686887.700,4306922.699,-178.22 
686937.700,4307972.618,-96.65 
686937.700,4307922.621,-99 
686937.700,4307872.625,-103.69 
686937.700,4307822.629,-107.74 
686937.700,4307772.633,-112.38 
686937.700,4307722.637,-117.15 
686937.700,4307672.641,-122.27 
686937.700,4307622.645,-127.64 
686937.700,4307572.649,-133.29 
686937.700,4307522.653,-139.36 
686937.700,4307472.656,-145.62 
686937.700,4307422.660,-152.01 
686937.700,4307372.664,-158.6 
686937.700,4307322.668,-165.06 
686937.700,4307272.672,-170.95 
686937.700,4307222.676,-174.37 
686937.700,4307172.680,-178.03 
686987.700,4308022.614,-98.1 
686987.700,4307972.618,-100.19 
686987.700,4307922.621,-104.34 
686987.700,4307872.625,-108.11 
686987.700,4307822.629,-112.11 
686987.700,4307772.633,-116.69 
686987.700,4307722.637,-121.41 
686987.700,4307672.641,-126.68 
686987.700,4307622.645,-132.35 
686987.700,4307572.649,-138.37 
686987.700,4307522.653,-144.71 
686987.700,4307472.656,-151.22 
686987.700,4307422.660,-158.13 
686987.700,4307372.664,-164.74 
686987.700,4307322.668,-171.27 
686987.700,4307272.672,-175.93 
687037.700,4308122.606,-98.53 
687037.700,4308072.610,-98.02 
687037.700,4308022.614,-100.72 
687037.700,4307972.618,-104.78 
687037.700,4307922.621,-108.36 
687037.700,4307872.625,-112.22 
687037.700,4307822.629,-116.03 
687037.700,4307772.633,-120.71 
687037.700,4307722.637,-125.75 
687037.700,4307672.641,-131.36 
687037.700,4307622.645,-137.34 
687037.700,4307572.649,-143.7 
687037.700,4307522.653,-150.39 
687037.700,4307472.656,-157.1 
687037.700,4307422.660,-163.99 
687037.700,4307372.664,-170.57 
687037.700,4307322.668,-175.43 
687087.700,4308172.602,-98.85 
687087.700,4308122.606,-99.3 
687087.700,4308072.610,-102.21 
687087.700,4308022.614,-105.46 
687087.700,4307972.618,-108.37 
687087.700,4307922.621,-111.85 
687087.700,4307872.625,-115.9 
687087.700,4307822.629,-120.11 
687087.700,4307772.633,-125.11 
687087.700,4307722.637,-130.55 
687087.700,4307672.641,-136.38 
687087.700,4307622.645,-142.69 
687087.700,4307572.649,-149.36 
687087.700,4307522.653,-156.17 
687087.700,4307472.656,-162.92 
687087.700,4307422.660,-169.54 
687087.700,4307372.664,-174.45 
687137.700,4308222.598,-98.78 
687137.700,4308172.602,-100 
687137.700,4308122.606,-103.13 
687137.700,4308072.610,-106.3 
687137.700,4308022.614,-108.99 
687137.700,4307972.618,-112.32 
687137.700,4307922.621,-115.56 
687137.700,4307872.625,-120.04 
687137.700,4307822.629,-124.69 
687137.700,4307772.633,-129.96 
687137.700,4307722.637,-135.56 
687137.700,4307672.641,-141.74 
687137.700,4307622.645,-148.41 
687137.700,4307572.649,-155.31 
687137.700,4307522.653,-162.03 
687137.700,4307472.656,-168.75 
687137.700,4307422.660,-175.16 
687187.700,4308272.594,-99.49 
687187.700,4308222.598,-101.02 
687187.700,4308172.602,-104.02 
687187.700,4308122.606,-106.56 
687187.700,4308072.610,-109.52 
687187.700,4308022.614,-112.86 
687187.700,4307972.618,-116.41 
687187.700,4307922.621,-120.3 
687187.700,4307872.625,-124.68 
687187.700,4307822.629,-129.69 
687187.700,4307772.633,-135.13 
687187.700,4307722.637,-141.04 
687187.700,4307672.641,-147.69 
687187.700,4307622.645,-154.59 
687187.700,4307572.649,-161.42 
687187.700,4307522.653,-168.06 
687187.700,4307472.656,-173.42 
687187.700,4307422.660,-179.92 
687237.700,4308322.590,-100.48 
687237.700,4308272.594,-101.74 
687237.700,4308222.598,-105.21 
687237.700,4308172.602,-107.98 
687237.700,4308122.606,-110.61 
687237.700,4308072.610,-113.73 
687237.700,4308022.614,-117.3 
687237.700,4307972.618,-121.28 
687237.700,4307922.621,-125.41 
687237.700,4307872.625,-129.99 
687237.700,4307822.629,-135.17 
687237.700,4307772.633,-140.92 
687237.700,4307722.637,-147.18 
687237.700,4307672.641,-154.2 
687237.700,4307622.645,-161.42 
687237.700,4307572.649,-168.13 
687237.700,4307522.653,-174.65 
687287.700,4308372.586,-100.33 
687287.700,4308322.590,-103.82 
687287.700,4308272.594,-106.98 
687287.700,4308222.598,-109.16 
687287.700,4308172.602,-112.4 
687287.700,4308122.606,-115.28 
687287.700,4308072.610,-118.81 
687287.700,4308022.614,-122.55 
687287.700,4307972.618,-126.49 
687287.700,4307922.621,-131.02 
687287.700,4307872.625,-135.88 
687287.700,4307822.629,-141.43 
687287.700,4307772.633,-147.65 
687287.700,4307722.637,-154.18 
687287.700,4307672.641,-161.56 
687287.700,4307622.645,-168.84 
687287.700,4307572.649,-173.77 
687287.700,4307522.653,-179.98 
687337.700,4308422.582,-102.52 
687337.700,4308372.586,-105.19 
687337.700,4308322.590,-107.98 
687337.700,4308272.594,-111.55 
687337.700,4308222.598,-114.02 
687337.700,4308172.602,-117.3 
687337.700,4308122.606,-120.67 
687337.700,4308072.610,-124.38 
687337.700,4308022.614,-128.17 
687337.700,4307972.618,-132.41 
687337.700,4307922.621,-137.13 
687337.700,4307872.625,-142.35 
687337.700,4307822.629,-148.25 
687337.700,4307772.633,-154.68 
687337.700,4307722.637,-161.58 
687337.700,4307672.641,-169.18 
687337.700,4307622.645,-174.25 
687387.700,4308522.575,-102.09 
687387.700,4308472.579,-104.22 
687387.700,4308422.582,-106.7 
687387.700,4308372.586,-110 
687387.700,4308322.590,-112.95 
687387.700,4308272.594,-116.18 
687387.700,4308222.598,-119.62 
687387.700,4308172.602,-122.86 
687387.700,4308122.606,-126.43 
687387.700,4308072.610,-130.2 
687387.700,4308022.614,-134.32 
687387.700,4307972.618,-138.72 
687387.700,4307922.621,-143.5 
687387.700,4307872.625,-149.09 
687387.700,4307822.629,-155.22 
687387.700,4307772.633,-161.55 
687387.700,4307722.637,-168.63 
687387.700,4307672.641,-174.27 
687437.700,4308572.571,-102.17 
687437.700,4308522.575,-104.74 
687437.700,4308472.579,-108.28 
687437.700,4308422.582,-111.52 
687437.700,4308372.586,-114.77 
687437.700,4308322.590,-118.24 
687437.700,4308272.594,-121.56 
687437.700,4308222.598,-125.25 
687437.700,4308172.602,-128.71 
687437.700,4308122.606,-132.44 
687437.700,4308072.610,-136.37 
687437.700,4308022.614,-140.54 
687437.700,4307972.618,-145.07 
687437.700,4307922.621,-150.25 
687437.700,4307872.625,-155.6 
687437.700,4307822.629,-161.75 
687437.700,4307772.633,-168.3 
687437.700,4307722.637,-174.77 
687487.700,4308622.567,-102.77 
687487.700,4308572.571,-105.76 
687487.700,4308522.575,-108.79 
687487.700,4308472.579,-112.5 
687487.700,4308422.582,-115.94 
687487.700,4308372.586,-119.75 
687487.700,4308322.590,-123.59 
687487.700,4308272.594,-127.31 
687487.700,4308222.598,-131.12 
687487.700,4308172.602,-134.93 
687487.700,4308122.606,-138.78 
687487.700,4308072.610,-142.67 
687487.700,4308022.614,-147.06 
687487.700,4307972.618,-151.71 
687487.700,4307922.621,-156.96 
687487.700,4307872.625,-162.49 
687487.700,4307822.629,-168.27 
687487.700,4307772.633,-174.44 
687487.700,4307722.637,-179.39 
687537.700,4308672.563,-101.91 
687537.700,4308622.567,-103.5 
687537.700,4308572.571,-107.84 
687537.700,4308522.575,-112.34 
687537.700,4308472.579,-116.13 
687537.700,4308422.582,-120.41 
687537.700,4308372.586,-124.81 
687537.700,4308322.590,-129.17 
687537.700,4308272.594,-133.35 
687537.700,4308222.598,-137.44 
687537.700,4308172.602,-141.37 
687537.700,4308122.606,-145.29 
687537.700,4308072.610,-149.3 
687537.700,4308022.614,-153.77 
687537.700,4307972.618,-158.38 
687537.700,4307922.621,-163.39 
687537.700,4307872.625,-168.62 
687537.700,4307822.629,-174.44 
687537.700,4307772.633,-178.72 
687587.700,4308722.559,-102.02 
687587.700,4308672.563,-103.18 
687587.700,4308622.567,-106.77 
687587.700,4308572.571,-110.59 
687587.700,4308522.575,-115.02 
687587.700,4308472.579,-119.61 
687587.700,4308422.582,-124.6 
687587.700,4308372.586,-130.14 
687587.700,4308322.590,-135.13 
687587.700,4308272.594,-139.86 
687587.700,4308222.598,-144.16 
687587.700,4308172.602,-148.04 
687587.700,4308122.606,-151.84 
687587.700,4308072.610,-155.84 
687587.700,4308022.614,-159.89 
687587.700,4307972.618,-164.7 
687587.700,4307922.621,-169.28 
687587.700,4307872.625,-174.45 
687587.700,4307822.629,-178.74 
687637.700,4308772.555,-99.1 
687637.700,4308722.559,-101.98 
687637.700,4308672.563,-105.36 
687637.700,4308622.567,-109.01 
687637.700,4308572.571,-113.32 
687637.700,4308522.575,-117.79 
687637.700,4308472.579,-122.98 
687637.700,4308422.582,-129.02 
687637.700,4308372.586,-135.71 
687637.700,4308322.590,-141.66 
687637.700,4308272.594,-146.59 
687637.700,4308222.598,-151 
687637.700,4308172.602,-154.93 
687637.700,4308122.606,-158.29 
687637.700,4308072.610,-162.3 
687637.700,4308022.614,-166.15 
687637.700,4307972.618,-170.17 
687637.700,4307922.621,-174.75 
687637.700,4307872.625,-178.37 
687687.700,4308872.547,-95.85 
687687.700,4308822.551,-97.36 
687687.700,4308772.555,-101.05 
687687.700,4308722.559,-104.22 
687687.700,4308672.563,-107.43 
687687.700,4308622.567,-110.91 
687687.700,4308572.571,-114.96 
687687.700,4308522.575,-119.84 
687687.700,4308472.579,-125.36 
687687.700,4308422.582,-131.96 
687687.700,4308372.586,-140.27 
687687.700,4308322.590,-147.6 
687687.700,4308272.594,-153.43 
687687.700,4308222.598,-158.2 
687687.700,4308172.602,-162.28 
687687.700,4308122.606,-165.42 
687687.700,4308072.610,-168.47 
687687.700,4308022.614,-171.95 
687687.700,4307972.618,-175.74 
687687.700,4307922.621,-178.6 
687737.700,4308872.547,-96.58 
687737.700,4308822.551,-99.63 
687737.700,4308772.555,-102.85 
687737.700,4308722.559,-105.85 
687737.700,4308672.563,-108.96 
687737.700,4308622.567,-112.59 
687737.700,4308572.571,-116.46 
687737.700,4308522.575,-120.83 
687737.700,4308472.579,-126.13 
687737.700,4308422.582,-132.49 
687737.700,4308372.586,-140.23 
687737.700,4308322.590,-148.74 
687737.700,4308272.594,-157.31 
687737.700,4308222.598,-164.13 
687737.700,4308172.602,-169.16 
687737.700,4308122.606,-172.4 
687737.700,4308072.610,-173.43 
687737.700,4308022.614,-176.36 
687737.700,4307972.618,-180 
687787.700,4308922.544,-96.92 
687787.700,4308872.547,-98.27 
687787.700,4308822.551,-101.52 
687787.700,4308772.555,-104.5 
687787.700,4308722.559,-107.32 
687787.700,4308672.563,-110.34 
687787.700,4308622.567,-113.71 
687787.700,4308572.571,-117.5 
687787.700,4308522.575,-121.66 
687787.700,4308472.579,-126.45 
687787.700,4308422.582,-132.08 
687787.700,4308372.586,-138.54 
687787.700,4308322.590,-146.25 
687787.700,4308272.594,-154.49 
687787.700,4308222.598,-163.87 
687787.700,4308172.602,-172.44 
687787.700,4308122.606,-178.31 
687837.700,4309022.536,-94.88 
687837.700,4308972.540,-95.81 
687837.700,4308922.544,-98.72 
687837.700,4308872.547,-100.93 
687837.700,4308822.551,-103.42 
687837.700,4308772.555,-106.11 
687837.700,4308722.559,-108.83 
687837.700,4308672.563,-111.76 
687837.700,4308622.567,-114.97 
687837.700,4308572.571,-118.55 
687837.700,4308522.575,-122.62 
687837.700,4308472.579,-127.16 
687837.700,4308422.582,-132.47 
687837.700,4308372.586,-138.51 
687837.700,4308322.590,-145.01 
687837.700,4308272.594,-152.51 
687837.700,4308222.598,-161.01 
687837.700,4308172.602,-170.26 
687837.700,4308122.606,-178.81 
687887.700,4309022.536,-96.31 
687887.700,4308972.540,-97.92 
687887.700,4308922.544,-100.54 
687887.700,4308872.547,-102.89 
687887.700,4308822.551,-105.37 
687887.700,4308772.555,-107.88 
687887.700,4308722.559,-110.53 
687887.700,4308672.563,-113.4 
687887.700,4308622.567,-116.6 
687887.700,4308572.571,-120.17 
687887.700,4308522.575,-124.2 
687887.700,4308472.579,-128.71 
687887.700,4308422.582,-133.91 
687887.700,4308372.586,-139.6 
687887.700,4308322.590,-145.94 
687887.700,4308272.594,-152.77 
687887.700,4308222.598,-160.39 
687887.700,4308172.602,-169.16 
687887.700,4308122.606,-178.17 
687937.700,4309072.532,-95.03 
687937.700,4309022.536,-97.81 
687937.700,4308972.540,-100.31 
