580862.831,4348772.482,-564.600
580862.831,4348671.915,-566.800
580862.831,4348571.348,-569.000
580862.831,4348470.780,-571.300
580862.831,4348370.213,-572.200
580862.831,4348269.645,-574.200
580862.831,4348169.078,-574.900
580862.831,4348068.511,-576.100
580862.831,4347967.943,-578.200
580862.831,4347867.376,-580.400
580862.831,4347766.809,-582.400
580862.831,4347666.241,-583.600
580862.831,4347565.674,-584.800
580862.831,4347465.106,-586.400
580862.831,4347364.539,-588.500
580862.831,4347263.972,-589.400
580862.831,4347163.404,-589.300
580862.831,4347062.837,-590.500
580862.831,4346962.270,-592.100
580862.831,4346861.702,-593.500
580862.831,4346761.135,-594.300
580862.831,4346660.567,-594.600
580862.831,4346560.000,-594.300
580862.831,4346459.433,-593.700
580862.831,4346358.865,-594.400
580862.831,4346258.298,-596.200
580862.831,4346157.731,-598.400
580862.831,4346057.163,-600.700
580862.831,4345956.596,-603.100
580862.831,4345856.028,-604.900
580862.831,4345755.461,-605.900
580862.831,4345654.894,-605.600
580862.831,4345554.326,-603.900
580862.831,4345453.759,-604.000
580862.831,4345353.192,-604.900
580862.831,4345252.624,-605.400
580862.831,4345152.057,-606.200
580862.831,4345051.489,-607.300
580862.831,4344950.922,-609.200
580862.831,4344850.355,-610.500
580862.831,4344749.787,-611.800
580862.831,4344649.220,-613.500
580862.831,4344548.653,-614.900
580862.831,4344448.085,-615.800
580862.831,4344347.518,-616.100
580862.831,4344246.950,-615.200
580862.831,4344146.383,-614.300
580862.831,4344045.816,-612.800
580862.831,4343945.248,-611.000
580862.831,4343844.681,-609.500
580862.831,4343744.114,-608.100
580862.831,4343643.546,-607.200
580862.831,4343542.979,-605.800
580862.831,4343442.411,-603.500
580862.831,4343341.844,-600.500
580862.831,4343241.277,-597.900
580862.831,4343140.709,-595.300
580862.831,4343040.142,-593.300
580862.831,4342939.575,-593.100
580862.831,4342839.007,-593.200
580862.831,4342738.440,-590.300
580862.831,4342637.872,-587.800
580862.831,4342537.305,-588.200
580862.831,4342436.738,-589.700
580862.831,4342336.170,-591.900
580862.831,4342235.603,-595.500
580862.831,4342135.036,-597.300
580862.831,4342034.468,-596.600
580862.831,4341933.901,-593.800
580862.831,4341833.333,-591.700
580862.831,4341732.766,-592.300
580862.831,4341632.199,-595.500
580862.831,4341531.631,-599.400
580862.831,4341431.064,-601.000
580862.831,4341330.497,-600.600
580862.831,4341229.929,-600.900
580862.831,4341129.362,-601.600
580862.831,4341028.794,-601.900
580862.831,4340928.227,-601.500
580862.831,4340827.660,-600.800
580862.831,4340727.092,-600.400
580862.831,4340626.525,-599.600
580862.831,4340525.958,-597.300
580862.831,4340425.390,-594.900
580862.831,4340324.823,-593.900
580862.831,4340224.255,-593.300
580862.831,4340123.688,-592.400
580862.831,4340023.121,-592.500
580862.831,4339922.553,-593.700
580862.831,4339821.986,-595.600
580862.831,4339721.419,-597.500
580862.831,4339620.851,-598.300
580862.831,4339520.284,-598.500
580862.831,4339419.716,-598.300
580862.831,4339319.149,-597.700
580862.831,4339218.582,-597.500
580862.831,4339118.014,-597.600
580862.831,4339017.447,-598.100
580862.831,4338916.880,-599.300
580862.831,4338816.312,-600.800
580862.831,4338715.745,-603.300
580862.831,4338615.177,-607.000
580862.831,4338514.610,-610.300
580862.831,4338414.043,-611.700
580862.831,4338313.475,-612.000
580862.831,4338212.908,-611.800
580862.831,4338112.341,-610.900
580862.831,4338011.773,-610.900
580862.831,4337911.206,-613.100
580862.831,4337810.638,-615.900
580862.831,4337710.071,-617.700
580862.831,4337609.504,-619.100
580862.831,4337508.936,-620.000
580862.831,4337408.369,-619.700
580862.831,4337307.802,-619.500
580862.831,4337207.234,-621.100
580862.831,4337106.667,-622.900
580862.831,4337006.099,-623.300
580862.831,4336905.532,-623.200
580862.831,4336804.965,-623.600
580862.831,4336704.397,-624.700
580862.831,4336603.830,-626.000
580862.831,4336503.263,-627.400
580862.831,4336402.695,-628.900
580862.831,4336302.128,-630.800
580862.831,4336201.560,-632.500
580862.831,4336100.993,-633.400
580862.831,4336000.426,-634.100
580963.196,4363053.050,-140.300
580963.196,4362952.482,-141.500
580963.196,4362851.915,-143.200
580963.196,4362751.347,-145.700
580963.196,4362650.780,-147.400
580963.196,4362550.213,-147.900
580963.196,4362449.645,-148.400
580963.196,4362349.078,-149.500
580963.196,4362248.511,-152.600
580963.196,4362147.943,-157.400
580963.196,4362047.376,-161.100
580963.196,4361946.808,-160.300
580963.196,4361846.241,-159.800
580963.196,4361745.674,-165.600
580963.196,4361645.106,-176.200
580963.196,4361544.539,-183.800
580963.196,4361443.972,-183.700
580963.196,4361343.404,-181.600
580963.196,4361242.837,-180.900
580963.196,4361142.269,-181.200
580963.196,4361041.702,-181.200
580963.196,4360941.135,-181.000
580963.196,4360840.567,-181.600
580963.196,4360740.000,-182.500
580963.196,4360639.433,-183.600
580963.196,4360538.865,-184.800
580963.196,4360438.298,-186.400
580963.196,4360337.730,-188.300
580963.196,4360237.163,-190.400
580963.196,4360136.596,-192.900
580963.196,4360036.028,-196.800
580963.196,4359935.461,-202.200
580963.196,4359834.894,-208.900
580963.196,4359734.326,-216.000
580963.196,4359633.759,-222.700
580963.196,4359533.191,-228.000
580963.196,4359432.624,-233.300
580963.196,4359332.057,-239.800
580963.196,4359231.489,-246.100
580963.196,4359130.922,-249.300
580963.196,4359030.355,-250.300
580963.196,4358929.787,-253.200
580963.196,4358829.220,-257.400
580963.196,4358728.652,-262.000
580963.196,4358628.085,-266.100
580963.196,4358527.518,-270.000
580963.196,4358426.950,-275.100
580963.196,4358326.383,-280.300
580963.196,4358225.816,-285.000
580963.196,4358125.248,-289.700
580963.196,4358024.681,-294.600
580963.196,4357924.113,-300.500
580963.196,4357823.546,-306.400
580963.196,4357722.979,-310.800
580963.196,4357622.411,-314.700
580963.196,4357521.844,-319.000
580963.196,4357421.277,-323.300
580963.196,4357320.709,-327.800
580963.196,4357220.142,-331.800
580963.196,4357119.574,-336.700
580963.196,4357019.007,-341.000
580963.196,4356918.440,-344.800
580963.196,4356817.872,-348.600
580963.196,4356717.305,-352.700
580963.196,4356616.738,-357.300
580963.196,4356516.170,-361.200
580963.196,4356415.603,-364.600
580963.196,4356315.035,-368.200
580963.196,4356214.468,-371.100
580963.196,4356113.901,-372.400
580963.196,4356013.333,-373.400
580963.196,4355912.766,-376.700
580963.196,4355812.199,-381.100
580963.196,4355711.631,-386.100
580963.196,4355611.064,-392.300
580963.196,4355510.496,-397.800
580963.196,4355409.929,-401.800
580963.196,4355309.362,-399.300
580963.196,4355208.794,-403.500
580963.196,4355108.227,-407.900
580963.196,4355007.660,-413.600
580963.196,4354907.092,-420.900
580963.196,4354806.525,-427.700
580963.196,4354705.957,-436.700
580963.196,4354605.390,-439.100
580963.196,4354504.823,-437.800
580963.196,4354404.255,-438.400
580963.196,4354303.688,-439.900
580963.196,4354203.121,-442.200
580963.196,4354102.553,-445.000
580963.196,4354001.986,-448.200
580963.196,4353901.418,-451.700
580963.196,4353800.851,-454.100
580963.196,4353700.284,-458.400
580963.196,4353599.716,-463.900
580963.196,4353499.149,-481.300
580963.196,4353398.582,-479.400
580963.196,4353298.014,-473.000
580963.196,4353197.447,-475.000
580963.196,4353096.879,-475.800
580963.196,4352996.312,-477.200
580963.196,4352895.745,-479.100
580963.196,4352795.177,-481.300
580963.196,4352694.610,-483.900
580963.196,4352594.043,-486.800
580963.196,4352493.475,-489.300
580963.196,4352392.908,-491.000
580963.196,4352292.340,-492.700
580963.196,4352191.773,-495.800
580963.196,4352091.206,-501.900
580963.196,4351990.638,-518.300
580963.196,4351890.071,-524.300
580963.196,4351789.504,-510.300
580963.196,4351688.936,-511.200
580963.196,4351588.369,-516.100
580963.196,4351487.801,-519.700
580963.196,4351387.234,-522.900
580963.196,4351286.667,-524.800
580963.196,4351186.099,-526.500
580963.196,4351085.532,-528.000
580963.196,4350984.965,-528.900
580963.196,4350884.397,-529.400
580963.196,4350783.830,-529.700
580963.196,4350683.262,-531.700
580963.196,4350582.695,-533.700
580963.196,4350482.128,-534.800
580963.196,4350381.560,-536.700
580963.196,4350280.993,-538.400
580963.196,4350180.426,-540.800
580963.196,4350079.858,-541.700
580963.196,4349979.291,-542.200
580963.196,4349878.723,-545.100
580963.196,4349778.156,-546.200
580963.196,4349677.589,-547.900
580963.196,4349577.021,-549.400
580963.196,4349476.454,-550.600
580963.196,4349375.887,-552.200
580963.196,4349275.319,-552.800
580963.196,4349174.752,-554.500
580963.196,4349074.184,-556.700
580963.196,4348973.617,-558.100
580963.196,4348873.050,-560.000
580963.196,4348772.482,-562.200
580963.196,4348671.915,-564.500
580963.196,4348571.348,-567.300
580963.196,4348470.780,-568.900
580963.196,4348370.213,-569.700
580963.196,4348269.645,-570.700
580963.196,4348169.078,-570.300
580963.196,4348068.511,-572.700
580963.196,4347967.943,-575.400
580963.196,4347867.376,-578.300
580963.196,4347766.809,-580.900
580963.196,4347666.241,-581.900
580963.196,4347565.674,-582.800
580963.196,4347465.106,-584.700
580963.196,4347364.539,-586.300
580963.196,4347263.972,-586.700
580963.196,4347163.404,-587.400
580963.196,4347062.837,-588.700
580963.196,4346962.270,-590.300
580963.196,4346861.702,-591.300
580963.196,4346761.135,-591.900
580963.196,4346660.567,-592.300
580963.196,4346560.000,-592.000
580963.196,4346459.433,-591.200
580963.196,4346358.865,-591.700
580963.196,4346258.298,-593.900
580963.196,4346157.731,-596.500
580963.196,4346057.163,-598.600
580963.196,4345956.596,-600.900
580963.196,4345856.028,-602.300
580963.196,4345755.461,-602.900
580963.196,4345654.894,-602.200
580963.196,4345554.326,-601.100
580963.196,4345453.759,-601.300
580963.196,4345353.192,-601.600
580963.196,4345252.624,-602.700
580963.196,4345152.057,-603.500
580963.196,4345051.489,-604.500
580963.196,4344950.922,-606.200
580963.196,4344850.355,-607.800
580963.196,4344749.787,-609.900
580963.196,4344649.220,-611.900
580963.196,4344548.653,-613.100
580963.196,4344448.085,-613.400
580963.196,4344347.518,-613.500
580963.196,4344246.950,-613.300
580963.196,4344146.383,-612.900
580963.196,4344045.816,-611.500
580963.196,4343945.248,-609.700
580963.196,4343844.681,-608.100
580963.196,4343744.114,-606.600
580963.196,4343643.546,-605.800
580963.196,4343542.979,-605.200
580963.196,4343442.411,-604.100
580963.196,4343341.844,-601.800
580963.196,4343241.277,-599.100
580963.196,4343140.709,-595.900
580963.196,4343040.142,-592.700
580963.196,4342939.575,-591.600
580963.196,4342839.007,-591.300
580963.196,4342738.440,-588.200
580963.196,4342637.872,-585.900
580963.196,4342537.305,-586.600
580963.196,4342436.738,-588.200
580963.196,4342336.170,-590.700
580963.196,4342235.603,-594.100
580963.196,4342135.036,-594.900
580963.196,4342034.468,-592.900
580963.196,4341933.901,-589.800
580963.196,4341833.333,-588.200
580963.196,4341732.766,-588.900
580963.196,4341632.199,-592.100
580963.196,4341531.631,-596.800
580963.196,4341431.064,-598.300
580963.196,4341330.497,-597.800
580963.196,4341229.929,-597.500
580963.196,4341129.362,-597.600
580963.196,4341028.794,-598.200
580963.196,4340928.227,-598.000
580963.196,4340827.660,-597.800
580963.196,4340727.092,-598.000
580963.196,4340626.525,-598.000
580963.196,4340525.958,-597.100
580963.196,4340425.390,-595.400
580963.196,4340324.823,-593.300
580963.196,4340224.255,-590.700
580963.196,4340123.688,-588.000
580963.196,4340023.121,-587.200
580963.196,4339922.553,-588.500
580963.196,4339821.986,-591.100
580963.196,4339721.419,-593.200
580963.196,4339620.851,-594.100
580963.196,4339520.284,-594.400
580963.196,4339419.716,-594.400
580963.196,4339319.149,-594.500
580963.196,4339218.582,-594.900
580963.196,4339118.014,-595.500
580963.196,4339017.447,-596.800
580963.196,4338916.880,-599.200
580963.196,4338816.312,-601.500
580963.196,4338715.745,-603.800
580963.196,4338615.177,-606.400
580963.196,4338514.610,-608.700
580963.196,4338414.043,-609.900
580963.196,4338313.475,-610.300
580963.196,4338212.908,-609.900
580963.196,4338112.341,-609.300
580963.196,4338011.773,-610.300
580963.196,4337911.206,-613.100
580963.196,4337810.638,-615.800
580963.196,4337710.071,-617.500
580963.196,4337609.504,-618.200
580963.196,4337508.936,-618.200
580963.196,4337408.369,-617.700
580963.196,4337307.802,-618.300
580963.196,4337207.234,-620.500
580963.196,4337106.667,-621.800
580963.196,4337006.099,-621.600
580963.196,4336905.532,-621.500
580963.196,4336804.965,-622.300
580963.196,4336704.397,-623.500
580963.196,4336603.830,-624.800
580963.196,4336503.263,-626.400
580963.196,4336402.695,-628.100
580963.196,4336302.128,-630.000
580963.196,4336201.560,-631.400
580963.196,4336100.993,-632.100
580963.196,4336000.426,-632.600
581063.562,4362751.347,-140.000
581063.562,4362650.780,-142.000
581063.562,4362550.213,-143.700
581063.562,4362449.645,-144.900
581063.562,4362349.078,-145.700
581063.562,4362248.511,-146.400
581063.562,4362147.943,-147.500
581063.562,4362047.376,-148.600
581063.562,4361946.808,-149.800
581063.562,4361846.241,-151.700
581063.562,4361745.674,-155.400
581063.562,4361645.106,-163.100
581063.562,4361544.539,-170.100
581063.562,4361443.972,-171.700
581063.562,4361343.404,-170.000
581063.562,4361242.837,-168.600
581063.562,4361142.269,-168.400
581063.562,4361041.702,-168.600
581063.562,4360941.135,-169.000
581063.562,4360840.567,-170.000
581063.562,4360740.000,-171.300
581063.562,4360639.433,-172.900
581063.562,4360538.865,-175.100
581063.562,4360438.298,-177.600
581063.562,4360337.730,-180.300
581063.562,4360237.163,-183.000
581063.562,4360136.596,-186.000
581063.562,4360036.028,-190.000
581063.562,4359935.461,-195.500
581063.562,4359834.894,-202.000
581063.562,4359734.326,-209.000
581063.562,4359633.759,-215.700
581063.562,4359533.191,-221.600
581063.562,4359432.624,-227.900
581063.562,4359332.057,-235.100
581063.562,4359231.489,-240.400
581063.562,4359130.922,-242.500
581063.562,4359030.355,-243.800
581063.562,4358929.787,-247.100
581063.562,4358829.220,-250.500
581063.562,4358728.652,-254.500
581063.562,4358628.085,-259.000
581063.562,4358527.518,-263.900
581063.562,4358426.950,-269.200
581063.562,4358326.383,-274.400
581063.562,4358225.816,-279.400
581063.562,4358125.248,-284.800
581063.562,4358024.681,-291.400
581063.562,4357924.113,-297.700
581063.562,4357823.546,-302.600
581063.562,4357722.979,-306.100
581063.562,4357622.411,-310.300
581063.562,4357521.844,-314.900
581063.562,4357421.277,-319.200
581063.562,4357320.709,-322.900
581063.562,4357220.142,-327.300
581063.562,4357119.574,-332.200
581063.562,4357019.007,-336.600
581063.562,4356918.440,-340.200
581063.562,4356817.872,-343.800
581063.562,4356717.305,-348.400
581063.562,4356616.738,-352.500
581063.562,4356516.170,-355.100
581063.562,4356415.603,-358.500
581063.562,4356315.035,-361.800
581063.562,4356214.468,-364.800
581063.562,4356113.901,-366.700
581063.562,4356013.333,-368.200
581063.562,4355912.766,-372.200
581063.562,4355812.199,-376.800
581063.562,4355711.631,-383.600
581063.562,4355611.064,-391.800
581063.562,4355510.496,-393.800
581063.562,4355409.929,-394.200
581063.562,4355309.362,-398.900
581063.562,4355208.794,-405.300
581063.562,4355108.227,-410.400
581063.562,4355007.660,-415.900
581063.562,4354907.092,-422.700
581063.562,4354806.525,-430.500
581063.562,4354705.957,-435.200
581063.562,4354605.390,-428.400
581063.562,4354504.823,-430.400
581063.562,4354404.255,-432.000
581063.562,4354303.688,-434.200
581063.562,4354203.121,-436.800
581063.562,4354102.553,-440.300
581063.562,4354001.986,-443.900
581063.562,4353901.418,-447.700
581063.562,4353800.851,-452.500
581063.562,4353700.284,-465.200
581063.562,4353599.716,-470.700
581063.562,4353499.149,-474.700
581063.562,4353398.582,-464.900
581063.562,4353298.014,-467.600
581063.562,4353197.447,-471.600
581063.562,4353096.879,-473.100
581063.562,4352996.312,-474.100
581063.562,4352895.745,-475.600
581063.562,4352795.177,-478.400
581063.562,4352694.610,-481.300
581063.562,4352594.043,-484.000
581063.562,4352493.475,-486.300
581063.562,4352392.908,-487.400
581063.562,4352292.340,-489.300
581063.562,4352191.773,-495.100
581063.562,4352091.206,-507.300
581063.562,4351990.638,-521.500
581063.562,4351890.071,-510.500
581063.562,4351789.504,-506.500
581063.562,4351688.936,-510.900
581063.562,4351588.369,-517.100
581063.562,4351487.801,-519.900
581063.562,4351387.234,-521.400
581063.562,4351286.667,-522.400
581063.562,4351186.099,-523.600
581063.562,4351085.532,-525.000
581063.562,4350984.965,-525.600
581063.562,4350884.397,-526.300
581063.562,4350783.830,-526.900
581063.562,4350683.262,-529.000
581063.562,4350582.695,-531.300
581063.562,4350482.128,-533.200
581063.562,4350381.560,-534.700
581063.562,4350280.993,-536.100
581063.562,4350180.426,-538.100
581063.562,4350079.858,-539.100
581063.562,4349979.291,-539.500
581063.562,4349878.723,-542.200
581063.562,4349778.156,-544.600
581063.562,4349677.589,-546.500
581063.562,4349577.021,-547.300
581063.562,4349476.454,-548.600
581063.562,4349375.887,-550.800
581063.562,4349275.319,-551.200
581063.562,4349174.752,-552.600
581063.562,4349074.184,-554.100
581063.562,4348973.617,-555.800
581063.562,4348873.050,-557.700
581063.562,4348772.482,-560.100
581063.562,4348671.915,-562.800
581063.562,4348571.348,-565.000
581063.562,4348470.780,-566.500
581063.562,4348370.213,-566.800
581063.562,4348269.645,-566.600
581063.562,4348169.078,-567.200
581063.562,4348068.511,-570.000
581063.562,4347967.943,-572.800
581063.562,4347867.376,-575.300
581063.562,4347766.809,-577.900
581063.562,4347666.241,-579.400
581063.562,4347565.674,-580.700
581063.562,4347465.106,-582.500
581063.562,4347364.539,-583.800
581063.562,4347263.972,-584.400
581063.562,4347163.404,-585.000
581063.562,4347062.837,-587.000
581063.562,4346962.270,-588.500
581063.562,4346861.702,-589.600
581063.562,4346761.135,-590.100
581063.562,4346660.567,-590.100
581063.562,4346560.000,-589.400
581063.562,4346459.433,-589.300
581063.562,4346358.865,-589.800
581063.562,4346258.298,-592.000
581063.562,4346157.731,-594.400
581063.562,4346057.163,-595.600
581063.562,4345956.596,-598.200
581063.562,4345856.028,-599.600
581063.562,4345755.461,-599.100
581063.562,4345654.894,-598.600
581063.562,4345554.326,-598.400
581063.562,4345453.759,-598.800
581063.562,4345353.192,-598.800
581063.562,4345252.624,-600.200
581063.562,4345152.057,-601.200
581063.562,4345051.489,-601.900
581063.562,4344950.922,-603.600
581063.562,4344850.355,-605.500
581063.562,4344749.787,-607.800
581063.562,4344649.220,-609.600
581063.562,4344548.653,-610.800
581063.562,4344448.085,-611.600
581063.562,4344347.518,-611.400
581063.562,4344246.950,-611.100
581063.562,4344146.383,-610.500
581063.562,4344045.816,-609.100
581063.562,4343945.248,-607.800
581063.562,4343844.681,-606.400
581063.562,4343744.114,-605.200
581063.562,4343643.546,-604.400
581063.562,4343542.979,-604.100
581063.562,4343442.411,-603.400
581063.562,4343341.844,-601.600
581063.562,4343241.277,-598.900
581063.562,4343140.709,-595.400
581063.562,4343040.142,-592.200
581063.562,4342939.575,-590.800
581063.562,4342839.007,-589.300
581063.562,4342738.440,-585.800
581063.562,4342637.872,-584.000
581063.562,4342537.305,-585.200
581063.562,4342436.738,-587.100
581063.562,4342336.170,-589.500
581063.562,4342235.603,-592.000
581063.562,4342135.036,-592.000
581063.562,4342034.468,-589.400
581063.562,4341933.901,-586.000
581063.562,4341833.333,-584.400
581063.562,4341732.766,-586.300
581063.562,4341632.199,-590.500
581063.562,4341531.631,-594.600
581063.562,4341431.064,-595.200
581063.562,4341330.497,-594.100
581063.562,4341229.929,-593.000
581063.562,4341129.362,-592.600
581063.562,4341028.794,-593.400
581063.562,4340928.227,-593.900
581063.562,4340827.660,-594.000
581063.562,4340727.092,-594.000
581063.562,4340626.525,-593.400
581063.562,4340525.958,-593.200
581063.562,4340425.390,-592.700
581063.562,4340324.823,-590.500
581063.562,4340224.255,-587.100
581063.562,4340123.688,-584.400
581063.562,4340023.121,-583.900
581063.562,4339922.553,-585.500
581063.562,4339821.986,-587.700
581063.562,4339721.419,-589.500
581063.562,4339620.851,-590.600
581063.562,4339520.284,-591.300
581063.562,4339419.716,-592.000
581063.562,4339319.149,-592.500
581063.562,4339218.582,-593.300
581063.562,4339118.014,-594.400
581063.562,4339017.447,-596.500
581063.562,4338916.880,-599.500
581063.562,4338816.312,-601.900
581063.562,4338715.745,-603.600
581063.562,4338615.177,-605.000
581063.562,4338514.610,-606.100
581063.562,4338414.043,-607.200
581063.562,4338313.475,-608.200
581063.562,4338212.908,-608.600
581063.562,4338112.341,-609.300
581063.562,4338011.773,-611.000
581063.562,4337911.206,-613.000
581063.562,4337810.638,-614.800
581063.562,4337710.071,-616.300
581063.562,4337609.504,-616.900
581063.562,4337508.936,-616.300
581063.562,4337408.369,-615.900
581063.562,4337307.802,-617.200
581063.562,4337207.234,-619.300
581063.562,4337106.667,-620.100
581063.562,4337006.099,-619.900
581063.562,4336905.532,-620.400
581063.562,4336804.965,-621.500
581063.562,4336704.397,-622.400
581063.562,4336603.830,-623.500
581063.562,4336503.263,-625.100
581063.562,4336402.695,-627.000
581063.562,4336302.128,-628.500
581063.562,4336201.560,-629.700
581063.562,4336100.993,-630.700
581063.562,4336000.426,-631.300
581163.927,4362550.213,-140.600
581163.927,4362449.645,-142.200
581163.927,4362349.078,-143.200
581163.927,4362248.511,-143.700
581163.927,4362147.943,-144.300
581163.927,4362047.376,-145.100
581163.927,4361946.808,-146.100
581163.927,4361846.241,-147.400
581163.927,4361745.674,-149.400
581163.927,4361645.106,-152.500
581163.927,4361544.539,-157.500
581163.927,4361443.972,-159.900
581163.927,4361343.404,-159.000
581163.927,4361242.837,-157.600
581163.927,4361142.269,-157.200
581163.927,4361041.702,-157.400
581163.927,4360941.135,-158.000
581163.927,4360840.567,-158.900
581163.927,4360740.000,-160.200
581163.927,4360639.433,-162.100
581163.927,4360538.865,-164.600
581163.927,4360438.298,-167.500
581163.927,4360337.730,-170.900
581163.927,4360237.163,-174.800
581163.927,4360136.596,-178.800
581163.927,4360036.028,-183.400
581163.927,4359935.461,-189.000
581163.927,4359834.894,-195.300
581163.927,4359734.326,-202.000
581163.927,4359633.759,-208.900
581163.927,4359533.191,-215.700
581163.927,4359432.624,-222.500
581163.927,4359332.057,-229.000
581163.927,4359231.489,-233.100
581163.927,4359130.922,-235.100
581163.927,4359030.355,-236.600
581163.927,4358929.787,-239.700
581163.927,4358829.220,-242.700
581163.927,4358728.652,-246.800
581163.927,4358628.085,-252.000
581163.927,4358527.518,-257.600
581163.927,4358426.950,-263.100
581163.927,4358326.383,-268.800
581163.927,4358225.816,-274.400
581163.927,4358125.248,-281.200
581163.927,4358024.681,-288.200
581163.927,4357924.113,-293.400
581163.927,4357823.546,-297.300
581163.927,4357722.979,-301.900
581163.927,4357622.411,-306.000
581163.927,4357521.844,-310.200
581163.927,4357421.277,-314.100
581163.927,4357320.709,-317.500
581163.927,4357220.142,-322.200
581163.927,4357119.574,-326.900
581163.927,4357019.007,-331.400
581163.927,4356918.440,-335.100
581163.927,4356817.872,-338.400
581163.927,4356717.305,-342.900
581163.927,4356616.738,-346.600
581163.927,4356516.170,-348.400
581163.927,4356415.603,-352.200
581163.927,4356315.035,-355.700
581163.927,4356214.468,-359.300
581163.927,4356113.901,-362.000
581163.927,4356013.333,-365.600
581163.927,4355912.766,-371.600
581163.927,4355812.199,-378.000
581163.927,4355711.631,-384.800
581163.927,4355611.064,-387.100
581163.927,4355510.496,-387.300
581163.927,4355409.929,-393.600
581163.927,4355309.362,-399.600
581163.927,4355208.794,-406.200
581163.927,4355108.227,-411.200
581163.927,4355007.660,-414.200
581163.927,4354907.092,-418.800
581163.927,4354806.525,-425.800
581163.927,4354705.957,-426.500
581163.927,4354605.390,-422.400
581163.927,4354504.823,-425.100
581163.927,4354404.255,-426.700
581163.927,4354303.688,-427.900
581163.927,4354203.121,-431.800
581163.927,4354102.553,-437.000
581163.927,4354001.986,-440.000
581163.927,4353901.418,-443.800
581163.927,4353800.851,-458.700
581163.927,4353700.284,-471.300
581163.927,4353599.716,-468.000
581163.927,4353499.149,-458.700
581163.927,4353398.582,-458.500
581163.927,4353298.014,-462.600
581163.927,4353197.447,-467.000
581163.927,4353096.879,-468.400
581163.927,4352996.312,-469.700
581163.927,4352895.745,-471.400
581163.927,4352795.177,-475.200
581163.927,4352694.610,-478.500
581163.927,4352594.043,-481.800
581163.927,4352493.475,-483.800
581163.927,4352392.908,-484.900
581163.927,4352292.340,-488.100
581163.927,4352191.773,-500.500
581163.927,4352091.206,-512.400
581163.927,4351990.638,-507.700
581163.927,4351890.071,-500.300
581163.927,4351789.504,-504.800
581163.927,4351688.936,-510.900
581163.927,4351588.369,-516.600
581163.927,4351487.801,-518.600
581163.927,4351387.234,-519.400
581163.927,4351286.667,-519.800
581163.927,4351186.099,-519.800
581163.927,4351085.532,-521.200
581163.927,4350984.965,-521.600
581163.927,4350884.397,-523.000
581163.927,4350783.830,-524.000
581163.927,4350683.262,-525.900
581163.927,4350582.695,-528.300
581163.927,4350482.128,-530.500
581163.927,4350381.560,-532.200
581163.927,4350280.993,-534.100
581163.927,4350180.426,-535.300
581163.927,4350079.858,-536.500
581163.927,4349979.291,-537.200
581163.927,4349878.723,-539.200
581163.927,4349778.156,-542.200
581163.927,4349677.589,-544.300
581163.927,4349577.021,-544.800
581163.927,4349476.454,-546.500
581163.927,4349375.887,-549.100
581163.927,4349275.319,-549.700
581163.927,4349174.752,-551.000
581163.927,4349074.184,-552.000
581163.927,4348973.617,-554.100
581163.927,4348873.050,-556.300
581163.927,4348772.482,-558.600
581163.927,4348671.915,-560.900
581163.927,4348571.348,-562.600
581163.927,4348470.780,-563.800
581163.927,4348370.213,-562.900
581163.927,4348269.645,-562.300
581163.927,4348169.078,-564.500
581163.927,4348068.511,-567.200
581163.927,4347967.943,-570.600
581163.927,4347867.376,-572.100
581163.927,4347766.809,-573.900
581163.927,4347666.241,-576.200
581163.927,4347565.674,-577.800
581163.927,4347465.106,-579.000
581163.927,4347364.539,-580.500
581163.927,4347263.972,-581.900
581163.927,4347163.404,-583.200
581163.927,4347062.837,-585.200
581163.927,4346962.270,-586.800
581163.927,4346861.702,-588.100
581163.927,4346761.135,-588.700
581163.927,4346660.567,-588.000
581163.927,4346560.000,-586.700
581163.927,4346459.433,-586.800
581163.927,4346358.865,-587.800
581163.927,4346258.298,-590.000
581163.927,4346157.731,-592.000
581163.927,4346057.163,-593.400
581163.927,4345956.596,-595.700
581163.927,4345856.028,-596.500
581163.927,4345755.461,-595.300
581163.927,4345654.894,-595.200
581163.927,4345554.326,-595.400
581163.927,4345453.759,-595.900
581163.927,4345353.192,-596.000
581163.927,4345252.624,-597.200
581163.927,4345152.057,-598.800
581163.927,4345051.489,-600.000
581163.927,4344950.922,-601.700
581163.927,4344850.355,-603.600
581163.927,4344749.787,-605.500
581163.927,4344649.220,-607.200
581163.927,4344548.653,-608.300
581163.927,4344448.085,-608.600
581163.927,4344347.518,-608.100
581163.927,4344246.950,-607.900
581163.927,4344146.383,-607.200
581163.927,4344045.816,-606.300
581163.927,4343945.248,-605.400
581163.927,4343844.681,-604.300
581163.927,4343744.114,-603.400
581163.927,4343643.546,-602.800
581163.927,4343542.979,-602.600
581163.927,4343442.411,-601.900
581163.927,4343341.844,-600.300
581163.927,4343241.277,-597.000
581163.927,4343140.709,-592.900
581163.927,4343040.142,-590.800
581163.927,4342939.575,-590.100
581163.927,4342839.007,-587.600
581163.927,4342738.440,-584.000
581163.927,4342637.872,-582.700
581163.927,4342537.305,-584.200
581163.927,4342436.738,-586.300
581163.927,4342336.170,-588.700
581163.927,4342235.603,-590.000
581163.927,4342135.036,-589.200
581163.927,4342034.468,-586.300
581163.927,4341933.901,-582.700
581163.927,4341833.333,-582.000
581163.927,4341732.766,-586.000
581163.927,4341632.199,-590.500
581163.927,4341531.631,-592.900
581163.927,4341431.064,-592.100
581163.927,4341330.497,-589.900
581163.927,4341229.929,-588.800
581163.927,4341129.362,-588.900
581163.927,4341028.794,-589.500
581163.927,4340928.227,-588.600
581163.927,4340827.660,-588.000
581163.927,4340727.092,-588.200
581163.927,4340626.525,-587.800
581163.927,4340525.958,-587.200
581163.927,4340425.390,-586.800
581163.927,4340324.823,-585.300
581163.927,4340224.255,-582.900
581163.927,4340123.688,-581.600
581163.927,4340023.121,-582.000
581163.927,4339922.553,-583.900
581163.927,4339821.986,-585.700
581163.927,4339721.419,-586.900
581163.927,4339620.851,-588.000
581163.927,4339520.284,-589.000
581163.927,4339419.716,-589.800
581163.927,4339319.149,-590.700
581163.927,4339218.582,-592.100
581163.927,4339118.014,-594.300
581163.927,4339017.447,-597.000
581163.927,4338916.880,-599.700
581163.927,4338816.312,-601.400
581163.927,4338715.745,-602.500
581163.927,4338615.177,-603.300
581163.927,4338514.610,-604.200
581163.927,4338414.043,-605.400
581163.927,4338313.475,-607.000
581163.927,4338212.908,-608.500
581163.927,4338112.341,-610.300
581163.927,4338011.773,-612.000
581163.927,4337911.206,-613.000
581163.927,4337810.638,-613.400
581163.927,4337710.071,-614.200
581163.927,4337609.504,-614.800
581163.927,4337508.936,-614.500
581163.927,4337408.369,-614.700
581163.927,4337307.802,-616.400
581163.927,4337207.234,-617.900
581163.927,4337106.667,-618.200
581163.927,4337006.099,-618.400
581163.927,4336905.532,-619.300
581163.927,4336804.965,-620.300
581163.927,4336704.397,-621.000
581163.927,4336603.830,-622.100
581163.927,4336503.263,-624.000
581163.927,4336402.695,-625.800
581163.927,4336302.128,-627.100
581163.927,4336201.560,-628.400
581163.927,4336100.993,-629.900
581163.927,4336000.426,-630.700
581264.292,4362349.078,-140.600
581264.292,4362248.511,-141.600
581264.292,4362147.943,-142.000
581264.292,4362047.376,-142.500
581264.292,4361946.808,-143.400
581264.292,4361846.241,-144.400
581264.292,4361745.674,-145.700
581264.292,4361645.106,-147.200
581264.292,4361544.539,-149.200
581264.292,4361443.972,-150.700
581264.292,4361343.404,-151.300
581264.292,4361242.837,-151.300
581264.292,4361142.269,-151.300
581264.292,4361041.702,-151.600
581264.292,4360941.135,-152.200
581264.292,4360840.567,-152.800
581264.292,4360740.000,-153.600
581264.292,4360639.433,-154.800
581264.292,4360538.865,-156.400
581264.292,4360438.298,-158.400
581264.292,4360337.730,-161.400
581264.292,4360237.163,-165.300
581264.292,4360136.596,-170.000
581264.292,4360036.028,-175.600
581264.292,4359935.461,-182.000
581264.292,4359834.894,-188.300
581264.292,4359734.326,-194.900
581264.292,4359633.759,-202.100
581264.292,4359533.191,-209.400
581264.292,4359432.624,-216.100
581264.292,4359332.057,-221.400
581264.292,4359231.489,-224.800
581264.292,4359130.922,-227.100
581264.292,4359030.355,-229.100
581264.292,4358929.787,-231.900
581264.292,4358829.220,-235.600
581264.292,4358728.652,-240.900
581264.292,4358628.085,-246.800
581264.292,4358527.518,-252.300
581264.292,4358426.950,-257.900
581264.292,4358326.383,-264.200
581264.292,4358225.816,-271.000
581264.292,4358125.248,-277.800
581264.292,4358024.681,-282.700
581264.292,4357924.113,-287.700
581264.292,4357823.546,-292.500
581264.292,4357722.979,-297.600
581264.292,4357622.411,-301.300
581264.292,4357521.844,-304.700
581264.292,4357421.277,-308.100
581264.292,4357320.709,-312.200
581264.292,4357220.142,-317.000
581264.292,4357119.574,-321.900
581264.292,4357019.007,-325.700
581264.292,4356918.440,-329.600
581264.292,4356817.872,-332.700
581264.292,4356717.305,-336.600
581264.292,4356616.738,-340.100
581264.292,4356516.170,-343.000
581264.292,4356415.603,-347.300
581264.292,4356315.035,-352.000
581264.292,4356214.468,-355.800
581264.292,4356113.901,-359.900
581264.292,4356013.333,-366.500
581264.292,4355912.766,-372.000
581264.292,4355812.199,-378.200
581264.292,4355711.631,-383.100
581264.292,4355611.064,-382.900
581264.292,4355510.496,-387.500
581264.292,4355409.929,-393.500
581264.292,4355309.362,-396.100
581264.292,4355208.794,-400.700
581264.292,4355108.227,-404.600
581264.292,4355007.660,-407.800
581264.292,4354907.092,-415.800
581264.292,4354806.525,-420.900
581264.292,4354705.957,-417.600
581264.292,4354605.390,-417.800
581264.292,4354504.823,-419.300
581264.292,4354404.255,-420.800
581264.292,4354303.688,-422.600
581264.292,4354203.121,-428.000
581264.292,4354102.553,-434.800
581264.292,4354001.986,-438.700
581264.292,4353901.418,-445.400
581264.292,4353800.851,-467.200
581264.292,4353700.284,-459.000
581264.292,4353599.716,-451.300
581264.292,4353499.149,-450.800
581264.292,4353398.582,-453.900
581264.292,4353298.014,-457.200
581264.292,4353197.447,-461.000
581264.292,4353096.879,-462.900
581264.292,4352996.312,-464.900
581264.292,4352895.745,-467.200
581264.292,4352795.177,-471.100
581264.292,4352694.610,-474.500
581264.292,4352594.043,-479.200
581264.292,4352493.475,-481.600
581264.292,4352392.908,-486.400
581264.292,4352292.340,-494.100
581264.292,4352191.773,-506.700
581264.292,4352091.206,-503.500
581264.292,4351990.638,-494.900
581264.292,4351890.071,-497.600
581264.292,4351789.504,-503.200
581264.292,4351688.936,-510.100
581264.292,4351588.369,-514.100
581264.292,4351487.801,-515.700
581264.292,4351387.234,-516.100
581264.292,4351286.667,-516.000
581264.292,4351186.099,-515.600
581264.292,4351085.532,-517.100
581264.292,4350984.965,-517.600
581264.292,4350884.397,-519.300
581264.292,4350783.830,-521.000
581264.292,4350683.262,-523.200
581264.292,4350582.695,-525.800
581264.292,4350482.128,-527.900
581264.292,4350381.560,-529.500
581264.292,4350280.993,-531.800
581264.292,4350180.426,-533.100
581264.292,4350079.858,-534.300
581264.292,4349979.291,-535.400
581264.292,4349878.723,-537.500
581264.292,4349778.156,-539.300
581264.292,4349677.589,-541.000
581264.292,4349577.021,-542.100
581264.292,4349476.454,-544.500
581264.292,4349375.887,-547.000
581264.292,4349275.319,-547.800
581264.292,4349174.752,-548.800
581264.292,4349074.184,-550.400
581264.292,4348973.617,-552.700
581264.292,4348873.050,-555.100
581264.292,4348772.482,-556.800
581264.292,4348671.915,-558.500
581264.292,4348571.348,-560.000
581264.292,4348470.780,-560.600
581264.292,4348370.213,-559.300
581264.292,4348269.645,-559.300
581264.292,4348169.078,-561.600
581264.292,4348068.511,-564.000
581264.292,4347967.943,-567.400
581264.292,4347867.376,-569.200
581264.292,4347766.809,-571.100
581264.292,4347666.241,-573.300
581264.292,4347565.674,-574.300
581264.292,4347465.106,-574.700
581264.292,4347364.539,-576.400
581264.292,4347263.972,-578.500
581264.292,4347163.404,-580.900
581264.292,4347062.837,-583.100
581264.292,4346962.270,-584.900
581264.292,4346861.702,-586.000
581264.292,4346761.135,-586.600
581264.292,4346660.567,-585.600
581264.292,4346560.000,-584.300
581264.292,4346459.433,-584.400
581264.292,4346358.865,-585.500
581264.292,4346258.298,-587.200
581264.292,4346157.731,-588.800
581264.292,4346057.163,-590.900
581264.292,4345956.596,-592.800
581264.292,4345856.028,-593.700
581264.292,4345755.461,-592.600
581264.292,4345654.894,-592.300
581264.292,4345554.326,-592.200
581264.292,4345453.759,-592.300
581264.292,4345353.192,-592.600
581264.292,4345252.624,-594.600
581264.292,4345152.057,-597.100
581264.292,4345051.489,-598.200
581264.292,4344950.922,-599.500
581264.292,4344850.355,-601.300
581264.292,4344749.787,-603.000
581264.292,4344649.220,-604.400
581264.292,4344548.653,-605.500
581264.292,4344448.085,-605.300
581264.292,4344347.518,-604.900
581264.292,4344246.950,-604.500
581264.292,4344146.383,-603.500
581264.292,4344045.816,-603.100
581264.292,4343945.248,-602.800
581264.292,4343844.681,-601.800
581264.292,4343744.114,-601.100
581264.292,4343643.546,-600.900
581264.292,4343542.979,-600.500
581264.292,4343442.411,-599.900
581264.292,4343341.844,-598.500
581264.292,4343241.277,-595.100
581264.292,4343140.709,-590.400
581264.292,4343040.142,-588.900
581264.292,4342939.575,-588.900
581264.292,4342839.007,-585.900
581264.292,4342738.440,-582.400
581264.292,4342637.872,-581.600
581264.292,4342537.305,-583.400
581264.292,4342436.738,-585.800
581264.292,4342336.170,-587.900
581264.292,4342235.603,-587.900
581264.292,4342135.036,-586.100
581264.292,4342034.468,-583.000
581264.292,4341933.901,-580.500
581264.292,4341833.333,-580.900
581264.292,4341732.766,-584.500
581264.292,4341632.199,-588.400
581264.292,4341531.631,-590.700
581264.292,4341431.064,-588.900
581264.292,4341330.497,-586.300
581264.292,4341229.929,-584.400
581264.292,4341129.362,-582.900
581264.292,4341028.794,-580.400
581264.292,4340928.227,-577.100
581264.292,4340827.660,-576.200
581264.292,4340727.092,-578.600
581264.292,4340626.525,-580.900
581264.292,4340525.958,-581.300
581264.292,4340425.390,-580.000
581264.292,4340324.823,-578.900
581264.292,4340224.255,-578.400
581264.292,4340123.688,-578.900
581264.292,4340023.121,-580.300
581264.292,4339922.553,-582.400
581264.292,4339821.986,-583.900
581264.292,4339721.419,-584.500
581264.292,4339620.851,-585.200
581264.292,4339520.284,-586.400
581264.292,4339419.716,-587.600
581264.292,4339319.149,-589.200
581264.292,4339218.582,-591.600
581264.292,4339118.014,-594.700
581264.292,4339017.447,-598.000
581264.292,4338916.880,-600.100
581264.292,4338816.312,-601.000
581264.292,4338715.745,-601.500
581264.292,4338615.177,-602.200
581264.292,4338514.610,-603.400
581264.292,4338414.043,-605.000
581264.292,4338313.475,-606.800
581264.292,4338212.908,-608.800
581264.292,4338112.341,-610.600
581264.292,4338011.773,-611.700
581264.292,4337911.206,-612.000
581264.292,4337810.638,-611.500
581264.292,4337710.071,-611.600
581264.292,4337609.504,-612.500
581264.292,4337508.936,-613.100
581264.292,4337408.369,-614.000
581264.292,4337307.802,-615.600
581264.292,4337207.234,-616.400
581264.292,4337106.667,-616.400
581264.292,4337006.099,-616.900
581264.292,4336905.532,-618.200
581264.292,4336804.965,-619.000
581264.292,4336704.397,-619.500
581264.292,4336603.830,-621.100
581264.292,4336503.263,-623.100
581264.292,4336402.695,-624.600
581264.292,4336302.128,-625.800
581264.292,4336201.560,-627.200
581264.292,4336100.993,-628.700
581264.292,4336000.426,-629.600
581364.657,4361846.241,-141.200
581364.657,4361745.674,-142.700
581364.657,4361645.106,-143.900
581364.657,4361544.539,-144.900
581364.657,4361443.972,-145.600
581364.657,4361343.404,-146.400
581364.657,4361242.837,-146.900
581364.657,4361142.269,-147.100
581364.657,4361041.702,-147.400
581364.657,4360941.135,-147.800
581364.657,4360840.567,-148.400
581364.657,4360740.000,-149.200
581364.657,4360639.433,-150.200
581364.657,4360538.865,-151.500
581364.657,4360438.298,-152.900
581364.657,4360337.730,-154.900
581364.657,4360237.163,-157.400
581364.657,4360136.596,-161.000
581364.657,4360036.028,-166.300
581364.657,4359935.461,-173.300
581364.657,4359834.894,-180.600
581364.657,4359734.326,-187.700
581364.657,4359633.759,-195.100
581364.657,4359533.191,-202.500
581364.657,4359432.624,-208.800
581364.657,4359332.057,-213.300
581364.657,4359231.489,-216.600
581364.657,4359130.922,-219.000
581364.657,4359030.355,-221.300
581364.657,4358929.787,-224.500
581364.657,4358829.220,-229.600
581364.657,4358728.652,-236.200
581364.657,4358628.085,-242.600
581364.657,4358527.518,-247.900
581364.657,4358426.950,-253.700
581364.657,4358326.383,-260.600
581364.657,4358225.816,-268.000
581364.657,4358125.248,-273.400
581364.657,4358024.681,-278.000
581364.657,4357924.113,-282.800
581364.657,4357823.546,-287.000
581364.657,4357722.979,-291.800
581364.657,4357622.411,-295.300
581364.657,4357521.844,-298.200
581364.657,4357421.277,-301.800
581364.657,4357320.709,-306.700
581364.657,4357220.142,-311.100
581364.657,4357119.574,-316.000
581364.657,4357019.007,-319.500
581364.657,4356918.440,-323.200
581364.657,4356817.872,-326.700
581364.657,4356717.305,-330.300
581364.657,4356616.738,-334.100
581364.657,4356516.170,-338.500
581364.657,4356415.603,-343.600
581364.657,4356315.035,-348.700
581364.657,4356214.468,-354.100
581364.657,4356113.901,-359.200
581364.657,4356013.333,-364.000
581364.657,4355912.766,-366.500
581364.657,4355812.199,-372.900
581364.657,4355711.631,-377.100
581364.657,4355611.064,-381.800
581364.657,4355510.496,-385.800
581364.657,4355409.929,-388.000
581364.657,4355309.362,-391.000
581364.657,4355208.794,-396.400
581364.657,4355108.227,-400.000
581364.657,4355007.660,-407.400
581364.657,4354907.092,-414.400
581364.657,4354806.525,-411.300
581364.657,4354705.957,-410.400
581364.657,4354605.390,-412.800
581364.657,4354504.823,-413.200
581364.657,4354404.255,-417.500
581364.657,4354303.688,-422.900
581364.657,4354203.121,-428.800
581364.657,4354102.553,-436.900
581364.657,4354001.986,-441.500
581364.657,4353901.418,-451.300
581364.657,4353800.851,-461.900
581364.657,4353700.284,-442.500
581364.657,4353599.716,-443.700
581364.657,4353499.149,-446.800
581364.657,4353398.582,-449.800
581364.657,4353298.014,-451.900
581364.657,4353197.447,-455.300
581364.657,4353096.879,-458.000
581364.657,4352996.312,-460.800
581364.657,4352895.745,-464.100
581364.657,4352795.177,-466.800
581364.657,4352694.610,-469.800
581364.657,4352594.043,-475.800
581364.657,4352493.475,-481.200
581364.657,4352392.908,-494.700
581364.657,4352292.340,-503.100
581364.657,4352191.773,-499.800
581364.657,4352091.206,-490.900
581364.657,4351990.638,-493.100
581364.657,4351890.071,-496.900
581364.657,4351789.504,-502.800
581364.657,4351688.936,-507.400
581364.657,4351588.369,-510.000
581364.657,4351487.801,-511.700
581364.657,4351387.234,-511.500
581364.657,4351286.667,-511.500
581364.657,4351186.099,-511.600
581364.657,4351085.532,-512.600
581364.657,4350984.965,-513.700
581364.657,4350884.397,-515.700
581364.657,4350783.830,-517.600
581364.657,4350683.262,-520.200
581364.657,4350582.695,-523.400
581364.657,4350482.128,-525.100
581364.657,4350381.560,-526.400
581364.657,4350280.993,-529.200
581364.657,4350180.426,-531.000
581364.657,4350079.858,-532.400
581364.657,4349979.291,-533.500
581364.657,4349878.723,-535.300
581364.657,4349778.156,-536.200
581364.657,4349677.589,-537.500
581364.657,4349577.021,-539.800
581364.657,4349476.454,-542.400
581364.657,4349375.887,-544.600
581364.657,4349275.319,-545.400
581364.657,4349174.752,-546.200
581364.657,4349074.184,-548.100
581364.657,4348973.617,-550.300
581364.657,4348873.050,-552.600
581364.657,4348772.482,-554.600
581364.657,4348671.915,-555.200
581364.657,4348571.348,-556.700
581364.657,4348470.780,-557.200
581364.657,4348370.213,-556.700
581364.657,4348269.645,-557.200
581364.657,4348169.078,-558.700
581364.657,4348068.511,-560.700
581364.657,4347967.943,-563.700
581364.657,4347867.376,-566.200
581364.657,4347766.809,-568.000
581364.657,4347666.241,-569.900
581364.657,4347565.674,-571.200
581364.657,4347465.106,-571.600
581364.657,4347364.539,-572.800
581364.657,4347263.972,-574.100
581364.657,4347163.404,-577.100
581364.657,4347062.837,-579.800
581364.657,4346962.270,-582.200
581364.657,4346861.702,-582.800
581364.657,4346761.135,-583.100
581364.657,4346660.567,-582.700
581364.657,4346560.000,-582.300
581364.657,4346459.433,-582.400
581364.657,4346358.865,-583.700
581364.657,4346258.298,-584.700
581364.657,4346157.731,-586.400
581364.657,4346057.163,-588.800
581364.657,4345956.596,-590.300
581364.657,4345856.028,-591.600
581364.657,4345755.461,-590.500
581364.657,4345654.894,-590.200
581364.657,4345554.326,-589.000
581364.657,4345453.759,-588.000
581364.657,4345353.192,-588.800
581364.657,4345252.624,-592.000
581364.657,4345152.057,-595.000
581364.657,4345051.489,-596.300
581364.657,4344950.922,-597.400
581364.657,4344850.355,-599.100
581364.657,4344749.787,-600.300
581364.657,4344649.220,-601.500
581364.657,4344548.653,-602.900
581364.657,4344448.085,-603.000
581364.657,4344347.518,-602.600
581364.657,4344246.950,-601.500
581364.657,4344146.383,-599.900
581364.657,4344045.816,-599.600
581364.657,4343945.248,-599.500
581364.657,4343844.681,-598.900
581364.657,4343744.114,-598.600
581364.657,4343643.546,-598.300
581364.657,4343542.979,-597.900
581364.657,4343442.411,-597.300
581364.657,4343341.844,-595.900
581364.657,4343241.277,-592.600
581364.657,4343140.709,-588.600
581364.657,4343040.142,-587.500
581364.657,4342939.575,-587.700
581364.657,4342839.007,-584.200
581364.657,4342738.440,-580.900
581364.657,4342637.872,-580.300
581364.657,4342537.305,-582.200
581364.657,4342436.738,-584.500
581364.657,4342336.170,-586.000
581364.657,4342235.603,-585.300
581364.657,4342135.036,-583.200
581364.657,4342034.468,-580.600
581364.657,4341933.901,-579.500
581364.657,4341833.333,-580.900
581364.657,4341732.766,-583.100
581364.657,4341632.199,-585.800
581364.657,4341531.631,-587.400
581364.657,4341431.064,-585.500
581364.657,4341330.497,-582.800
581364.657,4341229.929,-579.400
581364.657,4341129.362,-574.500
581364.657,4341028.794,-569.300
581364.657,4340928.227,-566.500
581364.657,4340827.660,-566.500
581364.657,4340727.092,-568.500
581364.657,4340626.525,-572.700
581364.657,4340525.958,-575.500
581364.657,4340425.390,-574.500
581364.657,4340324.823,-573.600
581364.657,4340224.255,-574.100
581364.657,4340123.688,-575.600
581364.657,4340023.121,-577.800
581364.657,4339922.553,-580.000
581364.657,4339821.986,-581.600
581364.657,4339721.419,-582.400
581364.657,4339620.851,-582.700
581364.657,4339520.284,-584.400
581364.657,4339419.716,-586.900
581364.657,4339319.149,-589.300
581364.657,4339218.582,-592.200
581364.657,4339118.014,-595.800
581364.657,4339017.447,-598.600
581364.657,4338916.880,-599.900
581364.657,4338816.312,-600.300
581364.657,4338715.745,-600.600
581364.657,4338615.177,-601.600
581364.657,4338514.610,-603.700
581364.657,4338414.043,-605.900
581364.657,4338313.475,-607.400
581364.657,4338212.908,-608.800
581364.657,4338112.341,-609.900
581364.657,4338011.773,-610.100
581364.657,4337911.206,-609.900
581364.657,4337810.638,-609.200
581364.657,4337710.071,-609.100
581364.657,4337609.504,-610.100
581364.657,4337508.936,-611.500
581364.657,4337408.369,-613.100
581364.657,4337307.802,-614.400
581364.657,4337207.234,-614.700
581364.657,4337106.667,-614.500
581364.657,4337006.099,-615.300
581364.657,4336905.532,-616.800
581364.657,4336804.965,-617.400
581364.657,4336704.397,-618.200
581364.657,4336603.830,-620.300
581364.657,4336503.263,-622.400
581364.657,4336402.695,-623.600
581364.657,4336302.128,-625.000
581364.657,4336201.560,-626.400
581364.657,4336100.993,-627.400
581364.657,4336000.426,-628.000
581465.023,4361544.539,-141.100
581465.023,4361443.972,-142.300
581465.023,4361343.404,-143.500
