554735.649,4360678.186,-572.300
554735.649,4360475.920,-574.500
554735.649,4360273.654,-580.900
554735.649,4360071.388,-591.100
554735.649,4359869.121,-592.300
554735.649,4359666.855,-589.800
554735.649,4359464.589,-586.900
554735.649,4359262.322,-583.300
554735.649,4359060.056,-580.100
554735.649,4358857.790,-579.000
554735.649,4358655.524,-582.300
554735.649,4358453.257,-589.000
554735.649,4358250.991,-599.800
554735.649,4358048.725,-617.100
554735.649,4357846.459,-635.500
554735.649,4357644.192,-660.000
554735.649,4357441.926,-680.900
554735.649,4357239.660,-696.300
554735.649,4357037.393,-709.900
554735.649,4356835.127,-717.800
554735.649,4356632.861,-729.200
554735.649,4356430.595,-748.000
554735.649,4356228.328,-768.800
554735.649,4356026.062,-784.600
554735.649,4355823.796,-792.200
554735.649,4355621.530,-797.100
554735.649,4355419.263,-803.000
554735.649,4355216.997,-811.900
554735.649,4355014.731,-823.800
554735.649,4354812.464,-832.600
554735.649,4354610.198,-838.900
554735.649,4354407.932,-852.500
554735.649,4354205.666,-862.800
554735.649,4354003.399,-864.400
554735.649,4353801.133,-868.500
554735.649,4353598.867,-870.700
554735.649,4353396.601,-872.000
554735.649,4353194.334,-873.100
554735.649,4352992.068,-875.100
554735.649,4352789.802,-880.600
554735.649,4352587.536,-886.700
554735.649,4352385.269,-891.900
554735.649,4352183.003,-893.300
554735.649,4351980.737,-890.900
554735.649,4351778.470,-888.200
554735.649,4351576.204,-885.900
554735.649,4351373.938,-886.500
554735.649,4351171.672,-888.100
554735.649,4350969.405,-891.000
554735.649,4350767.139,-893.700
554735.649,4350564.873,-895.900
554735.649,4350362.607,-897.600
554735.649,4350160.340,-900.100
554735.649,4349958.074,-903.800
554735.649,4349755.808,-906.600
554735.649,4349553.541,-908.100
554735.649,4349351.275,-910.500
554735.649,4349149.009,-910.800
554735.649,4348946.743,-910.300
554735.649,4348744.476,-911.600
554735.649,4348542.210,-916.100
554735.649,4348339.944,-919.900
554735.649,4348137.678,-923.900
554735.649,4347935.411,-927.500
554735.649,4347733.145,-930.800
554735.649,4347530.879,-934.100
554735.649,4347328.612,-936.900
554735.649,4347126.346,-937.900
554735.649,4346924.080,-936.000
554735.649,4346721.814,-933.400
554735.649,4346519.547,-930.600
554735.649,4346317.281,-927.500
554735.649,4346115.015,-924.100
554735.649,4345912.749,-920.900
554735.649,4345710.482,-918.700
554735.649,4345508.216,-916.400
554735.649,4345305.950,-914.600
554735.649,4345103.683,-913.100
554735.649,4344901.417,-911.800
554735.649,4344699.151,-909.500
554735.649,4344496.885,-905.200
554735.649,4344294.618,-902.500
554735.649,4344092.352,-901.100
554735.649,4343890.086,-900.900
554735.649,4343687.820,-903.200
554735.649,4343485.553,-905.200
554735.649,4343283.287,-906.000
554735.649,4343081.021,-907.400
554735.649,4342878.755,-908.600
554735.649,4342676.488,-905.800
554735.649,4342474.222,-896.500
554735.649,4342271.956,-888.300
554735.649,4342069.689,-891.000
554735.649,4341867.423,-902.500
554735.649,4341665.157,-912.400
554735.649,4341462.891,-919.500
554735.649,4341260.624,-922.800
554735.649,4341058.358,-917.600
554735.649,4340856.092,-903.800
554735.649,4340653.826,-879.600
554735.649,4340451.559,-851.300
554735.649,4340249.293,-830.100
554735.649,4340047.027,-820.800
554735.649,4339844.760,-819.600
554735.649,4339642.494,-820.500
554735.649,4339440.228,-820.100
554735.649,4339237.962,-818.200
554735.649,4339035.695,-815.900
554735.649,4338833.429,-813.100
554735.649,4338631.163,-807.500
554735.649,4338428.897,-797.400
554735.649,4338226.630,-783.200
554735.649,4338024.364,-770.000
554735.649,4337822.098,-760.900
554735.649,4337619.831,-756.100
554735.649,4337417.565,-754.400
554735.649,4337215.299,-753.800
554735.649,4337013.033,-754.700
554735.649,4336810.766,-756.400
554735.649,4336608.500,-757.100
554735.649,4336406.234,-756.500
554735.649,4336203.968,-755.400
554735.649,4336001.701,-756.500
554937.112,4367352.973,-501.460
554937.112,4367150.707,-503.660
554937.112,4366948.441,-506.600
554937.112,4366746.174,-514.600
554937.112,4366543.908,-522.500
554937.112,4366341.642,-530.800
554937.112,4366139.376,-539.900
554937.112,4365937.109,-545.900
554937.112,4365734.843,-547.400
554937.112,4365532.577,-547.500
554937.112,4365330.311,-548.700
554937.112,4365128.044,-552.000
554937.112,4364925.778,-556.900
554937.112,4364723.512,-561.500
554937.112,4364521.245,-565.600
554937.112,4364318.979,-569.400
554937.112,4364116.713,-573.100
554937.112,4363914.447,-575.900
554937.112,4363712.180,-579.600
554937.112,4363509.914,-586.000
554937.112,4363307.648,-593.500
554937.112,4363105.382,-597.600
554937.112,4362903.115,-598.800
554937.112,4362700.849,-597.400
554937.112,4362498.583,-596.100
554937.112,4362296.317,-598.500
554937.112,4362094.050,-598.900
554937.112,4361891.784,-598.600
554937.112,4361689.518,-594.600
554937.112,4361487.251,-590.000
554937.112,4361284.985,-586.000
554937.112,4361082.719,-584.600
554937.112,4360880.453,-586.500
554937.112,4360678.186,-590.100
554937.112,4360475.920,-596.100
554937.112,4360273.654,-602.600
554937.112,4360071.388,-606.400
554937.112,4359869.121,-606.800
554937.112,4359666.855,-605.600
554937.112,4359464.589,-604.600
554937.112,4359262.322,-605.800
554937.112,4359060.056,-608.700
554937.112,4358857.790,-612.900
554937.112,4358655.524,-620.000
554937.112,4358453.257,-630.000
554937.112,4358250.991,-641.000
554937.112,4358048.725,-656.600
554937.112,4357846.459,-669.900
554937.112,4357644.192,-683.400
554937.112,4357441.926,-699.600
554937.112,4357239.660,-711.900
554937.112,4357037.393,-724.600
554937.112,4356835.127,-733.400
554937.112,4356632.861,-743.700
554937.112,4356430.595,-758.600
554937.112,4356228.328,-773.800
554937.112,4356026.062,-784.500
554937.112,4355823.796,-790.700
554937.112,4355621.530,-794.000
554937.112,4355419.263,-797.700
554937.112,4355216.997,-804.000
554937.112,4355014.731,-811.700
554937.112,4354812.464,-817.000
554937.112,4354610.198,-819.800
554937.112,4354407.932,-829.500
554937.112,4354205.666,-836.400
554937.112,4354003.399,-842.000
554937.112,4353801.133,-849.800
554937.112,4353598.867,-852.300
554937.112,4353396.601,-854.300
554937.112,4353194.334,-856.600
554937.112,4352992.068,-859.000
554937.112,4352789.802,-862.300
554937.112,4352587.536,-864.900
554937.112,4352385.269,-867.200
554937.112,4352183.003,-867.100
554937.112,4351980.737,-864.700
554937.112,4351778.470,-859.800
554937.112,4351576.204,-859.300
554937.112,4351373.938,-863.600
554937.112,4351171.672,-866.900
554937.112,4350969.405,-873.900
554937.112,4350767.139,-878.100
554937.112,4350564.873,-881.500
554937.112,4350362.607,-883.800
554937.112,4350160.340,-887.300
554937.112,4349958.074,-892.000
554937.112,4349755.808,-896.000
554937.112,4349553.541,-896.800
554937.112,4349351.275,-896.700
554937.112,4349149.009,-897.600
554937.112,4348946.743,-899.300
554937.112,4348744.476,-902.100
554937.112,4348542.210,-906.700
554937.112,4348339.944,-910.400
554937.112,4348137.678,-914.700
554937.112,4347935.411,-917.600
554937.112,4347733.145,-920.300
554937.112,4347530.879,-923.900
554937.112,4347328.612,-926.700
554937.112,4347126.346,-927.700
554937.112,4346924.080,-927.000
554937.112,4346721.814,-924.500
554937.112,4346519.547,-922.500
554937.112,4346317.281,-920.100
554937.112,4346115.015,-916.500
554937.112,4345912.749,-913.400
554937.112,4345710.482,-911.300
554937.112,4345508.216,-908.700
554937.112,4345305.950,-906.600
554937.112,4345103.683,-905.200
554937.112,4344901.417,-904.100
554937.112,4344699.151,-901.700
554937.112,4344496.885,-897.600
554937.112,4344294.618,-894.700
554937.112,4344092.352,-893.300
554937.112,4343890.086,-893.300
554937.112,4343687.820,-895.300
554937.112,4343485.553,-897.700
554937.112,4343283.287,-900.500
554937.112,4343081.021,-903.000
554937.112,4342878.755,-903.100
554937.112,4342676.488,-897.700
554937.112,4342474.222,-887.300
554937.112,4342271.956,-879.500
554937.112,4342069.689,-881.400
554937.112,4341867.423,-892.500
554937.112,4341665.157,-907.300
554937.112,4341462.891,-920.300
554937.112,4341260.624,-926.600
554937.112,4341058.358,-926.400
554937.112,4340856.092,-921.800
554937.112,4340653.826,-907.900
554937.112,4340451.559,-879.600
554937.112,4340249.293,-846.400
554937.112,4340047.027,-823.300
554937.112,4339844.760,-812.400
554937.112,4339642.494,-810.100
554937.112,4339440.228,-811.200
554937.112,4339237.962,-811.600
554937.112,4339035.695,-810.200
554937.112,4338833.429,-807.800
554937.112,4338631.163,-804.700
554937.112,4338428.897,-799.300
554937.112,4338226.630,-790.000
554937.112,4338024.364,-777.500
554937.112,4337822.098,-764.800
554937.112,4337619.831,-754.500
554937.112,4337417.565,-749.200
554937.112,4337215.299,-748.000
554937.112,4337013.033,-748.700
554937.112,4336810.766,-751.400
554937.112,4336608.500,-753.900
554937.112,4336406.234,-754.500
554937.112,4336203.968,-753.500
554937.112,4336001.701,-753.500
555138.574,4367352.973,-501.940
555138.574,4367150.707,-503.620
555138.574,4366948.441,-502.500
555138.574,4366746.174,-511.600
555138.574,4366543.908,-520.000
555138.574,4366341.642,-527.200
555138.574,4366139.376,-534.600
555138.574,4365937.109,-541.400
555138.574,4365734.843,-545.300
555138.574,4365532.577,-547.100
555138.574,4365330.311,-548.800
555138.574,4365128.044,-552.100
555138.574,4364925.778,-557.200
555138.574,4364723.512,-563.300
555138.574,4364521.245,-570.600
555138.574,4364318.979,-576.000
555138.574,4364116.713,-579.900
555138.574,4363914.447,-584.600
555138.574,4363712.180,-591.000
555138.574,4363509.914,-599.700
555138.574,4363307.648,-608.800
555138.574,4363105.382,-614.700
555138.574,4362903.115,-617.600
555138.574,4362700.849,-619.900
555138.574,4362498.583,-621.400
555138.574,4362296.317,-621.900
555138.574,4362094.050,-620.300
555138.574,4361891.784,-619.900
555138.574,4361689.518,-618.100
555138.574,4361487.251,-612.100
555138.574,4361284.985,-602.800
555138.574,4361082.719,-597.300
555138.574,4360880.453,-596.500
555138.574,4360678.186,-599.900
555138.574,4360475.920,-604.500
555138.574,4360273.654,-608.500
555138.574,4360071.388,-609.600
555138.574,4359869.121,-610.500
555138.574,4359666.855,-611.300
555138.574,4359464.589,-612.200
555138.574,4359262.322,-614.800
555138.574,4359060.056,-622.300
555138.574,4358857.790,-632.100
555138.574,4358655.524,-643.900
555138.574,4358453.257,-656.100
555138.574,4358250.991,-667.000
555138.574,4358048.725,-676.400
555138.574,4357846.459,-683.100
555138.574,4357644.192,-692.400
555138.574,4357441.926,-706.700
555138.574,4357239.660,-720.600
555138.574,4357037.393,-731.500
555138.574,4356835.127,-738.700
555138.574,4356632.861,-747.600
555138.574,4356430.595,-758.600
555138.574,4356228.328,-769.900
555138.574,4356026.062,-778.500
555138.574,4355823.796,-782.800
555138.574,4355621.530,-784.600
555138.574,4355419.263,-789.400
555138.574,4355216.997,-795.100
555138.574,4355014.731,-800.300
555138.574,4354812.464,-805.100
555138.574,4354610.198,-807.600
555138.574,4354407.932,-812.200
555138.574,4354205.666,-817.200
555138.574,4354003.399,-827.600
555138.574,4353801.133,-837.600
555138.574,4353598.867,-842.100
555138.574,4353396.601,-846.400
555138.574,4353194.334,-847.900
555138.574,4352992.068,-850.500
555138.574,4352789.802,-852.900
555138.574,4352587.536,-854.400
555138.574,4352385.269,-854.100
555138.574,4352183.003,-852.200
555138.574,4351980.737,-849.600
555138.574,4351778.470,-845.600
555138.574,4351576.204,-845.000
555138.574,4351373.938,-847.700
555138.574,4351171.672,-852.300
555138.574,4350969.405,-858.600
555138.574,4350767.139,-861.800
555138.574,4350564.873,-865.900
555138.574,4350362.607,-869.600
555138.574,4350160.340,-874.100
555138.574,4349958.074,-879.200
555138.574,4349755.808,-883.300
555138.574,4349553.541,-884.900
555138.574,4349351.275,-885.800
555138.574,4349149.009,-887.600
555138.574,4348946.743,-890.900
555138.574,4348744.476,-894.700
555138.574,4348542.210,-899.300
555138.574,4348339.944,-902.600
555138.574,4348137.678,-905.500
555138.574,4347935.411,-907.500
555138.574,4347733.145,-910.800
555138.574,4347530.879,-913.800
555138.574,4347328.612,-916.300
555138.574,4347126.346,-917.800
555138.574,4346924.080,-917.300
555138.574,4346721.814,-915.500
555138.574,4346519.547,-914.000
555138.574,4346317.281,-911.400
555138.574,4346115.015,-909.000
555138.574,4345912.749,-907.800
555138.574,4345710.482,-906.500
555138.574,4345508.216,-902.600
555138.574,4345305.950,-898.800
555138.574,4345103.683,-896.100
555138.574,4344901.417,-894.700
555138.574,4344699.151,-893.700
555138.574,4344496.885,-892.000
555138.574,4344294.618,-889.600
555138.574,4344092.352,-888.100
555138.574,4343890.086,-888.100
555138.574,4343687.820,-889.500
555138.574,4343485.553,-891.700
555138.574,4343283.287,-894.500
555138.574,4343081.021,-897.200
555138.574,4342878.755,-897.500
555138.574,4342676.488,-893.300
555138.574,4342474.222,-885.100
555138.574,4342271.956,-876.600
555138.574,4342069.689,-877.000
555138.574,4341867.423,-888.300
555138.574,4341665.157,-904.700
555138.574,4341462.891,-919.700
555138.574,4341260.624,-927.200
555138.574,4341058.358,-928.300
555138.574,4340856.092,-927.600
555138.574,4340653.826,-922.700
555138.574,4340451.559,-905.500
555138.574,4340249.293,-874.500
555138.574,4340047.027,-841.800
555138.574,4339844.760,-817.100
555138.574,4339642.494,-802.500
555138.574,4339440.228,-797.700
555138.574,4339237.962,-796.500
555138.574,4339035.695,-796.900
555138.574,4338833.429,-796.200
555138.574,4338631.163,-792.500
555138.574,4338428.897,-788.600
555138.574,4338226.630,-783.900
555138.574,4338024.364,-778.000
555138.574,4337822.098,-768.200
555138.574,4337619.831,-755.300
555138.574,4337417.565,-746.200
555138.574,4337215.299,-743.200
555138.574,4337013.033,-743.100
555138.574,4336810.766,-744.900
555138.574,4336608.500,-747.900
555138.574,4336406.234,-750.100
555138.574,4336203.968,-751.100
555138.574,4336001.701,-752.000
555340.037,4367352.973,-502.420
555340.037,4367150.707,-503.580
555340.037,4366948.441,-503.254
555340.037,4366746.174,-508.700
555340.037,4366543.908,-517.800
555340.037,4366341.642,-525.100
555340.037,4366139.376,-531.300
555340.037,4365937.109,-537.900
555340.037,4365734.843,-543.100
555340.037,4365532.577,-546.100
555340.037,4365330.311,-548.200
555340.037,4365128.044,-551.500
555340.037,4364925.778,-556.200
555340.037,4364723.512,-561.600
555340.037,4364521.245,-568.500
555340.037,4364318.979,-575.200
555340.037,4364116.713,-580.800
555340.037,4363914.447,-589.000
555340.037,4363712.180,-600.700
555340.037,4363509.914,-611.600
555340.037,4363307.648,-619.000
555340.037,4363105.382,-623.400
555340.037,4362903.115,-628.500
555340.037,4362700.849,-632.900
555340.037,4362498.583,-635.400
555340.037,4362296.317,-637.700
555340.037,4362094.050,-638.600
555340.037,4361891.784,-638.100
555340.037,4361689.518,-635.400
555340.037,4361487.251,-631.800
555340.037,4361284.985,-626.000
555340.037,4361082.719,-619.900
555340.037,4360880.453,-616.800
555340.037,4360678.186,-617.500
555340.037,4360475.920,-618.900
555340.037,4360273.654,-620.300
555340.037,4360071.388,-619.000
555340.037,4359869.121,-618.800
555340.037,4359666.855,-620.500
555340.037,4359464.589,-622.200
555340.037,4359262.322,-624.700
555340.037,4359060.056,-631.000
555340.037,4358857.790,-640.100
555340.037,4358655.524,-650.800
555340.037,4358453.257,-662.200
555340.037,4358250.991,-673.300
555340.037,4358048.725,-682.000
555340.037,4357846.459,-687.600
555340.037,4357644.192,-693.900
555340.037,4357441.926,-704.300
555340.037,4357239.660,-718.800
555340.037,4357037.393,-731.400
555340.037,4356835.127,-739.900
555340.037,4356632.861,-746.100
555340.037,4356430.595,-753.800
555340.037,4356228.328,-760.300
555340.037,4356026.062,-765.700
555340.037,4355823.796,-771.300
555340.037,4355621.530,-773.500
555340.037,4355419.263,-777.600
555340.037,4355216.997,-783.500
555340.037,4355014.731,-790.000
555340.037,4354812.464,-794.800
555340.037,4354610.198,-799.300
555340.037,4354407.932,-802.800
555340.037,4354205.666,-810.800
555340.037,4354003.399,-820.300
555340.037,4353801.133,-829.000
555340.037,4353598.867,-835.800
555340.037,4353396.601,-842.200
555340.037,4353194.334,-843.600
555340.037,4352992.068,-846.900
555340.037,4352789.802,-847.900
555340.037,4352587.536,-849.400
555340.037,4352385.269,-847.800
555340.037,4352183.003,-847.600
555340.037,4351980.737,-846.900
555340.037,4351778.470,-844.500
555340.037,4351576.204,-843.600
555340.037,4351373.938,-845.900
555340.037,4351171.672,-848.000
555340.037,4350969.405,-850.200
555340.037,4350767.139,-852.600
555340.037,4350564.873,-856.500
555340.037,4350362.607,-860.900
555340.037,4350160.340,-864.600
555340.037,4349958.074,-871.500
555340.037,4349755.808,-874.600
555340.037,4349553.541,-878.400
555340.037,4349351.275,-880.500
555340.037,4349149.009,-883.200
555340.037,4348946.743,-886.800
555340.037,4348744.476,-889.800
555340.037,4348542.210,-892.400
555340.037,4348339.944,-894.500
555340.037,4348137.678,-897.000
555340.037,4347935.411,-899.100
555340.037,4347733.145,-901.900
555340.037,4347530.879,-904.000
555340.037,4347328.612,-906.300
555340.037,4347126.346,-908.300
555340.037,4346924.080,-908.100
555340.037,4346721.814,-906.800
555340.037,4346519.547,-905.200
555340.037,4346317.281,-905.500
555340.037,4346115.015,-904.000
555340.037,4345912.749,-902.400
555340.037,4345710.482,-899.900
555340.037,4345508.216,-896.200
555340.037,4345305.950,-892.500
555340.037,4345103.683,-889.900
555340.037,4344901.417,-888.800
555340.037,4344699.151,-887.500
555340.037,4344496.885,-886.500
555340.037,4344294.618,-886.100
555340.037,4344092.352,-885.600
555340.037,4343890.086,-884.800
555340.037,4343687.820,-884.400
555340.037,4343485.553,-885.600
555340.037,4343283.287,-888.200
555340.037,4343081.021,-890.500
555340.037,4342878.755,-891.200
555340.037,4342676.488,-889.400
555340.037,4342474.222,-884.300
555340.037,4342271.956,-876.900
555340.037,4342069.689,-874.800
555340.037,4341867.423,-884.900
555340.037,4341665.157,-902.900
555340.037,4341462.891,-919.000
555340.037,4341260.624,-927.600
555340.037,4341058.358,-929.300
555340.037,4340856.092,-929.400
555340.037,4340653.826,-927.700
555340.037,4340451.559,-919.700
555340.037,4340249.293,-897.500
555340.037,4340047.027,-863.700
555340.037,4339844.760,-830.300
555340.037,4339642.494,-805.200
555340.037,4339440.228,-791.700
555340.037,4339237.962,-785.200
555340.037,4339035.695,-782.000
555340.037,4338833.429,-779.200
555340.037,4338631.163,-775.400
555340.037,4338428.897,-772.000
555340.037,4338226.630,-768.900
555340.037,4338024.364,-765.700
555340.037,4337822.098,-761.000
555340.037,4337619.831,-753.300
555340.037,4337417.565,-744.800
555340.037,4337215.299,-739.300
555340.037,4337013.033,-737.900
555340.037,4336810.766,-739.000
555340.037,4336608.500,-741.300
555340.037,4336406.234,-744.000
555340.037,4336203.968,-746.900
555340.037,4336001.701,-749.800
555541.499,4367352.973,-502.900
555541.499,4367150.707,-503.540
555541.499,4366948.441,-504.008
555541.499,4366746.174,-506.800
555541.499,4366543.908,-515.800
555541.499,4366341.642,-523.400
555541.499,4366139.376,-529.400
555541.499,4365937.109,-534.900
555541.499,4365734.843,-539.900
555541.499,4365532.577,-543.900
555541.499,4365330.311,-547.600
555541.499,4365128.044,-552.200
555541.499,4364925.778,-557.100
555541.499,4364723.512,-561.200
555541.499,4364521.245,-564.800
555541.499,4364318.979,-568.600
555541.499,4364116.713,-576.700
555541.499,4363914.447,-589.500
555541.499,4363712.180,-603.200
555541.499,4363509.914,-615.200
555541.499,4363307.648,-624.000
555541.499,4363105.382,-629.900
555541.499,4362903.115,-637.000
555541.499,4362700.849,-642.400
555541.499,4362498.583,-645.100
555541.499,4362296.317,-647.600
555541.499,4362094.050,-649.000
555541.499,4361891.784,-648.700
555541.499,4361689.518,-647.000
555541.499,4361487.251,-645.100
555541.499,4361284.985,-645.000
555541.499,4361082.719,-644.300
555541.499,4360880.453,-640.800
555541.499,4360678.186,-639.100
555541.499,4360475.920,-639.700
555541.499,4360273.654,-640.400
555541.499,4360071.388,-638.500
555541.499,4359869.121,-637.500
555541.499,4359666.855,-637.600
555541.499,4359464.589,-639.800
555541.499,4359262.322,-639.800
555541.499,4359060.056,-643.300
555541.499,4358857.790,-651.600
555541.499,4358655.524,-661.100
555541.499,4358453.257,-671.500
555541.499,4358250.991,-683.100
555541.499,4358048.725,-693.500
555541.499,4357846.459,-697.900
555541.499,4357644.192,-701.900
555541.499,4357441.926,-709.100
555541.499,4357239.660,-719.600
555541.499,4357037.393,-730.900
555541.499,4356835.127,-739.200
555541.499,4356632.861,-743.200
555541.499,4356430.595,-748.200
555541.499,4356228.328,-753.200
555541.499,4356026.062,-758.200
555541.499,4355823.796,-763.800
555541.499,4355621.530,-764.900
555541.499,4355419.263,-767.000
555541.499,4355216.997,-771.100
555541.499,4355014.731,-776.800
555541.499,4354812.464,-782.400
555541.499,4354610.198,-787.500
555541.499,4354407.932,-794.100
555541.499,4354205.666,-803.300
555541.499,4354003.399,-812.700
555541.499,4353801.133,-822.100
555541.499,4353598.867,-829.600
555541.499,4353396.601,-835.400
555541.499,4353194.334,-837.700
555541.499,4352992.068,-840.000
555541.499,4352789.802,-842.000
555541.499,4352587.536,-845.900
555541.499,4352385.269,-847.200
555541.499,4352183.003,-848.800
555541.499,4351980.737,-849.100
555541.499,4351778.470,-847.900
555541.499,4351576.204,-847.700
555541.499,4351373.938,-847.500
555541.499,4351171.672,-846.300
555541.499,4350969.405,-845.700
555541.499,4350767.139,-846.700
555541.499,4350564.873,-850.800
555541.499,4350362.607,-852.800
555541.499,4350160.340,-856.500
555541.499,4349958.074,-860.900
555541.499,4349755.808,-866.000
555541.499,4349553.541,-870.600
555541.499,4349351.275,-875.300
555541.499,4349149.009,-880.100
555541.499,4348946.743,-882.800
555541.499,4348744.476,-884.700
555541.499,4348542.210,-886.200
555541.499,4348339.944,-888.100
555541.499,4348137.678,-889.900
555541.499,4347935.411,-891.900
555541.499,4347733.145,-893.500
555541.499,4347530.879,-895.100
555541.499,4347328.612,-897.500
555541.499,4347126.346,-899.000
555541.499,4346924.080,-899.100
555541.499,4346721.814,-899.700
555541.499,4346519.547,-899.400
555541.499,4346317.281,-898.600
555541.499,4346115.015,-897.500
555541.499,4345912.749,-895.400
555541.499,4345710.482,-892.700
555541.499,4345508.216,-889.900
555541.499,4345305.950,-886.900
555541.499,4345103.683,-885.500
555541.499,4344901.417,-884.000
555541.499,4344699.151,-882.800
555541.499,4344496.885,-882.900
555541.499,4344294.618,-882.700
555541.499,4344092.352,-882.900
555541.499,4343890.086,-882.400
555541.499,4343687.820,-880.800
555541.499,4343485.553,-880.800
555541.499,4343283.287,-882.100
555541.499,4343081.021,-884.000
555541.499,4342878.755,-885.600
555541.499,4342676.488,-885.300
555541.499,4342474.222,-882.700
555541.499,4342271.956,-877.700
555541.499,4342069.689,-874.800
555541.499,4341867.423,-880.100
555541.499,4341665.157,-895.500
555541.499,4341462.891,-914.900
555541.499,4341260.624,-927.700
555541.499,4341058.358,-930.000
555541.499,4340856.092,-930.100
555541.499,4340653.826,-929.600
555541.499,4340451.559,-925.800
555541.499,4340249.293,-911.600
555541.499,4340047.027,-882.700
555541.499,4339844.760,-846.000
555541.499,4339642.494,-813.000
555541.499,4339440.228,-792.600
555541.499,4339237.962,-782.800
555541.499,4339035.695,-776.000
555541.499,4338833.429,-770.200
555541.499,4338631.163,-765.500
555541.499,4338428.897,-761.500
555541.499,4338226.630,-758.000
555541.499,4338024.364,-754.300
555541.499,4337822.098,-751.200
555541.499,4337619.831,-747.600
555541.499,4337417.565,-742.200
555541.499,4337215.299,-737.100
555541.499,4337013.033,-734.100
555541.499,4336810.766,-733.600
555541.499,4336608.500,-734.600
555541.499,4336406.234,-737.800
555541.499,4336203.968,-742.900
555541.499,4336001.701,-746.700
555742.962,4367352.973,-503.380
555742.962,4367150.707,-503.500
555742.962,4366948.441,-504.762
555742.962,4366746.174,-504.000
555742.962,4366543.908,-512.900
555742.962,4366341.642,-520.900
555742.962,4366139.376,-527.200
555742.962,4365937.109,-532.500
555742.962,4365734.843,-536.900
555742.962,4365532.577,-541.400
555742.962,4365330.311,-546.900
555742.962,4365128.044,-552.700
555742.962,4364925.778,-557.400
555742.962,4364723.512,-560.900
555742.962,4364521.245,-563.200
555742.962,4364318.979,-565.500
555742.962,4364116.713,-573.900
555742.962,4363914.447,-589.000
555742.962,4363712.180,-605.300
555742.962,4363509.914,-618.300
555742.962,4363307.648,-626.900
555742.962,4363105.382,-633.800
555742.962,4362903.115,-642.200
555742.962,4362700.849,-646.800
555742.962,4362498.583,-649.100
555742.962,4362296.317,-652.600
555742.962,4362094.050,-655.000
555742.962,4361891.784,-656.200
555742.962,4361689.518,-657.600
555742.962,4361487.251,-659.600
555742.962,4361284.985,-661.000
555742.962,4361082.719,-661.500
555742.962,4360880.453,-662.500
555742.962,4360678.186,-666.000
555742.962,4360475.920,-668.000
555742.962,4360273.654,-665.900
555742.962,4360071.388,-661.700
555742.962,4359869.121,-659.900
555742.962,4359666.855,-660.600
555742.962,4359464.589,-662.600
555742.962,4359262.322,-660.300
555742.962,4359060.056,-661.900
555742.962,4358857.790,-670.300
555742.962,4358655.524,-679.000
555742.962,4358453.257,-689.000
555742.962,4358250.991,-699.200
555742.962,4358048.725,-705.700
555742.962,4357846.459,-708.800
555742.962,4357644.192,-713.400
555742.962,4357441.926,-719.300
555742.962,4357239.660,-728.200
555742.962,4357037.393,-734.700
555742.962,4356835.127,-737.800
555742.962,4356632.861,-739.000
555742.962,4356430.595,-741.300
555742.962,4356228.328,-744.800
555742.962,4356026.062,-750.900
555742.962,4355823.796,-756.100
555742.962,4355621.530,-757.600
555742.962,4355419.263,-758.000
555742.962,4355216.997,-760.600
555742.962,4355014.731,-764.700
555742.962,4354812.464,-769.200
555742.962,4354610.198,-773.300
555742.962,4354407.932,-778.700
555742.962,4354205.666,-788.400
555742.962,4354003.399,-797.000
555742.962,4353801.133,-806.700
555742.962,4353598.867,-817.100
555742.962,4353396.601,-824.100
555742.962,4353194.334,-829.200
555742.962,4352992.068,-834.800
555742.962,4352789.802,-838.900
555742.962,4352587.536,-842.700
555742.962,4352385.269,-847.400
555742.962,4352183.003,-851.800
555742.962,4351980.737,-851.700
555742.962,4351778.470,-851.600
555742.962,4351576.204,-850.700
555742.962,4351373.938,-847.700
555742.962,4351171.672,-845.100
555742.962,4350969.405,-844.900
555742.962,4350767.139,-844.400
555742.962,4350564.873,-844.000
555742.962,4350362.607,-845.600
555742.962,4350160.340,-846.000
555742.962,4349958.074,-849.500
555742.962,4349755.808,-854.800
555742.962,4349553.541,-861.500
555742.962,4349351.275,-869.800
555742.962,4349149.009,-875.800
555742.962,4348946.743,-879.400
555742.962,4348744.476,-882.100
555742.962,4348542.210,-883.700
555742.962,4348339.944,-884.200
555742.962,4348137.678,-885.600
555742.962,4347935.411,-886.000
555742.962,4347733.145,-887.000
555742.962,4347530.879,-888.200
555742.962,4347328.612,-889.900
555742.962,4347126.346,-892.200
555742.962,4346924.080,-893.000
555742.962,4346721.814,-894.000
555742.962,4346519.547,-893.300
555742.962,4346317.281,-892.200
555742.962,4346115.015,-890.000
555742.962,4345912.749,-887.500
555742.962,4345710.482,-885.500
555742.962,4345508.216,-883.600
555742.962,4345305.950,-880.900
555742.962,4345103.683,-879.300
555742.962,4344901.417,-879.400
555742.962,4344699.151,-879.800
555742.962,4344496.885,-879.900
555742.962,4344294.618,-879.800
555742.962,4344092.352,-879.400
555742.962,4343890.086,-879.200
555742.962,4343687.820,-878.100
555742.962,4343485.553,-876.900
555742.962,4343283.287,-876.200
555742.962,4343081.021,-877.200
555742.962,4342878.755,-879.600
555742.962,4342676.488,-880.700
555742.962,4342474.222,-879.800
555742.962,4342271.956,-877.300
555742.962,4342069.689,-876.300
555742.962,4341867.423,-880.100
555742.962,4341665.157,-891.700
555742.962,4341462.891,-910.500
555742.962,4341260.624,-925.800
555742.962,4341058.358,-929.900
555742.962,4340856.092,-930.400
555742.962,4340653.826,-930.700
555742.962,4340451.559,-929.400
555742.962,4340249.293,-923.300
555742.962,4340047.027,-905.300
555742.962,4339844.760,-868.800
555742.962,4339642.494,-825.000
555742.962,4339440.228,-796.600
555742.962,4339237.962,-785.400
555742.962,4339035.695,-779.000
555742.962,4338833.429,-773.300
555742.962,4338631.163,-767.600
555742.962,4338428.897,-762.300
555742.962,4338226.630,-758.800
555742.962,4338024.364,-755.800
555742.962,4337822.098,-752.200
555742.962,4337619.831,-747.200
555742.962,4337417.565,-740.400
555742.962,4337215.299,-734.500
555742.962,4337013.033,-731.600
555742.962,4336810.766,-730.300
555742.962,4336608.500,-729.800
555742.962,4336406.234,-731.700
555742.962,4336203.968,-736.800
555742.962,4336001.701,-742.700
555944.424,4367352.973,-503.860
555944.424,4367150.707,-503.460
555944.424,4366948.441,-505.515
555944.424,4366746.174,-503.833
555944.424,4366543.908,-505.500
555944.424,4366341.642,-514.700
555944.424,4366139.376,-522.100
555944.424,4365937.109,-528.100
555944.424,4365734.843,-532.800
555944.424,4365532.577,-537.800
555944.424,4365330.311,-544.100
555944.424,4365128.044,-550.300
555944.424,4364925.778,-555.100
555944.424,4364723.512,-560.200
555944.424,4364521.245,-565.800
555944.424,4364318.979,-571.100
555944.424,4364116.713,-578.300
555944.424,4363914.447,-590.400
555944.424,4363712.180,-606.100
555944.424,4363509.914,-618.600
555944.424,4363307.648,-627.900
555944.424,4363105.382,-635.500
555944.424,4362903.115,-643.100
555944.424,4362700.849,-648.400
555944.424,4362498.583,-651.900
555944.424,4362296.317,-655.600
555944.424,4362094.050,-658.500
555944.424,4361891.784,-662.100
555944.424,4361689.518,-666.500
555944.424,4361487.251,-670.000
555944.424,4361284.985,-672.600
555944.424,4361082.719,-674.300
555944.424,4360880.453,-675.200
555944.424,4360678.186,-678.100
555944.424,4360475.920,-681.200
555944.424,4360273.654,-683.000
555944.424,4360071.388,-683.000
555944.424,4359869.121,-682.500
555944.424,4359666.855,-681.700
555944.424,4359464.589,-682.000
555944.424,4359262.322,-681.100
555944.424,4359060.056,-680.500
555944.424,4358857.790,-686.100
555944.424,4358655.524,-693.000
555944.424,4358453.257,-701.600
555944.424,4358250.991,-710.400
555944.424,4358048.725,-714.900
555944.424,4357846.459,-717.500
555944.424,4357644.192,-720.700
555944.424,4357441.926,-725.900
555944.424,4357239.660,-733.600
555944.424,4357037.393,-737.500
555944.424,4356835.127,-738.000
555944.424,4356632.861,-738.000
555944.424,4356430.595,-738.100
555944.424,4356228.328,-739.200
555944.424,4356026.062,-742.300
555944.424,4355823.796,-745.100
555944.424,4355621.530,-747.700
555944.424,4355419.263,-748.900
555944.424,4355216.997,-751.800
555944.424,4355014.731,-755.700
555944.424,4354812.464,-758.600
555944.424,4354610.198,-763.500
555944.424,4354407.932,-770.200
555944.424,4354205.666,-780.800
555944.424,4354003.399,-785.500
555944.424,4353801.133,-796.700
555944.424,4353598.867,-807.900
555944.424,4353396.601,-815.200
555944.424,4353194.334,-823.600
555944.424,4352992.068,-833.100
555944.424,4352789.802,-840.100
555944.424,4352587.536,-845.400
555944.424,4352385.269,-850.300
555944.424,4352183.003,-854.600
555944.424,4351980.737,-854.900
555944.424,4351778.470,-854.700
555944.424,4351576.204,-852.300
555944.424,4351373.938,-848.100
555944.424,4351171.672,-843.100
555944.424,4350969.405,-839.000
555944.424,4350767.139,-835.700
555944.424,4350564.873,-832.200
555944.424,4350362.607,-829.500
555944.424,4350160.340,-827.200
555944.424,4349958.074,-831.500
555944.424,4349755.808,-839.600
555944.424,4349553.541,-851.000
555944.424,4349351.275,-858.900
555944.424,4349149.009,-862.100
555944.424,4348946.743,-865.300
555944.424,4348744.476,-868.800
555944.424,4348542.210,-871.700
555944.424,4348339.944,-874.100
555944.424,4348137.678,-876.100
555944.424,4347935.411,-878.400
555944.424,4347733.145,-879.400
555944.424,4347530.879,-880.500
555944.424,4347328.612,-881.700
555944.424,4347126.346,-883.000
555944.424,4346924.080,-884.600
555944.424,4346721.814,-886.300
555944.424,4346519.547,-885.900
555944.424,4346317.281,-885.000
555944.424,4346115.015,-883.100
555944.424,4345912.749,-881.200
555944.424,4345710.482,-879.100
555944.424,4345508.216,-877.000
555944.424,4345305.950,-874.200
555944.424,4345103.683,-873.300
555944.424,4344901.417,-873.600
555944.424,4344699.151,-874.700
555944.424,4344496.885,-875.600
555944.424,4344294.618,-876.600
555944.424,4344092.352,-877.100
555944.424,4343890.086,-877.100
555944.424,4343687.820,-876.000
555944.424,4343485.553,-873.900
555944.424,4343283.287,-872.400
555944.424,4343081.021,-871.800
555944.424,4342878.755,-871.600
555944.424,4342676.488,-872.600
555944.424,4342474.222,-874.100
555944.424,4342271.956,-875.000
555944.424,4342069.689,-877.400
555944.424,4341867.423,-883.100
555944.424,4341665.157,-893.500
555944.424,4341462.891,-908.700
555944.424,4341260.624,-922.400
555944.424,4341058.358,-928.700
555944.424,4340856.092,-930.200
555944.424,4340653.826,-931.200
555944.424,4340451.559,-930.700
555944.424,4340249.293,-928.200
555944.424,4340047.027,-919.000
555944.424,4339844.760,-891.600
555944.424,4339642.494,-848.200
555944.424,4339440.228,-812.400
555944.424,4339237.962,-795.600
555944.424,4339035.695,-786.700
555944.424,4338833.429,-778.700
555944.424,4338631.163,-773.500
555944.424,4338428.897,-770.700
555944.424,4338226.630,-769.000
555944.424,4338024.364,-767.800
555944.424,4337822.098,-765.300
555944.424,4337619.831,-758.100
555944.424,4337417.565,-746.700
555944.424,4337215.299,-736.700
555944.424,4337013.033,-731.200
555944.424,4336810.766,-729.100
555944.424,4336608.500,-730.200
555944.424,4336406.234,-732.700
555944.424,4336203.968,-734.500
555944.424,4336001.701,-737.200
556145.887,4367352.973,-504.340
556145.887,4367150.707,-503.420
556145.887,4366948.441,-506.269
556145.887,4366746.174,-503.667
556145.887,4366543.908,-504.814
556145.887,4366341.642,-507.200
556145.887,4366139.376,-514.900
556145.887,4365937.109,-521.000
556145.887,4365734.843,-526.300
556145.887,4365532.577,-531.700
556145.887,4365330.311,-538.000
556145.887,4365128.044,-544.700
556145.887,4364925.778,-551.500
556145.887,4364723.512,-559.200
556145.887,4364521.245,-568.100
556145.887,4364318.979,-577.700
556145.887,4364116.713,-586.800
556145.887,4363914.447,-596.800
556145.887,4363712.180,-608.100
556145.887,4363509.914,-618.800
556145.887,4363307.648,-627.000
556145.887,4363105.382,-634.800
556145.887,4362903.115,-642.100
556145.887,4362700.849,-648.300
556145.887,4362498.583,-653.000
556145.887,4362296.317,-657.300
556145.887,4362094.050,-660.800
556145.887,4361891.784,-665.400
556145.887,4361689.518,-670.000
556145.887,4361487.251,-674.800
556145.887,4361284.985,-680.500
556145.887,4361082.719,-686.100
556145.887,4360880.453,-688.900
556145.887,4360678.186,-690.600
556145.887,4360475.920,-691.400
556145.887,4360273.654,-691.100
556145.887,4360071.388,-690.000
556145.887,4359869.121,-688.700
556145.887,4359666.855,-687.900
556145.887,4359464.589,-688.500
556145.887,4359262.322,-689.600
556145.887,4359060.056,-691.000
556145.887,4358857.790,-696.100
556145.887,4358655.524,-701.600
556145.887,4358453.257,-709.400
556145.887,4358250.991,-718.500
556145.887,4358048.725,-722.700
556145.887,4357846.459,-724.500
556145.887,4357644.192,-727.200
556145.887,4357441.926,-731.000
556145.887,4357239.660,-735.900
556145.887,4357037.393,-737.700
556145.887,4356835.127,-738.600
556145.887,4356632.861,-738.600
556145.887,4356430.595,-738.200
556145.887,4356228.328,-739.600
556145.887,4356026.062,-741.600
556145.887,4355823.796,-741.800
556145.887,4355621.530,-742.800
556145.887,4355419.263,-744.400
556145.887,4355216.997,-746.900
556145.887,4355014.731,-750.400
556145.887,4354812.464,-754.500
556145.887,4354610.198,-759.700
556145.887,4354407.932,-768.400
556145.887,4354205.666,-777.000
556145.887,4354003.399,-782.200
556145.887,4353801.133,-790.700
556145.887,4353598.867,-799.200
556145.887,4353396.601,-806.100
556145.887,4353194.334,-815.600
556145.887,4352992.068,-824.600
556145.887,4352789.802,-833.300
556145.887,4352587.536,-839.100
556145.887,4352385.269,-843.800
556145.887,4352183.003,-845.100
556145.887,4351980.737,-843.800
556145.887,4351778.470,-841.700
556145.887,4351576.204,-836.500
556145.887,4351373.938,-832.500
556145.887,4351171.672,-830.700
556145.887,4350969.405,-824.200
556145.887,4350767.139,-818.300
556145.887,4350564.873,-813.400
556145.887,4350362.607,-810.100
556145.887,4350160.340,-808.400
556145.887,4349958.074,-813.500
556145.887,4349755.808,-821.100
556145.887,4349553.541,-830.200
556145.887,4349351.275,-836.200
556145.887,4349149.009,-838.800
556145.887,4348946.743,-840.000
556145.887,4348744.476,-843.800
556145.887,4348542.210,-848.700
556145.887,4348339.944,-852.800
556145.887,4348137.678,-856.000
556145.887,4347935.411,-860.200
556145.887,4347733.145,-863.600
556145.887,4347530.879,-866.900
556145.887,4347328.612,-869.100
556145.887,4347126.346,-870.400
556145.887,4346924.080,-871.300
556145.887,4346721.814,-874.100
556145.887,4346519.547,-875.300
556145.887,4346317.281,-875.300
556145.887,4346115.015,-874.100
556145.887,4345912.749,-871.900
556145.887,4345710.482,-870.000
556145.887,4345508.216,-867.900
556145.887,4345305.950,-867.100
556145.887,4345103.683,-866.800
556145.887,4344901.417,-867.600
556145.887,4344699.151,-869.100
556145.887,4344496.885,-870.900
556145.887,4344294.618,-872.600
556145.887,4344092.352,-874.400
556145.887,4343890.086,-875.600
556145.887,4343687.820,-875.100
556145.887,4343485.553,-873.700
556145.887,4343283.287,-871.600
556145.887,4343081.021,-869.300
556145.887,4342878.755,-866.500
556145.887,4342676.488,-865.200
556145.887,4342474.222,-866.600
556145.887,4342271.956,-870.900
556145.887,4342069.689,-877.700
556145.887,4341867.423,-886.500
556145.887,4341665.157,-895.900
556145.887,4341462.891,-905.800
556145.887,4341260.624,-917.500
556145.887,4341058.358,-926.300
556145.887,4340856.092,-929.200
556145.887,4340653.826,-930.200
556145.887,4340451.559,-930.600
556145.887,4340249.293,-929.600
556145.887,4340047.027,-926.000
556145.887,4339844.760,-912.900
556145.887,4339642.494,-883.500
556145.887,4339440.228,-847.000
556145.887,4339237.962,-820.100
556145.887,4339035.695,-804.100
556145.887,4338833.429,-792.900
556145.887,4338631.163,-786.400
556145.887,4338428.897,-783.400
556145.887,4338226.630,-782.900
556145.887,4338024.364,-784.000
556145.887,4337822.098,-784.600
556145.887,4337619.831,-780.700
556145.887,4337417.565,-768.600
556145.887,4337215.299,-753.100
556145.887,4337013.033,-742.000
556145.887,4336810.766,-737.700
556145.887,4336608.500,-738.100
556145.887,4336406.234,-738.600
556145.887,4336203.968,-737.600
556145.887,4336001.701,-736.000
556347.349,4367352.973,-504.820
556347.349,4367150.707,-503.380
556347.349,4366948.441,-507.023
556347.349,4366746.174,-503.500
556347.349,4366543.908,-504.129
556347.349,4366341.642,-504.200
556347.349,4366139.376,-511.700
556347.349,4365937.109,-517.800
556347.349,4365734.843,-522.500
556347.349,4365532.577,-527.700
556347.349,4365330.311,-534.200
556347.349,4365128.044,-541.300
556347.349,4364925.778,-549.300
556347.349,4364723.512,-558.500
556347.349,4364521.245,-569.100
556347.349,4364318.979,-580.600
556347.349,4364116.713,-591.700
556347.349,4363914.447,-602.600
556347.349,4363712.180,-612.500
556347.349,4363509.914,-621.400
556347.349,4363307.648,-629.300
556347.349,4363105.382,-634.600
556347.349,4362903.115,-640.000
556347.349,4362700.849,-647.700
556347.349,4362498.583,-653.400
556347.349,4362296.317,-657.900
556347.349,4362094.050,-663.400
556347.349,4361891.784,-668.100
556347.349,4361689.518,-672.300
556347.349,4361487.251,-678.000
556347.349,4361284.985,-684.700
556347.349,4361082.719,-691.200
556347.349,4360880.453,-694.100
556347.349,4360678.186,-695.000
556347.349,4360475.920,-695.400
556347.349,4360273.654,-695.500
556347.349,4360071.388,-694.800
556347.349,4359869.121,-692.500
556347.349,4359666.855,-690.200
556347.349,4359464.589,-689.800
556347.349,4359262.322,-691.100
556347.349,4359060.056,-695.000
556347.349,4358857.790,-701.300
556347.349,4358655.524,-707.800
556347.349,4358453.257,-718.400
556347.349,4358250.991,-728.300
556347.349,4358048.725,-729.700
556347.349,4357846.459,-730.300
556347.349,4357644.192,-731.700
556347.349,4357441.926,-733.300
556347.349,4357239.660,-735.300
556347.349,4357037.393,-736.000
556347.349,4356835.127,-736.600
556347.349,4356632.861,-737.100
556347.349,4356430.595,-736.900
556347.349,4356228.328,-738.900
556347.349,4356026.062,-741.700
556347.349,4355823.796,-741.000
556347.349,4355621.530,-742.600
556347.349,4355419.263,-743.600
556347.349,4355216.997,-745.500
556347.349,4355014.731,-748.500
556347.349,4354812.464,-753.000
556347.349,4354610.198,-756.100
556347.349,4354407.932,-763.400
556347.349,4354205.666,-770.300
556347.349,4354003.399,-775.000
556347.349,4353801.133,-782.200
556347.349,4353598.867,-788.600
556347.349,4353396.601,-795.800
556347.349,4353194.334,-805.300
556347.349,4352992.068,-816.400
556347.349,4352789.802,-823.300
556347.349,4352587.536,-827.100
556347.349,4352385.269,-825.900
556347.349,4352183.003,-823.500
556347.349,4351980.737,-820.500
556347.349,4351778.470,-818.200
556347.349,4351576.204,-814.500
556347.349,4351373.938,-811.400
556347.349,4351171.672,-811.100
556347.349,4350969.405,-807.100
556347.349,4350767.139,-801.500
556347.349,4350564.873,-795.900
556347.349,4350362.607,-794.700
556347.349,4350160.340,-794.700
556347.349,4349958.074,-798.200
556347.349,4349755.808,-803.500
556347.349,4349553.541,-808.600
556347.349,4349351.275,-814.700
556347.349,4349149.009,-819.300
556347.349,4348946.743,-822.500
556347.349,4348744.476,-826.300
556347.349,4348542.210,-830.200
556347.349,4348339.944,-834.100
556347.349,4348137.678,-837.300
556347.349,4347935.411,-841.500
556347.349,4347733.145,-845.500
556347.349,4347530.879,-849.900
556347.349,4347328.612,-854.400
556347.349,4347126.346,-857.800
556347.349,4346924.080,-859.400
556347.349,4346721.814,-860.900
556347.349,4346519.547,-861.800
556347.349,4346317.281,-863.000
556347.349,4346115.015,-863.100
556347.349,4345912.749,-862.100
556347.349,4345710.482,-861.000
556347.349,4345508.216,-859.900
556347.349,4345305.950,-860.300
556347.349,4345103.683,-861.100
556347.349,4344901.417,-862.500
556347.349,4344699.151,-863.800
556347.349,4344496.885,-865.400
556347.349,4344294.618,-867.700
556347.349,4344092.352,-870.400
556347.349,4343890.086,-872.400
556347.349,4343687.820,-873.300
556347.349,4343485.553,-873.600
556347.349,4343283.287,-872.500
556347.349,4343081.021,-870.400
556347.349,4342878.755,-866.200
556347.349,4342676.488,-861.600
556347.349,4342474.222,-860.600
556347.349,4342271.956,-866.600
556347.349,4342069.689,-876.800
556347.349,4341867.423,-885.600
556347.349,4341665.157,-893.100
556347.349,4341462.891,-899.800
556347.349,4341260.624,-907.300
556347.349,4341058.358,-917.100
556347.349,4340856.092,-925.400
556347.349,4340653.826,-928.200
556347.349,4340451.559,-928.500
556347.349,4340249.293,-928.600
556347.349,4340047.027,-927.500
556347.349,4339844.760,-922.600
556347.349,4339642.494,-907.300
556347.349,4339440.228,-879.200
556347.349,4339237.962,-851.700
556347.349,4339035.695,-833.400
556347.349,4338833.429,-817.700
556347.349,4338631.163,-805.300
556347.349,4338428.897,-798.100
556347.349,4338226.630,-795.600
556347.349,4338024.364,-797.900
556347.349,4337822.098,-801.300
556347.349,4337619.831,-800.400
556347.349,4337417.565,-794.100
556347.349,4337215.299,-783.800
556347.349,4337013.033,-771.400
556347.349,4336810.766,-760.600
556347.349,4336608.500,-755.400
556347.349,4336406.234,-752.800
556347.349,4336203.968,-750.700
556347.349,4336001.701,-744.000
556548.812,4367352.973,-505.300
556548.812,4367150.707,-503.340
556548.812,4366948.441,-507.777
556548.812,4366746.174,-503.333
556548.812,4366543.908,-503.443
556548.812,4366341.642,-503.200
556548.812,4366139.376,-510.700
556548.812,4365937.109,-516.400
556548.812,4365734.843,-520.700
556548.812,4365532.577,-526.300
556548.812,4365330.311,-533.400
556548.812,4365128.044,-541.300
556548.812,4364925.778,-550.000
556548.812,4364723.512,-560.000
556548.812,4364521.245,-571.300
556548.812,4364318.979,-583.000
556548.812,4364116.713,-593.500
556548.812,4363914.447,-604.300
556548.812,4363712.180,-616.400
556548.812,4363509.914,-626.600
556548.812,4363307.648,-633.600
556548.812,4363105.382,-637.200
556548.812,4362903.115,-640.700
556548.812,4362700.849,-646.000
556548.812,4362498.583,-651.900
556548.812,4362296.317,-656.600
556548.812,4362094.050,-663.100
556548.812,4361891.784,-670.700
556548.812,4361689.518,-676.700
556548.812,4361487.251,-682.500
556548.812,4361284.985,-688.500
556548.812,4361082.719,-693.700
556548.812,4360880.453,-695.600
556548.812,4360678.186,-695.900
556548.812,4360475.920,-696.300
556548.812,4360273.654,-696.400
556548.812,4360071.388,-696.400
556548.812,4359869.121,-695.100
556548.812,4359666.855,-692.200
556548.812,4359464.589,-691.000
556548.812,4359262.322,-691.600
556548.812,4359060.056,-694.300
556548.812,4358857.790,-699.800
556548.812,4358655.524,-707.700
556548.812,4358453.257,-718.400
556548.812,4358250.991,-728.900
556548.812,4358048.725,-731.100
556548.812,4357846.459,-731.400
556548.812,4357644.192,-732.600
556548.812,4357441.926,-733.400
556548.812,4357239.660,-734.100
556548.812,4357037.393,-734.500
556548.812,4356835.127,-734.500
556548.812,4356632.861,-734.500
556548.812,4356430.595,-733.900
556548.812,4356228.328,-736.600
556548.812,4356026.062,-739.700
556548.812,4355823.796,-740.300
556548.812,4355621.530,-740.600
556548.812,4355419.263,-740.100
556548.812,4355216.997,-743.000
556548.812,4355014.731,-746.300
556548.812,4354812.464,-749.800
556548.812,4354610.198,-751.500
556548.812,4354407.932,-757.600
556548.812,4354205.666,-761.800
556548.812,4354003.399,-767.700
556548.812,4353801.133,-775.200
556548.812,4353598.867,-783.300
556548.812,4353396.601,-792.400
556548.812,4353194.334,-800.200
556548.812,4352992.068,-809.500
556548.812,4352789.802,-808.800
556548.812,4352587.536,-806.300
556548.812,4352385.269,-803.000
556548.812,4352183.003,-801.100
556548.812,4351980.737,-800.400
556548.812,4351778.470,-800.100
556548.812,4351576.204,-797.400
556548.812,4351373.938,-794.500
556548.812,4351171.672,-792.800
556548.812,4350969.405,-790.100
556548.812,4350767.139,-788.000
