587443.450,4345326.404,-167.300
587443.450,4345276.262,-168.900
587443.450,4345226.119,-168.400
587443.450,4345175.977,-164.700
587443.450,4345125.835,-162.100
587443.450,4345075.693,-159.700
587443.450,4345025.551,-156.700
587443.450,4344975.409,-154.000
587443.450,4344925.267,-152.200
587443.450,4344875.124,-149.900
587443.450,4344824.982,-146.700
587443.450,4344774.840,-143.900
587443.450,4344724.698,-142.500
587443.450,4344674.556,-141.500
587443.450,4344624.414,-140.800
587443.450,4344574.272,-140.300
587443.450,4344524.129,-139.900
587443.450,4344473.987,-139.600
587443.450,4344423.845,-139.300
587443.450,4344373.703,-139.100
587443.450,4344323.561,-138.800
587443.450,4344273.419,-138.600
587443.450,4344223.276,-138.500
587443.450,4344173.134,-138.300
587443.450,4344122.992,-137.900
587443.450,4344072.850,-137.600
587443.450,4344022.708,-137.700
587443.450,4343972.566,-137.800
587443.450,4343922.424,-138.100
587443.450,4343872.281,-138.700
587443.450,4343822.139,-139.400
587443.450,4343771.997,-140.100
587443.450,4343721.855,-140.800
587443.450,4343671.713,-141.900
587443.450,4343621.571,-143.100
587443.450,4343571.429,-144.900
587443.450,4343521.286,-147.400
587443.450,4343471.144,-151.500
587443.450,4343421.002,-158.100
587443.450,4343370.860,-166.500
587443.450,4343320.718,-166.308
587443.450,4343270.576,-166.115
587443.450,4343220.434,-165.923
587443.450,4343170.291,-165.731
587443.450,4343120.149,-165.538
587443.450,4343070.007,-165.346
587443.450,4343019.865,-165.154
587443.450,4342969.723,-164.962
587443.450,4342919.581,-164.769
587443.450,4342869.439,-164.577
587443.450,4342819.296,-164.385
587443.450,4342769.154,-164.192
587443.450,4342719.012,-164.000
587443.450,4342668.870,-156.900
587443.450,4342618.728,-153.200
587443.450,4342568.586,-151.500
587443.450,4342518.444,-150.500
587443.450,4342468.301,-150.000
587443.450,4342418.159,-149.700
587443.450,4342368.017,-149.400
587443.450,4342317.875,-149.300
587443.450,4342267.733,-149.400
587443.450,4342217.591,-149.700
587443.450,4342167.448,-150.200
587443.450,4342117.306,-150.600
587443.450,4342067.164,-151.100
587443.450,4342017.022,-152.100
587443.450,4341966.880,-153.100
587443.450,4341916.738,-154.600
587443.450,4341866.596,-156.600
587443.450,4341816.453,-159.500
587443.450,4341766.311,-164.700
587443.450,4341716.169,-167.150
587443.450,4341666.027,-168.252
587443.450,4341615.885,-164.618
587443.450,4341565.743,-164.591
587443.450,4341515.601,-164.564
587443.450,4341465.458,-164.536
587443.450,4341415.316,-164.509
587443.450,4341365.174,-164.482
587443.450,4341315.032,-164.455
587443.450,4341264.890,-164.427
587443.450,4341214.748,-164.400
587443.450,4341164.606,-164.373
587443.450,4341114.463,-164.345
587443.450,4341064.321,-164.318
587443.450,4341014.179,-164.291
587443.450,4340964.037,-164.264
587443.450,4340913.895,-164.236
587443.450,4340863.753,-164.209
587443.450,4340813.611,-164.182
587443.450,4340763.468,-164.155
587443.450,4340713.326,-164.127
587443.450,4340663.184,-164.100
587443.450,4340613.042,-164.073
587443.450,4340562.900,-164.045
587443.450,4340512.758,-164.018
587443.450,4340462.616,-163.991
587443.450,4340412.473,-163.964
587443.450,4340362.331,-163.936
587443.450,4340312.189,-163.909
587443.450,4340262.047,-163.882
587443.450,4340161.763,-165.200
587443.450,4340111.620,-163.800
587443.450,4340061.478,-158.100
587443.450,4340011.336,-156.700
587443.450,4339961.194,-155.800
587443.450,4339911.052,-155.500
587443.450,4339860.910,-155.500
587443.450,4339810.768,-155.500
587443.450,4339760.625,-155.300
587443.450,4339710.483,-155.200
587443.450,4339660.341,-155.200
587443.450,4339610.199,-154.700
587443.450,4339560.057,-153.600
587443.450,4339509.915,-152.700
587443.450,4339459.773,-152.300
587443.450,4339409.630,-152.200
587443.450,4339359.488,-152.200
587443.450,4339309.346,-152.100
587443.450,4339259.204,-152.200
587443.450,4339209.062,-152.300
587443.450,4339158.920,-152.600
587443.450,4339108.778,-153.000
587443.450,4339058.635,-153.600
587443.450,4339008.493,-155.200
587443.450,4338958.351,-160.800
587443.450,4338858.067,-161.256
587443.450,4338807.925,-161.484
587443.450,4338757.783,-161.713
587443.450,4338707.640,-161.941
587443.450,4338657.498,-162.169
587443.450,4338607.356,-162.397
587443.450,4338557.214,-162.625
587443.450,4338507.072,-162.853
587443.450,4338456.930,-163.081
587443.450,4338406.788,-163.309
587443.450,4338356.645,-163.538
587443.450,4338306.503,-163.766
587443.450,4338256.361,-163.994
587443.450,4338206.219,-164.222
587443.450,4338156.077,-164.450
587443.450,4338105.935,-164.678
587443.450,4338055.792,-164.906
587443.450,4338005.650,-165.134
587443.450,4337955.508,-165.363
587443.450,4337905.366,-165.591
587443.450,4337855.224,-165.819
587443.450,4337805.082,-166.047
587443.450,4337754.940,-166.275
587443.450,4337704.797,-166.503
587443.450,4337654.655,-166.731
587443.450,4337604.513,-166.959
587443.450,4337554.371,-167.188
587443.450,4337504.229,-167.416
587443.450,4337454.087,-167.644
587443.450,4337353.802,-168.100
587443.450,4337303.660,-166.700
587443.450,4337253.518,-166.600
587443.450,4337203.376,-167.600
587493.542,4357310.377,-45.600
587493.542,4357260.235,-45.700
587493.542,4357210.092,-45.900
587493.542,4357159.950,-46.100
587493.542,4357109.808,-45.900
587493.542,4357059.666,-45.600
587493.542,4357009.524,-45.500
587493.542,4356959.382,-45.700
587493.542,4356909.240,-45.900
587493.542,4356859.097,-46.400
587493.542,4356808.955,-46.800
587493.542,4356758.813,-47.300
587493.542,4356708.671,-47.900
587493.542,4356658.529,-48.600
587493.542,4356608.387,-49.300
587493.542,4356558.244,-50.000
587493.542,4356508.102,-50.700
587493.542,4356457.960,-51.300
587493.542,4356407.818,-51.900
587493.542,4356357.676,-52.600
587493.542,4356307.534,-53.200
587493.542,4356257.392,-53.800
587493.542,4356207.249,-54.400
587493.542,4356157.107,-54.900
587493.542,4356106.965,-55.500
587493.542,4356056.823,-56.100
587493.542,4356006.681,-56.600
587493.542,4355956.539,-57.200
587493.542,4355906.397,-57.700
587493.542,4355856.254,-58.100
587493.542,4355806.112,-58.500
587493.542,4355755.970,-59.000
587493.542,4355705.828,-59.400
587493.542,4355655.686,-59.800
587493.542,4355605.544,-60.100
587493.542,4355555.402,-60.300
587493.542,4355505.259,-60.600
587493.542,4355455.117,-60.700
587493.542,4355404.975,-60.300
587493.542,4355354.833,-60.000
587493.542,4355304.691,-60.100
587493.542,4355254.549,-59.800
587493.542,4355204.407,-59.500
587493.542,4355154.264,-59.100
587493.542,4355104.122,-59.500
587493.542,4355053.980,-60.300
587493.542,4355003.838,-61.600
587493.542,4354953.696,-63.900
587493.542,4354903.554,-65.600
587493.542,4354853.412,-66.600
587493.542,4354803.269,-67.100
587493.542,4354753.127,-67.600
587493.542,4354702.985,-68.100
587493.542,4354652.843,-68.700
587493.542,4354602.701,-69.200
587493.542,4354552.559,-69.700
587493.542,4354502.416,-70.300
587493.542,4354452.274,-71.000
587493.542,4354402.132,-71.500
587493.542,4354351.990,-72.000
587493.542,4354301.848,-72.500
587493.542,4354251.706,-73.000
587493.542,4354201.564,-73.400
587493.542,4354151.421,-73.800
587493.542,4354101.279,-74.200
587493.542,4354051.137,-74.600
587493.542,4354000.995,-75.000
587493.542,4353950.853,-75.400
587493.542,4353900.711,-75.700
587493.542,4353850.569,-76.000
587493.542,4353800.426,-76.200
587493.542,4353750.284,-76.400
587493.542,4353700.142,-76.800
587493.542,4353650.000,-77.000
587493.542,4353599.858,-77.300
587493.542,4353549.716,-77.600
587493.542,4353499.574,-77.800
587493.542,4353449.431,-78.100
587493.542,4353399.289,-78.500
587493.542,4353349.147,-78.900
587493.542,4353299.005,-79.100
587493.542,4353248.863,-79.500
587493.542,4353198.721,-79.900
587493.542,4353148.579,-80.200
587493.542,4353098.436,-80.600
587493.542,4353048.294,-81.100
587493.542,4352998.152,-81.500
587493.542,4352948.010,-81.800
587493.542,4352897.868,-82.300
587493.542,4352847.726,-82.800
587493.542,4352797.584,-83.400
587493.542,4352747.441,-83.800
587493.542,4352697.299,-84.200
587493.542,4352647.157,-84.700
587493.542,4352597.015,-85.200
587493.542,4352546.873,-85.600
587493.542,4352496.731,-86.100
587493.542,4352446.588,-86.600
587493.542,4352396.446,-87.100
587493.542,4352346.304,-87.600
587493.542,4352296.162,-88.000
587493.542,4352246.020,-88.500
587493.542,4352195.878,-89.000
587493.542,4352145.736,-89.400
587493.542,4352095.593,-89.900
587493.542,4352045.451,-90.300
587493.542,4351995.309,-90.800
587493.542,4351945.167,-91.200
587493.542,4351895.025,-91.600
587493.542,4351844.883,-92.100
587493.542,4351794.741,-92.500
587493.542,4351744.598,-92.900
587493.542,4351694.456,-93.300
587493.542,4351644.314,-93.700
587493.542,4351594.172,-94.200
587493.542,4351544.030,-94.600
587493.542,4351493.888,-95.000
587493.542,4351443.746,-95.400
587493.542,4351393.603,-95.800
587493.542,4351343.461,-96.200
587493.542,4351293.319,-96.600
587493.542,4351243.177,-97.000
587493.542,4351193.035,-97.400
587493.542,4351142.893,-97.700
587493.542,4351092.751,-98.200
587493.542,4351042.608,-98.600
587493.542,4350992.466,-98.900
587493.542,4350942.324,-99.300
587493.542,4350892.182,-99.700
587493.542,4350842.040,-100.100
587493.542,4350791.898,-100.500
587493.542,4350741.756,-100.800
587493.542,4350691.613,-101.100
587493.542,4350641.471,-101.600
587493.542,4350591.329,-102.000
587493.542,4350541.187,-102.300
587493.542,4350491.045,-102.700
587493.542,4350440.903,-103.100
587493.542,4350390.760,-103.500
587493.542,4350340.618,-103.900
587493.542,4350290.476,-104.300
587493.542,4350240.334,-104.700
587493.542,4350190.192,-105.000
587493.542,4350140.050,-105.400
587493.542,4350089.908,-105.800
587493.542,4350039.765,-106.300
587493.542,4349989.623,-106.600
587493.542,4349939.481,-107.100
587493.542,4349889.339,-107.500
587493.542,4349839.197,-107.900
587493.542,4349789.055,-108.300
587493.542,4349738.913,-108.800
587493.542,4349688.770,-109.100
587493.542,4349638.628,-109.600
587493.542,4349588.486,-110.000
587493.542,4349538.344,-110.400
587493.542,4349488.202,-110.900
587493.542,4349438.060,-111.300
587493.542,4349387.918,-111.700
587493.542,4349337.775,-112.200
587493.542,4349287.633,-112.700
587493.542,4349237.491,-113.000
587493.542,4349187.349,-113.400
587493.542,4349137.207,-113.900
587493.542,4349087.065,-114.200
587493.542,4349036.923,-114.600
587493.542,4348986.780,-114.900
587493.542,4348936.638,-115.300
587493.542,4348886.496,-115.700
587493.542,4348836.354,-116.000
587493.542,4348786.212,-116.400
587493.542,4348736.070,-116.600
587493.542,4348685.928,-116.900
587493.542,4348635.785,-117.100
587493.542,4348585.643,-117.600
587493.542,4348535.501,-117.900
587493.542,4348485.359,-118.300
587493.542,4348435.217,-118.600
587493.542,4348385.075,-119.100
587493.542,4348334.932,-119.300
587493.542,4348284.790,-119.700
587493.542,4348234.648,-120.000
587493.542,4348184.506,-120.300
587493.542,4348134.364,-120.700
587493.542,4348084.222,-121.100
587493.542,4348034.080,-121.400
587493.542,4347983.937,-121.700
587493.542,4347933.795,-122.100
587493.542,4347883.653,-122.500
587493.542,4347833.511,-122.800
587493.542,4347783.369,-123.000
587493.542,4347733.227,-123.300
587493.542,4347683.085,-123.600
587493.542,4347632.942,-123.800
587493.542,4347582.800,-124.000
587493.542,4347532.658,-124.300
587493.542,4347482.516,-124.500
587493.542,4347432.374,-124.800
587493.542,4347382.232,-125.000
587493.542,4347332.090,-125.300
587493.542,4347281.947,-125.500
587493.542,4347231.805,-125.800
587493.542,4347181.663,-126.000
587493.542,4347131.521,-126.300
587493.542,4347081.379,-126.500
587493.542,4347031.237,-126.700
587493.542,4346981.095,-127.000
587493.542,4346930.952,-127.200
587493.542,4346880.810,-127.400
587493.542,4346830.668,-127.600
587493.542,4346780.526,-127.800
587493.542,4346730.384,-128.000
587493.542,4346680.242,-128.200
587493.542,4346630.100,-128.300
587493.542,4346579.957,-128.600
587493.542,4346529.815,-129.000
587493.542,4346479.673,-129.300
587493.542,4346429.531,-129.700
587493.542,4346379.389,-130.000
587493.542,4346329.247,-130.500
587493.542,4346279.104,-131.000
587493.542,4346228.962,-131.500
587493.542,4346178.820,-131.900
587493.542,4346128.678,-132.400
587493.542,4346078.536,-133.000
587493.542,4346028.394,-133.600
587493.542,4345978.252,-134.200
587493.542,4345928.109,-135.000
587493.542,4345877.967,-135.900
587493.542,4345827.825,-136.900
587493.542,4345777.683,-138.000
587493.542,4345727.541,-139.400
587493.542,4345677.399,-141.000
587493.542,4345627.257,-142.800
587493.542,4345577.114,-145.100
587493.542,4345526.972,-148.200
587493.542,4345476.830,-152.300
587493.542,4345426.688,-156.700
587493.542,4345376.546,-159.900
587493.542,4345326.404,-161.500
587493.542,4345276.262,-163.100
587493.542,4345226.119,-163.300
587493.542,4345175.977,-160.500
587493.542,4345125.835,-158.000
587493.542,4345075.693,-155.300
587493.542,4345025.551,-151.500
587493.542,4344975.409,-148.000
587493.542,4344925.267,-145.600
587493.542,4344875.124,-143.900
587493.542,4344824.982,-142.200
587493.542,4344774.840,-140.900
587493.542,4344724.698,-139.900
587493.542,4344674.556,-139.300
587493.542,4344624.414,-138.700
587493.542,4344574.272,-138.400
587493.542,4344524.129,-138.100
587493.542,4344473.987,-137.900
587493.542,4344423.845,-137.800
587493.542,4344373.703,-137.600
587493.542,4344323.561,-137.400
587493.542,4344273.419,-137.300
587493.542,4344223.276,-137.100
587493.542,4344173.134,-136.900
587493.542,4344122.992,-136.700
587493.542,4344072.850,-136.600
587493.542,4344022.708,-136.600
587493.542,4343972.566,-136.600
587493.542,4343922.424,-137.100
587493.542,4343872.281,-137.600
587493.542,4343822.139,-138.200
587493.542,4343771.997,-138.800
587493.542,4343721.855,-139.500
587493.542,4343671.713,-140.600
587493.542,4343621.571,-141.900
587493.542,4343571.429,-143.600
587493.542,4343521.286,-145.900
587493.542,4343471.144,-149.100
587493.542,4343421.002,-154.000
587493.542,4343370.860,-161.400
587493.542,4343320.718,-161.925
587493.542,4343270.576,-162.450
587493.542,4343220.434,-162.975
587493.542,4343170.291,-163.500
587493.542,4343120.149,-164.025
587493.542,4343070.007,-164.550
587493.542,4343019.865,-165.075
587493.542,4342969.723,-165.600
587493.542,4342919.581,-166.125
587493.542,4342869.439,-166.650
587493.542,4342819.296,-167.175
587493.542,4342769.154,-167.700
587493.542,4342719.012,-157.100
587493.542,4342668.870,-152.600
587493.542,4342618.728,-150.500
587493.542,4342568.586,-149.500
587493.542,4342518.444,-148.800
587493.542,4342468.301,-148.400
587493.542,4342418.159,-148.200
587493.542,4342368.017,-148.000
587493.542,4342317.875,-148.100
587493.542,4342267.733,-148.100
587493.542,4342217.591,-148.500
587493.542,4342167.448,-148.900
587493.542,4342117.306,-149.400
587493.542,4342067.164,-150.000
587493.542,4342017.022,-150.800
587493.542,4341966.880,-151.900
587493.542,4341916.738,-153.600
587493.542,4341866.596,-156.300
587493.542,4341816.453,-160.800
587493.542,4341766.311,-167.800
587493.542,4341716.169,-167.100
587493.542,4341666.027,-167.943
587493.542,4341615.885,-167.345
587493.542,4341565.743,-167.194
587493.542,4341515.601,-167.042
587493.542,4341465.458,-166.891
587493.542,4341415.316,-166.739
587493.542,4341365.174,-166.588
587493.542,4341315.032,-166.436
587493.542,4341264.890,-166.285
587493.542,4341214.748,-166.133
587493.542,4341164.606,-165.982
587493.542,4341114.463,-165.830
587493.542,4341064.321,-165.679
587493.542,4341014.179,-165.527
587493.542,4340964.037,-165.376
587493.542,4340913.895,-165.224
587493.542,4340863.753,-165.073
587493.542,4340813.611,-164.921
587493.542,4340763.468,-164.770
587493.542,4340713.326,-164.618
587493.542,4340663.184,-164.467
587493.542,4340613.042,-164.315
587493.542,4340562.900,-164.164
587493.542,4340512.758,-164.012
587493.542,4340462.616,-163.861
587493.542,4340412.473,-163.709
587493.542,4340362.331,-163.558
587493.542,4340312.189,-163.406
587493.542,4340262.047,-163.255
587493.542,4340161.763,-164.200
587493.542,4340111.620,-162.800
587493.542,4340061.478,-156.400
587493.542,4340011.336,-154.900
587493.542,4339961.194,-153.800
587493.542,4339911.052,-153.100
587493.542,4339860.910,-152.900
587493.542,4339810.768,-152.700
587493.542,4339760.625,-152.300
587493.542,4339710.483,-151.900
587493.542,4339660.341,-151.700
587493.542,4339610.199,-151.400
587493.542,4339560.057,-151.000
587493.542,4339509.915,-150.600
587493.542,4339459.773,-150.500
587493.542,4339409.630,-150.500
587493.542,4339359.488,-150.600
587493.542,4339309.346,-150.600
587493.542,4339259.204,-150.700
587493.542,4339209.062,-150.800
587493.542,4339158.920,-151.000
587493.542,4339108.778,-151.400
587493.542,4339058.635,-152.000
587493.542,4339008.493,-152.800
587493.542,4338958.351,-155.400
587493.542,4338908.209,-164.400
587493.542,4338858.067,-164.571
587493.542,4338807.925,-164.743
587493.542,4338757.783,-164.914
587493.542,4338707.640,-165.086
587493.542,4338657.498,-165.257
587493.542,4338607.356,-165.429
587493.542,4338557.214,-165.600
587493.542,4338507.072,-165.771
587493.542,4338456.930,-165.943
587493.542,4338406.788,-166.114
587493.542,4338356.645,-166.286
587493.542,4338306.503,-166.457
587493.542,4338256.361,-166.629
587493.542,4338206.219,-166.800
587493.542,4338156.077,-166.971
587493.542,4338105.935,-167.143
587493.542,4338055.792,-167.314
587493.542,4338005.650,-167.486
587493.542,4337955.508,-167.657
587493.542,4337905.366,-167.829
587493.542,4337855.224,-168.000
587493.542,4337805.082,-168.171
587493.542,4337754.940,-168.343
587493.542,4337704.797,-168.514
587493.542,4337654.655,-168.686
587493.542,4337604.513,-168.857
587493.542,4337554.371,-169.029
587493.542,4337504.229,-169.200
587493.542,4337454.087,-167.100
587493.542,4337403.945,-165.900
587493.542,4337353.802,-165.200
587493.542,4337303.660,-165.100
587493.542,4337253.518,-165.300
587493.542,4337203.376,-166.000
587493.542,4337153.234,-167.600
587543.633,4357109.808,-45.900
587543.633,4357059.666,-45.700
587543.633,4357009.524,-45.300
587543.633,4356959.382,-45.300
587543.633,4356909.240,-45.400
587543.633,4356859.097,-45.700
587543.633,4356808.955,-45.700
587543.633,4356758.813,-45.900
587543.633,4356708.671,-46.100
587543.633,4356658.529,-46.700
587543.633,4356608.387,-47.200
587543.633,4356558.244,-47.900
587543.633,4356508.102,-48.600
587543.633,4356457.960,-49.300
587543.633,4356407.818,-50.000
587543.633,4356357.676,-50.700
587543.633,4356307.534,-51.300
587543.633,4356257.392,-51.900
587543.633,4356207.249,-52.500
587543.633,4356157.107,-53.100
587543.633,4356106.965,-53.700
587543.633,4356056.823,-54.300
587543.633,4356006.681,-54.900
587543.633,4355956.539,-55.500
587543.633,4355906.397,-56.000
587543.633,4355856.254,-56.500
587543.633,4355806.112,-57.000
587543.633,4355755.970,-57.400
587543.633,4355705.828,-57.800
587543.633,4355655.686,-58.200
587543.633,4355605.544,-58.500
587543.633,4355555.402,-58.800
587543.633,4355505.259,-59.100
587543.633,4355455.117,-59.100
587543.633,4355404.975,-59.100
587543.633,4355354.833,-59.000
587543.633,4355304.691,-59.100
587543.633,4355254.549,-59.100
587543.633,4355204.407,-59.000
587543.633,4355154.264,-59.100
587543.633,4355104.122,-59.400
587543.633,4355053.980,-59.500
587543.633,4355003.838,-60.600
587543.633,4354953.696,-62.000
587543.633,4354903.554,-63.400
587543.633,4354853.412,-64.500
587543.633,4354803.269,-65.500
587543.633,4354753.127,-66.100
587543.633,4354702.985,-66.600
587543.633,4354652.843,-67.200
587543.633,4354602.701,-67.800
587543.633,4354552.559,-68.200
587543.633,4354502.416,-68.800
587543.633,4354452.274,-69.400
587543.633,4354402.132,-69.900
587543.633,4354351.990,-70.400
587543.633,4354301.848,-71.000
587543.633,4354251.706,-71.500
587543.633,4354201.564,-71.900
587543.633,4354151.421,-72.400
587543.633,4354101.279,-72.900
587543.633,4354051.137,-73.200
587543.633,4354000.995,-73.700
587543.633,4353950.853,-74.000
587543.633,4353900.711,-74.400
587543.633,4353850.569,-74.700
587543.633,4353800.426,-74.900
587543.633,4353750.284,-75.200
587543.633,4353700.142,-75.500
587543.633,4353650.000,-75.700
587543.633,4353599.858,-76.000
587543.633,4353549.716,-76.400
587543.633,4353499.574,-76.700
587543.633,4353449.431,-77.000
587543.633,4353399.289,-77.400
587543.633,4353349.147,-77.700
587543.633,4353299.005,-78.000
587543.633,4353248.863,-78.300
587543.633,4353198.721,-78.700
587543.633,4353148.579,-79.100
587543.633,4353098.436,-79.500
587543.633,4353048.294,-79.800
587543.633,4352998.152,-80.300
587543.633,4352948.010,-80.600
587543.633,4352897.868,-81.100
587543.633,4352847.726,-81.600
587543.633,4352797.584,-82.100
587543.633,4352747.441,-82.500
587543.633,4352697.299,-83.000
587543.633,4352647.157,-83.400
587543.633,4352597.015,-83.900
587543.633,4352546.873,-84.400
587543.633,4352496.731,-84.900
587543.633,4352446.588,-85.400
587543.633,4352396.446,-85.900
587543.633,4352346.304,-86.400
587543.633,4352296.162,-86.900
587543.633,4352246.020,-87.400
587543.633,4352195.878,-87.800
587543.633,4352145.736,-88.300
587543.633,4352095.593,-88.700
587543.633,4352045.451,-89.200
587543.633,4351995.309,-89.600
587543.633,4351945.167,-90.000
587543.633,4351895.025,-90.400
587543.633,4351844.883,-90.900
587543.633,4351794.741,-91.400
587543.633,4351744.598,-91.800
587543.633,4351694.456,-92.200
587543.633,4351644.314,-92.600
587543.633,4351594.172,-93.100
587543.633,4351544.030,-93.500
587543.633,4351493.888,-93.900
587543.633,4351443.746,-94.300
587543.633,4351393.603,-94.600
587543.633,4351343.461,-95.000
587543.633,4351293.319,-95.500
587543.633,4351243.177,-95.900
587543.633,4351193.035,-96.300
587543.633,4351142.893,-96.700
587543.633,4351092.751,-97.000
587543.633,4351042.608,-97.400
587543.633,4350992.466,-97.800
587543.633,4350942.324,-98.200
587543.633,4350892.182,-98.600
587543.633,4350842.040,-99.000
587543.633,4350791.898,-99.400
587543.633,4350741.756,-99.700
587543.633,4350691.613,-100.000
587543.633,4350641.471,-100.500
587543.633,4350591.329,-100.900
587543.633,4350541.187,-101.200
587543.633,4350491.045,-101.600
587543.633,4350440.903,-102.000
587543.633,4350390.760,-102.300
587543.633,4350340.618,-102.700
587543.633,4350290.476,-103.100
587543.633,4350240.334,-103.400
587543.633,4350190.192,-103.800
587543.633,4350140.050,-104.200
587543.633,4350089.908,-104.600
587543.633,4350039.765,-105.000
587543.633,4349989.623,-105.400
587543.633,4349939.481,-105.800
587543.633,4349889.339,-106.200
587543.633,4349839.197,-106.700
587543.633,4349789.055,-107.100
587543.633,4349738.913,-107.600
587543.633,4349688.770,-107.900
587543.633,4349638.628,-108.400
587543.633,4349588.486,-108.800
587543.633,4349538.344,-109.100
587543.633,4349488.202,-109.600
587543.633,4349438.060,-110.000
587543.633,4349387.918,-110.400
587543.633,4349337.775,-110.900
587543.633,4349287.633,-111.300
587543.633,4349237.491,-111.700
587543.633,4349187.349,-112.100
587543.633,4349137.207,-112.600
587543.633,4349087.065,-112.900
587543.633,4349036.923,-113.300
587543.633,4348986.780,-113.600
587543.633,4348936.638,-114.000
587543.633,4348886.496,-114.500
587543.633,4348836.354,-114.800
587543.633,4348786.212,-115.200
587543.633,4348736.070,-115.500
587543.633,4348685.928,-115.900
587543.633,4348635.785,-116.200
587543.633,4348585.643,-116.500
587543.633,4348535.501,-116.900
587543.633,4348485.359,-117.200
587543.633,4348435.217,-117.500
587543.633,4348385.075,-117.900
587543.633,4348334.932,-118.200
587543.633,4348284.790,-118.600
587543.633,4348234.648,-118.900
587543.633,4348184.506,-119.200
587543.633,4348134.364,-119.500
587543.633,4348084.222,-119.800
587543.633,4348034.080,-120.100
587543.633,4347983.937,-120.500
587543.633,4347933.795,-120.900
587543.633,4347883.653,-121.200
587543.633,4347833.511,-121.500
587543.633,4347783.369,-121.800
587543.633,4347733.227,-122.000
587543.633,4347683.085,-122.300
587543.633,4347632.942,-122.500
587543.633,4347582.800,-122.800
587543.633,4347532.658,-123.000
587543.633,4347482.516,-123.300
587543.633,4347432.374,-123.600
587543.633,4347382.232,-123.800
587543.633,4347332.090,-124.100
587543.633,4347281.947,-124.300
587543.633,4347231.805,-124.600
587543.633,4347181.663,-124.800
587543.633,4347131.521,-125.100
587543.633,4347081.379,-125.300
587543.633,4347031.237,-125.600
587543.633,4346981.095,-125.800
587543.633,4346930.952,-126.100
587543.633,4346880.810,-126.400
587543.633,4346830.668,-126.700
587543.633,4346780.526,-126.900
587543.633,4346730.384,-127.100
587543.633,4346680.242,-127.300
587543.633,4346630.100,-127.500
587543.633,4346579.957,-127.800
587543.633,4346529.815,-128.100
587543.633,4346479.673,-128.300
587543.633,4346429.531,-128.600
587543.633,4346379.389,-128.900
587543.633,4346329.247,-129.300
587543.633,4346279.104,-129.800
587543.633,4346228.962,-130.200
587543.633,4346178.820,-130.600
587543.633,4346128.678,-131.200
587543.633,4346078.536,-131.800
587543.633,4346028.394,-132.400
587543.633,4345978.252,-133.100
587543.633,4345928.109,-133.800
587543.633,4345877.967,-134.600
587543.633,4345827.825,-135.600
587543.633,4345777.683,-136.700
587543.633,4345727.541,-137.900
587543.633,4345677.399,-139.300
587543.633,4345627.257,-140.900
587543.633,4345577.114,-142.900
587543.633,4345526.972,-145.600
587543.633,4345476.830,-149.100
587543.633,4345426.688,-152.600
587543.633,4345376.546,-154.900
587543.633,4345326.404,-156.400
587543.633,4345276.262,-157.900
587543.633,4345226.119,-158.400
587543.633,4345175.977,-156.300
587543.633,4345125.835,-153.900
587543.633,4345075.693,-151.200
587543.633,4345025.551,-147.300
587543.633,4344975.409,-143.900
587543.633,4344925.267,-141.800
587543.633,4344875.124,-140.500
587543.633,4344824.982,-139.500
587543.633,4344774.840,-138.600
587543.633,4344724.698,-137.800
587543.633,4344674.556,-137.300
587543.633,4344624.414,-136.900
587543.633,4344574.272,-136.800
587543.633,4344524.129,-136.500
587543.633,4344473.987,-136.400
587543.633,4344423.845,-136.300
587543.633,4344373.703,-136.200
587543.633,4344323.561,-136.100
587543.633,4344273.419,-136.000
587543.633,4344223.276,-135.800
587543.633,4344173.134,-135.600
587543.633,4344122.992,-135.500
587543.633,4344072.850,-135.500
587543.633,4344022.708,-135.500
587543.633,4343972.566,-135.600
587543.633,4343922.424,-135.900
587543.633,4343872.281,-136.400
587543.633,4343822.139,-136.900
587543.633,4343771.997,-137.700
587543.633,4343721.855,-138.300
587543.633,4343671.713,-139.300
587543.633,4343621.571,-140.600
587543.633,4343571.429,-142.400
587543.633,4343521.286,-144.600
587543.633,4343471.144,-147.900
587543.633,4343421.002,-153.100
587543.633,4343370.860,-161.800
587543.633,4343320.718,-161.583
587543.633,4343270.576,-161.367
587543.633,4343220.434,-161.150
587543.633,4343170.291,-160.933
587543.633,4343120.149,-160.717
587543.633,4343070.007,-160.500
587543.633,4343019.865,-160.283
587543.633,4342969.723,-160.067
587543.633,4342919.581,-159.850
587543.633,4342869.439,-159.633
587543.633,4342819.296,-159.417
587543.633,4342769.154,-159.200
587543.633,4342719.012,-152.100
587543.633,4342668.870,-149.300
587543.633,4342618.728,-148.100
587543.633,4342568.586,-147.300
587543.633,4342518.444,-147.000
587543.633,4342468.301,-146.800
587543.633,4342418.159,-146.600
587543.633,4342368.017,-146.500
587543.633,4342317.875,-146.600
587543.633,4342267.733,-146.800
587543.633,4342217.591,-147.300
587543.633,4342167.448,-147.700
587543.633,4342117.306,-148.300
587543.633,4342067.164,-149.000
587543.633,4342017.022,-149.800
587543.633,4341966.880,-151.000
587543.633,4341916.738,-152.800
587543.633,4341866.596,-156.200
587543.633,4341816.453,-163.100
587543.633,4341766.311,-167.900
587543.633,4341716.169,-167.050
587543.633,4341666.027,-167.633
587543.633,4341615.885,-162.688
587543.633,4341565.743,-162.585
587543.633,4341515.601,-162.482
587543.633,4341465.458,-162.379
587543.633,4341415.316,-162.276
587543.633,4341365.174,-162.174
587543.633,4341315.032,-162.071
587543.633,4341264.890,-161.968
587543.633,4341214.748,-161.865
587543.633,4341164.606,-161.762
587543.633,4341114.463,-161.659
587543.633,4341064.321,-161.556
587543.633,4341014.179,-161.453
587543.633,4340964.037,-161.350
587543.633,4340913.895,-161.247
587543.633,4340863.753,-161.144
587543.633,4340813.611,-161.041
587543.633,4340763.468,-160.938
587543.633,4340713.326,-160.835
587543.633,4340663.184,-160.732
587543.633,4340613.042,-160.629
587543.633,4340562.900,-160.526
587543.633,4340512.758,-160.424
587543.633,4340462.616,-160.321
587543.633,4340412.473,-160.218
587543.633,4340362.331,-160.115
587543.633,4340312.189,-160.012
587543.633,4340161.763,-163.200
587543.633,4340111.620,-159.600
587543.633,4340061.478,-154.600
587543.633,4340011.336,-153.100
587543.633,4339961.194,-152.000
587543.633,4339911.052,-151.300
587543.633,4339860.910,-151.000
587543.633,4339810.768,-150.700
587543.633,4339760.625,-150.300
587543.633,4339710.483,-149.900
587543.633,4339660.341,-149.600
587543.633,4339610.199,-149.300
587543.633,4339560.057,-149.000
587543.633,4339509.915,-148.900
587543.633,4339459.773,-148.900
587543.633,4339409.630,-148.900
587543.633,4339359.488,-149.000
587543.633,4339309.346,-149.100
587543.633,4339259.204,-149.200
587543.633,4339209.062,-149.400
587543.633,4339158.920,-149.600
587543.633,4339108.778,-149.900
587543.633,4339058.635,-150.400
587543.633,4339008.493,-151.000
587543.633,4338958.351,-152.400
587543.633,4338908.209,-157.700
587543.633,4338858.067,-169.800
587543.633,4338807.925,-169.738
587543.633,4338757.783,-169.676
587543.633,4338707.640,-169.614
587543.633,4338657.498,-169.552
587543.633,4338607.356,-169.490
587543.633,4338557.214,-169.429
587543.633,4338507.072,-169.367
587543.633,4338456.930,-169.305
587543.633,4338406.788,-169.243
587543.633,4338356.645,-169.181
587543.633,4338306.503,-169.119
587543.633,4338256.361,-169.057
587543.633,4338206.219,-168.995
587543.633,4338156.077,-168.933
587543.633,4338105.935,-168.871
587543.633,4338055.792,-168.810
587543.633,4338005.650,-168.748
587543.633,4337955.508,-168.686
587543.633,4337905.366,-168.624
587543.633,4337855.224,-168.562
587543.633,4337805.082,-168.500
587543.633,4337754.940,-168.000
587543.633,4337704.797,-168.100
587543.633,4337654.655,-167.900
587543.633,4337604.513,-166.800
587543.633,4337554.371,-165.000
587543.633,4337504.229,-163.800
587543.633,4337454.087,-163.400
587543.633,4337403.945,-163.300
587543.633,4337353.802,-163.200
587543.633,4337303.660,-163.500
587543.633,4337253.518,-164.000
587543.633,4337203.376,-164.600
587543.633,4337153.234,-165.500
587543.633,4337103.092,-167.200
587593.724,4357009.524,-45.300
587593.724,4356959.382,-45.300
587593.724,4356909.240,-45.400
587593.724,4356859.097,-45.500
587593.724,4356808.955,-45.400
587593.724,4356758.813,-45.400
587593.724,4356708.671,-45.000
587593.724,4356658.529,-45.300
587593.724,4356608.387,-45.600
587593.724,4356558.244,-46.100
587593.724,4356508.102,-46.700
587593.724,4356457.960,-47.200
587593.724,4356407.818,-47.900
587593.724,4356357.676,-48.600
587593.724,4356307.534,-49.300
587593.724,4356257.392,-50.000
587593.724,4356207.249,-50.600
587593.724,4356157.107,-51.200
587593.724,4356106.965,-51.900
587593.724,4356056.823,-52.500
587593.724,4356006.681,-53.100
587593.724,4355956.539,-53.700
587593.724,4355906.397,-54.300
587593.724,4355856.254,-54.800
587593.724,4355806.112,-55.300
587593.724,4355755.970,-55.800
587593.724,4355705.828,-56.300
587593.724,4355655.686,-56.700
587593.724,4355605.544,-57.000
587593.724,4355555.402,-57.400
587593.724,4355505.259,-57.700
587593.724,4355455.117,-57.800
587593.724,4355404.975,-57.900
587593.724,4355354.833,-57.900
587593.724,4355304.691,-58.100
587593.724,4355254.549,-58.200
587593.724,4355204.407,-58.300
587593.724,4355154.264,-58.500
587593.724,4355104.122,-58.700
587593.724,4355053.980,-58.800
587593.724,4355003.838,-59.700
587593.724,4354953.696,-60.900
587593.724,4354903.554,-61.700
587593.724,4354853.412,-62.700
587593.724,4354803.269,-63.700
587593.724,4354753.127,-64.500
587593.724,4354702.985,-65.100
587593.724,4354652.843,-65.700
587593.724,4354602.701,-66.300
587593.724,4354552.559,-66.800
587593.724,4354502.416,-67.400
587593.724,4354452.274,-68.000
587593.724,4354402.132,-68.400
587593.724,4354351.990,-69.000
587593.724,4354301.848,-69.400
587593.724,4354251.706,-69.900
587593.724,4354201.564,-70.300
587593.724,4354151.421,-70.800
587593.724,4354101.279,-71.400
587593.724,4354051.137,-71.900
587593.724,4354000.995,-72.300
587593.724,4353950.853,-72.700
587593.724,4353900.711,-73.000
587593.724,4353850.569,-73.400
587593.724,4353800.426,-73.600
587593.724,4353750.284,-73.900
587593.724,4353700.142,-74.200
587593.724,4353650.000,-74.500
587593.724,4353599.858,-74.800
587593.724,4353549.716,-75.100
587593.724,4353499.574,-75.400
587593.724,4353449.431,-75.800
587593.724,4353399.289,-76.100
587593.724,4353349.147,-76.400
587593.724,4353299.005,-76.800
587593.724,4353248.863,-77.100
587593.724,4353198.721,-77.500
587593.724,4353148.579,-77.800
587593.724,4353098.436,-78.200
587593.724,4353048.294,-78.600
587593.724,4352998.152,-79.000
587593.724,4352948.010,-79.400
587593.724,4352897.868,-79.900
587593.724,4352847.726,-80.300
587593.724,4352797.584,-80.800
587593.724,4352747.441,-81.200
587593.724,4352697.299,-81.700
587593.724,4352647.157,-82.100
587593.724,4352597.015,-82.600
587593.724,4352546.873,-83.000
587593.724,4352496.731,-83.500
587593.724,4352446.588,-84.000
587593.724,4352396.446,-84.500
587593.724,4352346.304,-85.000
587593.724,4352296.162,-85.500
587593.724,4352246.020,-86.000
587593.724,4352195.878,-86.500
587593.724,4352145.736,-86.900
587593.724,4352095.593,-87.400
587593.724,4352045.451,-87.900
587593.724,4351995.309,-88.300
587593.724,4351945.167,-88.700
587593.724,4351895.025,-89.200
587593.724,4351844.883,-89.700
587593.724,4351794.741,-90.100
587593.724,4351744.598,-90.600
587593.724,4351694.456,-91.000
587593.724,4351644.314,-91.400
587593.724,4351594.172,-91.900
587593.724,4351544.030,-92.300
587593.724,4351493.888,-92.800
587593.724,4351443.746,-93.200
587593.724,4351393.603,-93.500
587593.724,4351343.461,-93.900
587593.724,4351293.319,-94.300
587593.724,4351243.177,-94.800
587593.724,4351193.035,-95.200
587593.724,4351142.893,-95.600
587593.724,4351092.751,-95.900
587593.724,4351042.608,-96.300
587593.724,4350992.466,-96.700
587593.724,4350942.324,-97.100
587593.724,4350892.182,-97.500
587593.724,4350842.040,-97.900
587593.724,4350791.898,-98.200
587593.724,4350741.756,-98.500
587593.724,4350691.613,-98.900
587593.724,4350641.471,-99.300
587593.724,4350591.329,-99.700
587593.724,4350541.187,-100.100
587593.724,4350491.045,-100.400
587593.724,4350440.903,-100.800
587593.724,4350390.760,-101.200
587593.724,4350340.618,-101.600
587593.724,4350290.476,-101.900
587593.724,4350240.334,-102.300
587593.724,4350190.192,-102.600
587593.724,4350140.050,-103.100
587593.724,4350089.908,-103.500
587593.724,4350039.765,-103.900
587593.724,4349989.623,-104.300
587593.724,4349939.481,-104.700
587593.724,4349889.339,-105.100
587593.724,4349839.197,-105.500
587593.724,4349789.055,-105.900
587593.724,4349738.913,-106.300
587593.724,4349688.770,-106.700
587593.724,4349638.628,-107.100
587593.724,4349588.486,-107.600
587593.724,4349538.344,-107.900
587593.724,4349488.202,-108.400
587593.724,4349438.060,-108.700
587593.724,4349387.918,-109.100
587593.724,4349337.775,-109.500
587593.724,4349287.633,-109.900
587593.724,4349237.491,-110.400
587593.724,4349187.349,-110.800
587593.724,4349137.207,-111.200
587593.724,4349087.065,-111.700
587593.724,4349036.923,-112.000
587593.724,4348986.780,-112.400
587593.724,4348936.638,-112.800
587593.724,4348886.496,-113.200
587593.724,4348836.354,-113.500
587593.724,4348786.212,-114.000
587593.724,4348736.070,-114.300
587593.724,4348685.928,-114.600
587593.724,4348635.785,-115.000
587593.724,4348585.643,-115.400
587593.724,4348535.501,-115.700
587593.724,4348485.359,-116.100
587593.724,4348435.217,-116.400
587593.724,4348385.075,-116.800
587593.724,4348334.932,-117.100
587593.724,4348284.790,-117.400
587593.724,4348234.648,-117.700
587593.724,4348184.506,-118.000
587593.724,4348134.364,-118.300
587593.724,4348084.222,-118.700
587593.724,4348034.080,-119.000
587593.724,4347983.937,-119.300
587593.724,4347933.795,-119.600
587593.724,4347883.653,-119.900
587593.724,4347833.511,-120.200
587593.724,4347783.369,-120.500
587593.724,4347733.227,-120.700
587593.724,4347683.085,-121.000
587593.724,4347632.942,-121.200
587593.724,4347582.800,-121.500
587593.724,4347532.658,-121.700
587593.724,4347482.516,-122.000
587593.724,4347432.374,-122.300
587593.724,4347382.232,-122.600
587593.724,4347332.090,-122.900
587593.724,4347281.947,-123.100
587593.724,4347231.805,-123.400
587593.724,4347181.663,-123.600
587593.724,4347131.521,-123.900
587593.724,4347081.379,-124.100
587593.724,4347031.237,-124.400
587593.724,4346981.095,-124.600
587593.724,4346930.952,-124.900
587593.724,4346880.810,-125.200
587593.724,4346830.668,-125.600
587593.724,4346780.526,-125.900
587593.724,4346730.384,-126.200
587593.724,4346680.242,-126.400
587593.724,4346630.100,-126.700
587593.724,4346579.957,-126.900
587593.724,4346529.815,-127.200
587593.724,4346479.673,-127.500
587593.724,4346429.531,-127.700
587593.724,4346379.389,-128.000
587593.724,4346329.247,-128.200
587593.724,4346279.104,-128.600
587593.724,4346228.962,-129.000
587593.724,4346178.820,-129.400
587593.724,4346128.678,-129.900
587593.724,4346078.536,-130.500
587593.724,4346028.394,-131.100
587593.724,4345978.252,-131.800
587593.724,4345928.109,-132.500
587593.724,4345877.967,-133.300
587593.724,4345827.825,-134.300
587593.724,4345777.683,-135.200
587593.724,4345727.541,-136.300
587593.724,4345677.399,-137.600
587593.724,4345627.257,-139.000
587593.724,4345577.114,-140.800
587593.724,4345526.972,-143.000
587593.724,4345476.830,-145.600
587593.724,4345426.688,-148.100
587593.724,4345376.546,-150.000
587593.724,4345326.404,-151.500
587593.724,4345276.262,-152.800
587593.724,4345226.119,-153.300
587593.724,4345175.977,-151.900
587593.724,4345125.835,-149.800
587593.724,4345075.693,-147.400
587593.724,4345025.551,-143.900
587593.724,4344975.409,-140.900
587593.724,4344925.267,-139.200
587593.724,4344875.124,-138.100
587593.724,4344824.982,-137.300
587593.724,4344774.840,-136.600
587593.724,4344724.698,-136.000
587593.724,4344674.556,-135.600
587593.724,4344624.414,-135.300
587593.724,4344574.272,-135.200
587593.724,4344524.129,-135.000
587593.724,4344473.987,-135.000
587593.724,4344423.845,-134.900
587593.724,4344373.703,-134.800
587593.724,4344323.561,-134.700
587593.724,4344273.419,-134.700
587593.724,4344223.276,-134.600
587593.724,4344173.134,-134.400
587593.724,4344122.992,-134.400
587593.724,4344072.850,-134.300
587593.724,4344022.708,-134.400
587593.724,4343972.566,-134.500
587593.724,4343922.424,-134.600
587593.724,4343872.281,-135.000
587593.724,4343822.139,-135.600
587593.724,4343771.997,-136.300
587593.724,4343721.855,-136.900
587593.724,4343671.713,-138.000
587593.724,4343621.571,-139.300
587593.724,4343571.429,-141.100
587593.724,4343521.286,-143.500
587593.724,4343471.144,-146.900
587593.724,4343421.002,-152.700
587593.724,4343370.860,-162.100
587593.724,4343320.718,-162.091
587593.724,4343270.576,-162.082
587593.724,4343220.434,-162.073
587593.724,4343170.291,-162.064
587593.724,4343120.149,-162.055
587593.724,4343070.007,-162.045
587593.724,4343019.865,-162.036
587593.724,4342969.723,-162.027
587593.724,4342919.581,-162.018
587593.724,4342869.439,-162.009
587593.724,4342819.296,-162.000
587593.724,4342769.154,-152.100
587593.724,4342719.012,-148.300
587593.724,4342668.870,-146.700
587593.724,4342618.728,-146.000
587593.724,4342568.586,-145.400
587593.724,4342518.444,-145.100
587593.724,4342468.301,-145.100
587593.724,4342418.159,-145.000
587593.724,4342368.017,-145.000
587593.724,4342317.875,-145.000
587593.724,4342267.733,-145.400
587593.724,4342217.591,-145.900
587593.724,4342167.448,-146.400
587593.724,4342117.306,-147.100
587593.724,4342067.164,-147.900
587593.724,4342017.022,-148.900
587593.724,4341966.880,-150.300
587593.724,4341916.738,-152.200
587593.724,4341866.596,-155.700
587593.724,4341816.453,-163.600
587593.724,4341766.311,-168.000
587593.724,4341716.169,-167.000
587593.724,4341666.027,-167.324
587593.724,4341615.885,-163.430
587593.724,4341565.743,-163.388
587593.724,4341515.601,-163.345
587593.724,4341465.458,-163.303
587593.724,4341415.316,-163.261
587593.724,4341365.174,-163.218
587593.724,4341315.032,-163.176
587593.724,4341264.890,-163.133
587593.724,4341214.748,-163.091
587593.724,4341164.606,-163.048
587593.724,4341114.463,-163.006
587593.724,4341064.321,-162.964
587593.724,4341014.179,-162.921
587593.724,4340964.037,-162.879
587593.724,4340913.895,-162.836
587593.724,4340863.753,-162.794
587593.724,4340813.611,-162.752
587593.724,4340763.468,-162.709
587593.724,4340713.326,-162.667
587593.724,4340663.184,-162.624
587593.724,4340613.042,-162.582
587593.724,4340562.900,-162.539
587593.724,4340512.758,-162.497
587593.724,4340462.616,-162.455
587593.724,4340412.473,-162.412
587593.724,4340362.331,-162.370
587593.724,4340312.189,-162.327
587593.724,4340161.763,-162.200
587593.724,4340111.620,-155.400
587593.724,4340061.478,-152.600
587593.724,4340011.336,-151.400
587593.724,4339961.194,-150.400
587593.724,4339911.052,-149.600
587593.724,4339860.910,-149.300
587593.724,4339810.768,-149.200
587593.724,4339760.625,-148.900
587593.724,4339710.483,-148.500
587593.724,4339660.341,-148.000
587593.724,4339610.199,-147.600
587593.724,4339560.057,-147.400
587593.724,4339509.915,-147.300
587593.724,4339459.773,-147.300
587593.724,4339409.630,-147.400
587593.724,4339359.488,-147.500
587593.724,4339309.346,-147.600
587593.724,4339259.204,-147.800
587593.724,4339209.062,-148.000
587593.724,4339158.920,-148.200
587593.724,4339108.778,-148.500
587593.724,4339058.635,-148.800
587593.724,4339008.493,-149.300
587593.724,4338958.351,-150.100
587593.724,4338908.209,-152.700
587593.724,4338858.067,-159.100
587593.724,4338807.925,-168.600
587593.724,4338757.783,-168.460
587593.724,4338707.640,-168.320
587593.724,4338657.498,-168.180
587593.724,4338607.356,-168.040
587593.724,4338557.214,-167.900
587593.724,4338507.072,-167.760
587593.724,4338456.930,-167.620
587593.724,4338406.788,-167.480
587593.724,4338356.645,-167.340
587593.724,4338306.503,-167.200
587593.724,4338256.361,-167.060
587593.724,4338206.219,-166.920
587593.724,4338156.077,-166.780
587593.724,4338105.935,-166.640
587593.724,4338055.792,-166.500
587593.724,4338005.650,-166.360
587593.724,4337955.508,-166.220
587593.724,4337905.366,-166.080
587593.724,4337855.224,-165.940
587593.724,4337805.082,-165.800
587593.724,4337754.940,-164.000
587593.724,4337704.797,-162.900
587593.724,4337654.655,-162.300
587593.724,4337604.513,-161.800
587593.724,4337554.371,-161.400
587593.724,4337504.229,-161.200
587593.724,4337454.087,-161.200
587593.724,4337403.945,-161.300
587593.724,4337353.802,-161.500
587593.724,4337303.660,-162.000
587593.724,4337253.518,-162.600
587593.724,4337203.376,-163.200
587593.724,4337153.234,-164.000
587593.724,4337103.092,-165.200
587593.724,4337052.950,-167.600
587643.816,4356808.955,-45.400
587643.816,4356758.813,-45.400
587643.816,4356708.671,-44.800
587643.816,4356658.529,-44.800
587643.816,4356608.387,-44.900
587643.816,4356558.244,-45.000
587643.816,4356508.102,-45.300
587643.816,4356457.960,-45.500
587643.816,4356407.818,-46.000
587643.816,4356357.676,-46.600
587643.816,4356307.534,-47.200
587643.816,4356257.392,-47.900
587643.816,4356207.249,-48.600
587643.816,4356157.107,-49.300
587643.816,4356106.965,-50.000
587643.816,4356056.823,-50.600
587643.816,4356006.681,-51.200
587643.816,4355956.539,-51.900
587643.816,4355906.397,-52.500
587643.816,4355856.254,-53.000
587643.816,4355806.112,-53.600
587643.816,4355755.970,-54.100
587643.816,4355705.828,-54.600
587643.816,4355655.686,-55.100
587643.816,4355605.544,-55.500
587643.816,4355555.402,-55.900
587643.816,4355505.259,-56.200
587643.816,4355455.117,-56.400
587643.816,4355404.975,-56.700
587643.816,4355354.833,-56.800
587643.816,4355304.691,-57.000
587643.816,4355254.549,-57.200
587643.816,4355204.407,-57.500
587643.816,4355154.264,-57.700
587643.816,4355104.122,-57.900
587643.816,4355053.980,-58.300
587643.816,4355003.838,-58.900
587643.816,4354953.696,-59.700
587643.816,4354903.554,-60.500
587643.816,4354853.412,-61.300
587643.816,4354803.269,-62.100
587643.816,4354753.127,-62.900
587643.816,4354702.985,-63.500
587643.816,4354652.843,-64.200
587643.816,4354602.701,-64.900
587643.816,4354552.559,-65.400
587643.816,4354502.416,-65.900
587643.816,4354452.274,-66.600
587643.816,4354402.132,-67.000
587643.816,4354351.990,-67.500
587643.816,4354301.848,-67.900
587643.816,4354251.706,-68.400
587643.816,4354201.564,-68.800
587643.816,4354151.421,-69.300
587643.816,4354101.279,-69.800
587643.816,4354051.137,-70.300
587643.816,4354000.995,-70.800
587643.816,4353950.853,-71.200
587643.816,4353900.711,-71.600
587643.816,4353850.569,-72.100
587643.816,4353800.426,-72.300
587643.816,4353750.284,-72.700
587643.816,4353700.142,-72.900
587643.816,4353650.000,-73.200
587643.816,4353599.858,-73.600
587643.816,4353549.716,-73.900
587643.816,4353499.574,-74.100
587643.816,4353449.431,-74.600
587643.816,4353399.289,-74.800
587643.816,4353349.147,-75.200
587643.816,4353299.005,-75.500
587643.816,4353248.863,-75.800
587643.816,4353198.721,-76.200
587643.816,4353148.579,-76.500
587643.816,4353098.436,-76.900
587643.816,4353048.294,-77.300
587643.816,4352998.152,-77.600
587643.816,4352948.010,-78.100
587643.816,4352897.868,-78.700
587643.816,4352847.726,-79.000
587643.816,4352797.584,-79.500
587643.816,4352747.441,-79.900
587643.816,4352697.299,-80.400
587643.816,4352647.157,-80.800
587643.816,4352597.015,-81.300
587643.816,4352546.873,-81.700
587643.816,4352496.731,-82.200
587643.816,4352446.588,-82.700
587643.816,4352396.446,-83.200
587643.816,4352346.304,-83.600
587643.816,4352296.162,-84.100
587643.816,4352246.020,-84.700
587643.816,4352195.878,-85.100
587643.816,4352145.736,-85.500
587643.816,4352095.593,-86.000
587643.816,4352045.451,-86.500
587643.816,4351995.309,-86.900
587643.816,4351945.167,-87.300
587643.816,4351895.025,-87.900
587643.816,4351844.883,-88.300
587643.816,4351794.741,-88.700
587643.816,4351744.598,-89.200
587643.816,4351694.456,-89.700
587643.816,4351644.314,-90.000
587643.816,4351594.172,-90.500
587643.816,4351544.030,-91.000
587643.816,4351493.888,-91.500
587643.816,4351443.746,-91.900
587643.816,4351393.603,-92.300
587643.816,4351343.461,-92.600
587643.816,4351293.319,-93.100
587643.816,4351243.177,-93.500
