676423.899,4409517.266,-455.5 
676423.899,4409417.266,-449.96 
676423.899,4409317.266,-448.22 
676423.899,4409217.266,-444.27 
676423.899,4409117.266,-441.28 
676423.899,4409017.266,-435.24 
676423.899,4408917.266,-431.34 
676423.899,4408817.266,-432.07 
676423.899,4408717.266,-436.31 
676423.899,4408617.266,-442.93 
676423.899,4408517.266,-448.69 
676423.899,4408417.266,-454.37 
676423.899,4408317.266,-460.48 
676423.899,4408217.266,-465.82 
676423.899,4408117.266,-475.42 
676423.899,4408017.266,-487.65 
676423.899,4407917.266,-498.44 
676423.899,4407817.266,-507.65 
676423.899,4407717.266,-513.1 
676423.899,4407617.266,-513.83 
676423.899,4407517.266,-516.34 
676423.899,4407417.266,-520.74 
676423.899,4407317.266,-533.77 
676423.899,4407217.266,-537.24 
676423.899,4407117.266,-547 
676423.899,4407017.266,-562.43 
676423.899,4406917.266,-578.89 
676423.899,4406817.266,-596.05 
676523.899,4411217.266,-618.45 
676523.899,4411117.266,-610.37 
676523.899,4411017.266,-603.18 
676523.899,4410917.266,-592.29 
676523.899,4410817.266,-585.44 
676523.899,4410717.266,-580.45 
676523.899,4410617.266,-570.45 
676523.899,4410517.266,-551.54 
676523.899,4410417.266,-539.94 
676523.899,4410317.266,-527.64 
676523.899,4410217.266,-519.3 
676523.899,4410117.266,-505.82 
676523.899,4410017.266,-504.25 
676523.899,4409917.266,-508.31 
676523.899,4409817.266,-489.29 
676523.899,4409717.266,-478.64 
676523.899,4409617.266,-472.33 
676523.899,4409517.266,-465.38 
676523.899,4409417.266,-458.73 
676523.899,4409317.266,-453.93 
676523.899,4409217.266,-449.16 
676523.899,4409117.266,-446.29 
676523.899,4409017.266,-446.68 
676523.899,4408917.266,-441.41 
676523.899,4408817.266,-440.84 
676523.899,4408717.266,-444.07 
676523.899,4408617.266,-448.15 
676523.899,4408517.266,-454.41 
676523.899,4408417.266,-459.58 
676523.899,4408317.266,-462.48 
676523.899,4408217.266,-468.3 
676523.899,4408117.266,-475.88 
676523.899,4408017.266,-485.37 
676523.899,4407917.266,-497.59 
676523.899,4407817.266,-507.3 
676523.899,4407717.266,-511.85 
676523.899,4407617.266,-514.2 
676523.899,4407517.266,-514.61 
676523.899,4407417.266,-516.02 
676523.899,4407317.266,-527.38 
676523.899,4407217.266,-531.8 
676523.899,4407117.266,-536.52 
676523.899,4407017.266,-552.94 
676523.899,4406917.266,-569.65 
676523.899,4406817.266,-580.7 
676523.899,4406717.266,-597.83 
676523.899,4406617.266,-617.6 
676623.899,4411317.266,-619.77 
676623.899,4411217.266,-615.19 
676623.899,4411117.266,-605.61 
676623.899,4411017.266,-599.39 
676623.899,4410917.266,-587.51 
676623.899,4410817.266,-583.61 
676623.899,4410717.266,-575.25 
676623.899,4410617.266,-563.42 
676623.899,4410517.266,-546.88 
676623.899,4410417.266,-537.25 
676623.899,4410317.266,-526.82 
676623.899,4410217.266,-519.86 
676623.899,4410117.266,-506.81 
676623.899,4410017.266,-507.49 
676623.899,4409917.266,-510.19 
676623.899,4409817.266,-510.28 
676623.899,4409717.266,-486.42 
676623.899,4409617.266,-478.04 
676623.899,4409517.266,-473.51 
676623.899,4409417.266,-465.57 
676623.899,4409317.266,-457.86 
676623.899,4409217.266,-454.49 
676623.899,4409117.266,-452.56 
676623.899,4409017.266,-452.25 
676623.899,4408917.266,-449.96 
676623.899,4408817.266,-452.09 
676623.899,4408717.266,-451.89 
676623.899,4408617.266,-456.29 
676623.899,4408517.266,-460.79 
676623.899,4408417.266,-465.61 
676623.899,4408317.266,-467.83 
676623.899,4408217.266,-472.06 
676623.899,4408117.266,-478.86 
676623.899,4408017.266,-488.98 
676623.899,4407917.266,-499.45 
676623.899,4407817.266,-508.02 
676623.899,4407717.266,-511.48 
676623.899,4407617.266,-513.14 
676623.899,4407517.266,-513.09 
676623.899,4407417.266,-514.11 
676623.899,4407317.266,-518.84 
676623.899,4407217.266,-525.56 
676623.899,4407117.266,-527.7 
676623.899,4407017.266,-538.15 
676623.899,4406917.266,-553.83 
676623.899,4406817.266,-568.21 
676623.899,4406717.266,-583.81 
676623.899,4406617.266,-600.58 
676623.899,4406517.266,-618.72 
676723.899,4411317.266,-619.39 
676723.899,4411217.266,-612.58 
676723.899,4411117.266,-604.63 
676723.899,4411017.266,-592.63 
676723.899,4410917.266,-586.18 
676723.899,4410817.266,-579.96 
676723.899,4410717.266,-569.04 
676723.899,4410617.266,-562.1 
676723.899,4410517.266,-550.27 
676723.899,4410417.266,-539.94 
676723.899,4410317.266,-535.7 
676723.899,4410217.266,-523.78 
676723.899,4410117.266,-516.72 
676723.899,4410017.266,-506.55 
676723.899,4409917.266,-513.32 
676723.899,4409817.266,-510 
676723.899,4409717.266,-499.18 
676723.899,4409617.266,-487.63 
676723.899,4409517.266,-478.06 
676723.899,4409417.266,-473.04 
676723.899,4409317.266,-466.28 
676723.899,4409217.266,-459.7 
676723.899,4409117.266,-456.3 
676723.899,4409017.266,-456.72 
676723.899,4408917.266,-457.29 
676723.899,4408817.266,-461.01 
676723.899,4408717.266,-460.79 
676723.899,4408617.266,-464.26 
676723.899,4408517.266,-467.31 
676723.899,4408417.266,-471.74 
676723.899,4408317.266,-474.47 
676723.899,4408217.266,-479.04 
676723.899,4408117.266,-484.19 
676723.899,4408017.266,-491.8 
676723.899,4407917.266,-502.39 
676723.899,4407817.266,-508.52 
676723.899,4407717.266,-510.74 
676723.899,4407617.266,-512.03 
676723.899,4407517.266,-512.72 
676723.899,4407417.266,-513.07 
676723.899,4407317.266,-514.9 
676723.899,4407217.266,-518.35 
676723.899,4407117.266,-523.13 
676723.899,4407017.266,-528.35 
676723.899,4406917.266,-539.84 
676723.899,4406817.266,-552.85 
676723.899,4406717.266,-566.35 
676723.899,4406617.266,-582.47 
676723.899,4406517.266,-600.39 
676723.899,4406417.266,-615.87 
676823.899,4411317.266,-618.24 
676823.899,4411217.266,-612.14 
676823.899,4411117.266,-604.55 
676823.899,4411017.266,-596.03 
676823.899,4410917.266,-585.73 
676823.899,4410817.266,-575.83 
676823.899,4410717.266,-574.65 
676823.899,4410617.266,-568.24 
676823.899,4410517.266,-556.7 
676823.899,4410417.266,-547.34 
676823.899,4410317.266,-538.91 
676823.899,4410217.266,-530.76 
676823.899,4410117.266,-520.27 
676823.899,4410017.266,-516.23 
676823.899,4409917.266,-513.49 
676823.899,4409817.266,-506.35 
676823.899,4409717.266,-500.02 
676823.899,4409617.266,-493.45 
676823.899,4409517.266,-483.44 
676823.899,4409417.266,-477.96 
676823.899,4409317.266,-472.65 
676823.899,4409217.266,-465.15 
676823.899,4409117.266,-461.82 
676823.899,4409017.266,-461.25 
676823.899,4408917.266,-469.23 
676823.899,4408817.266,-470.83 
676823.899,4408717.266,-468.07 
676823.899,4408617.266,-469.24 
676823.899,4408517.266,-474.39 
676823.899,4408417.266,-477.44 
676823.899,4408317.266,-480.96 
676823.899,4408217.266,-485.36 
676823.899,4408117.266,-490.64 
676823.899,4408017.266,-496.27 
676823.899,4407917.266,-503.92 
676823.899,4407817.266,-509.91 
676823.899,4407717.266,-512.07 
676823.899,4407617.266,-512.42 
676823.899,4407517.266,-511.86 
676823.899,4407417.266,-514.24 
676823.899,4407317.266,-515.71 
676823.899,4407217.266,-518.91 
676823.899,4407117.266,-524.03 
676823.899,4407017.266,-528.99 
676823.899,4406917.266,-538.06 
676823.899,4406817.266,-549.75 
676823.899,4406717.266,-561.83 
676823.899,4406617.266,-576.83 
676823.899,4406517.266,-589.6 
676823.899,4406417.266,-607.36 
676923.899,4411217.266,-615.85 
676923.899,4411117.266,-607.37 
676923.899,4411017.266,-596.57 
676923.899,4410917.266,-588.33 
676923.899,4410817.266,-573.39 
676923.899,4410717.266,-572.57 
676923.899,4410617.266,-567.26 
676923.899,4410517.266,-556.97 
676923.899,4410417.266,-546.08 
676923.899,4410317.266,-533.35 
676923.899,4410217.266,-530.27 
676923.899,4410117.266,-520.37 
676923.899,4410017.266,-515.84 
676923.899,4409917.266,-508.84 
676923.899,4409817.266,-504.01 
676923.899,4409717.266,-501.56 
676923.899,4409617.266,-498.24 
676923.899,4409517.266,-493.43 
676923.899,4409417.266,-480.8 
676923.899,4409317.266,-477.98 
676923.899,4409217.266,-472.54 
676923.899,4409117.266,-472.06 
676923.899,4409017.266,-470.15 
676923.899,4408917.266,-474.14 
676923.899,4408817.266,-474.51 
676923.899,4408717.266,-472.01 
676923.899,4408617.266,-472.16 
676923.899,4408517.266,-480.72 
676923.899,4408417.266,-482.3 
676923.899,4408317.266,-486.35 
676923.899,4408217.266,-490.19 
676923.899,4408117.266,-496.64 
676923.899,4408017.266,-501.46 
676923.899,4407917.266,-507.38 
676923.899,4407817.266,-511.45 
676923.899,4407717.266,-511.88 
676923.899,4407617.266,-514.18 
676923.899,4407517.266,-513.07 
676923.899,4407417.266,-516.36 
676923.899,4407317.266,-519.57 
676923.899,4407217.266,-523.35 
676923.899,4407117.266,-530.02 
676923.899,4407017.266,-535.04 
676923.899,4406917.266,-542.37 
676923.899,4406817.266,-551.89 
676923.899,4406717.266,-562.74 
676923.899,4406617.266,-576.04 
676923.899,4406517.266,-588.84 
676923.899,4406417.266,-604.14 
676923.899,4406317.266,-619.87 
677023.899,4411217.266,-615.35 
677023.899,4411117.266,-608.25 
677023.899,4411017.266,-599.72 
677023.899,4410917.266,-589.14 
677023.899,4410817.266,-574.77 
677023.899,4410717.266,-572.76 
677023.899,4410617.266,-565 
677023.899,4410517.266,-552.6 
677023.899,4410417.266,-543.04 
677023.899,4410317.266,-535.53 
677023.899,4410217.266,-525.56 
677023.899,4410117.266,-519.22 
677023.899,4410017.266,-514.48 
677023.899,4409917.266,-509.27 
677023.899,4409817.266,-504.15 
677023.899,4409717.266,-503.84 
677023.899,4409617.266,-498 
677023.899,4409517.266,-489.83 
677023.899,4409417.266,-483.89 
677023.899,4409317.266,-480.38 
677023.899,4409217.266,-474.8 
677023.899,4409117.266,-475.38 
677023.899,4409017.266,-479.44 
677023.899,4408917.266,-483.03 
677023.899,4408817.266,-490.44 
677023.899,4408717.266,-489.33 
677023.899,4408617.266,-482.7 
677023.899,4408517.266,-483.92 
677023.899,4408417.266,-487.02 
677023.899,4408317.266,-491.81 
677023.899,4408217.266,-497.23 
677023.899,4408117.266,-500.69 
677023.899,4408017.266,-505.26 
677023.899,4407917.266,-508.41 
677023.899,4407817.266,-514 
677023.899,4407717.266,-515.34 
677023.899,4407617.266,-515.03 
677023.899,4407517.266,-515.94 
677023.899,4407417.266,-519.51 
677023.899,4407317.266,-524.68 
677023.899,4407217.266,-528.71 
677023.899,4407117.266,-535.94 
677023.899,4407017.266,-542.59 
677023.899,4406917.266,-549.36 
677023.899,4406817.266,-558.7 
677023.899,4406717.266,-570.42 
677023.899,4406617.266,-581.26 
677023.899,4406517.266,-595.37 
677023.899,4406417.266,-610.56 
677123.899,4411217.266,-612.81 
677123.899,4411117.266,-604.46 
677123.899,4411017.266,-597.07 
677123.899,4410917.266,-591.99 
677123.899,4410817.266,-577.03 
677123.899,4410717.266,-572.49 
677123.899,4410617.266,-561 
677123.899,4410517.266,-552.4 
677123.899,4410417.266,-547.05 
677123.899,4410317.266,-534.57 
677123.899,4410217.266,-527.08 
677123.899,4410117.266,-520.99 
677123.899,4410017.266,-516.42 
677123.899,4409917.266,-507.93 
677123.899,4409817.266,-502.17 
677123.899,4409717.266,-504.44 
677123.899,4409617.266,-497.65 
677123.899,4409517.266,-489.86 
677123.899,4409417.266,-483.76 
677123.899,4409317.266,-478.32 
677123.899,4409217.266,-473.27 
677123.899,4409117.266,-471.02 
677123.899,4409017.266,-478.88 
677123.899,4408917.266,-485.66 
677123.899,4408817.266,-494.27 
677123.899,4408717.266,-496.79 
677123.899,4408617.266,-497.22 
677123.899,4408517.266,-493.26 
677123.899,4408417.266,-498.36 
677123.899,4408317.266,-498.66 
677123.899,4408217.266,-502.47 
677123.899,4408117.266,-501.34 
677123.899,4408017.266,-508.52 
677123.899,4407917.266,-509.06 
677123.899,4407817.266,-513.16 
677123.899,4407717.266,-516.11 
677123.899,4407617.266,-516.58 
677123.899,4407517.266,-518.96 
677123.899,4407417.266,-523.64 
677123.899,4407317.266,-528.07 
677123.899,4407217.266,-533.75 
677123.899,4407117.266,-543 
677123.899,4407017.266,-550.25 
677123.899,4406917.266,-556.31 
677123.899,4406817.266,-566.66 
677123.899,4406717.266,-577.96 
677123.899,4406617.266,-590.77 
677123.899,4406517.266,-603.52 
677123.899,4406417.266,-619.21 
677223.899,4411217.266,-617.76 
677223.899,4411117.266,-609.62 
677223.899,4411017.266,-597.26 
677223.899,4410917.266,-585.57 
677223.899,4410817.266,-580.9 
677223.899,4410717.266,-570.88 
677223.899,4410617.266,-559.9 
677223.899,4410517.266,-550.65 
677223.899,4410417.266,-541.42 
677223.899,4410317.266,-536.5 
677223.899,4410217.266,-526.38 
677223.899,4410117.266,-522 
677223.899,4410017.266,-518.52 
677223.899,4409917.266,-511.95 
677223.899,4409817.266,-507.98 
677223.899,4409717.266,-507.77 
677223.899,4409617.266,-499.07 
677223.899,4409517.266,-491.73 
677223.899,4409417.266,-487.08 
677223.899,4409317.266,-481.41 
677223.899,4409217.266,-474.43 
677223.899,4409117.266,-470.49 
677223.899,4409017.266,-477.38 
677223.899,4408917.266,-485.9 
677223.899,4408817.266,-493.05 
677223.899,4408717.266,-497.94 
677223.899,4408617.266,-500.32 
677223.899,4408517.266,-496.73 
677223.899,4408417.266,-500.31 
677223.899,4408317.266,-502.97 
677223.899,4408217.266,-508.5 
677223.899,4408117.266,-509.01 
677223.899,4408017.266,-514.11 
677223.899,4407917.266,-513.83 
677223.899,4407817.266,-518.13 
677223.899,4407717.266,-518.5 
677223.899,4407617.266,-518.47 
677223.899,4407517.266,-518.58 
677223.899,4407417.266,-527.57 
677223.899,4407317.266,-532.63 
677223.899,4407217.266,-539.41 
677223.899,4407117.266,-549.01 
677223.899,4407017.266,-556.79 
677223.899,4406917.266,-562.05 
677223.899,4406817.266,-574.82 
677223.899,4406717.266,-588 
677223.899,4406617.266,-598.84 
677223.899,4406517.266,-612.11 
677323.899,4411217.266,-615.85 
677323.899,4411117.266,-608.37 
677323.899,4411017.266,-600.73 
677323.899,4410917.266,-593.42 
677323.899,4410817.266,-579.24 
677323.899,4410717.266,-571.07 
677323.899,4410617.266,-561.89 
677323.899,4410517.266,-553.18 
677323.899,4410417.266,-545.72 
677323.899,4410317.266,-538.99 
677323.899,4410217.266,-536.42 
677323.899,4410117.266,-531.07 
677323.899,4410017.266,-523.84 
677323.899,4409917.266,-518.62 
677323.899,4409817.266,-515.11 
677323.899,4409717.266,-510.71 
677323.899,4409617.266,-505.22 
677323.899,4409517.266,-498.53 
677323.899,4409417.266,-489.38 
677323.899,4409317.266,-480.18 
677323.899,4409217.266,-472.78 
677323.899,4409117.266,-467.78 
677323.899,4409017.266,-471.09 
677323.899,4408917.266,-481.53 
677323.899,4408817.266,-489.06 
677323.899,4408717.266,-496.78 
677323.899,4408617.266,-497.78 
677323.899,4408517.266,-500.77 
677323.899,4408417.266,-504.25 
677323.899,4408317.266,-508.01 
677323.899,4408217.266,-512 
677323.899,4408117.266,-512.13 
677323.899,4408017.266,-517.28 
677323.899,4407917.266,-517.11 
677323.899,4407817.266,-518.66 
677323.899,4407717.266,-518.49 
677323.899,4407617.266,-522.04 
677323.899,4407517.266,-524.64 
677323.899,4407417.266,-529.94 
677323.899,4407317.266,-538.17 
677323.899,4407217.266,-544.28 
677323.899,4407117.266,-554.08 
677323.899,4407017.266,-561.94 
677323.899,4406917.266,-567.16 
677323.899,4406817.266,-580.62 
677323.899,4406717.266,-593.83 
677323.899,4406617.266,-610.61 
677423.899,4411117.266,-615.87 
677423.899,4411017.266,-607.6 
677423.899,4410917.266,-594.53 
677423.899,4410817.266,-579.47 
677423.899,4410717.266,-574.88 
677423.899,4410617.266,-566.21 
677423.899,4410517.266,-559.38 
677423.899,4410417.266,-557.06 
677423.899,4410317.266,-551.71 
677423.899,4410217.266,-546.35 
677423.899,4410117.266,-541.34 
677423.899,4410017.266,-534.59 
677423.899,4409917.266,-524.52 
677423.899,4409817.266,-520.15 
677423.899,4409717.266,-514.23 
677423.899,4409617.266,-508.87 
677423.899,4409517.266,-502.29 
677423.899,4409417.266,-489.99 
677423.899,4409317.266,-482.19 
677423.899,4409217.266,-472.22 
677423.899,4409117.266,-468.38 
677423.899,4409017.266,-470.05 
677423.899,4408917.266,-477.21 
677423.899,4408817.266,-483.87 
677423.899,4408717.266,-494.54 
677423.899,4408617.266,-497.65 
677423.899,4408517.266,-499.98 
677423.899,4408417.266,-506.8 
677423.899,4408317.266,-506.4 
677423.899,4408217.266,-510.14 
677423.899,4408117.266,-513.54 
677423.899,4408017.266,-517.43 
677423.899,4407917.266,-519.76 
677423.899,4407817.266,-520.17 
677423.899,4407717.266,-524.27 
677423.899,4407617.266,-524.44 
677423.899,4407517.266,-530.71 
677423.899,4407417.266,-532.49 
677423.899,4407317.266,-539.34 
677423.899,4407217.266,-549.84 
677423.899,4407117.266,-557.78 
677423.899,4407017.266,-568.81 
677423.899,4406917.266,-574.83 
677423.899,4406817.266,-587.19 
677423.899,4406717.266,-601.51 
677423.899,4406617.266,-617.74 
677523.899,4411017.266,-618.59 
677523.899,4410917.266,-603.86 
677523.899,4410817.266,-588.5 
677523.899,4410717.266,-581.45 
677523.899,4410617.266,-575.13 
677523.899,4410517.266,-572.5 
677523.899,4410417.266,-570.32 
677523.899,4410317.266,-565.52 
677523.899,4410217.266,-556.21 
677523.899,4410117.266,-549.11 
677523.899,4410017.266,-537.82 
677523.899,4409917.266,-529.68 
677523.899,4409817.266,-522.66 
677523.899,4409717.266,-514.86 
677523.899,4409617.266,-508.8 
677523.899,4409517.266,-499.41 
677523.899,4409417.266,-490.26 
677523.899,4409317.266,-484.92 
677523.899,4409217.266,-471.67 
677523.899,4409117.266,-471.21 
677523.899,4409017.266,-471.65 
677523.899,4408917.266,-477.11 
677523.899,4408817.266,-483.3 
677523.899,4408717.266,-490.7 
677523.899,4408617.266,-497.12 
677523.899,4408517.266,-499.67 
677523.899,4408417.266,-502.88 
677523.899,4408317.266,-505.88 
677523.899,4408217.266,-508.39 
677523.899,4408117.266,-512.62 
677523.899,4408017.266,-514.59 
677523.899,4407917.266,-517.15 
677523.899,4407817.266,-522.15 
677523.899,4407717.266,-524.02 
677523.899,4407617.266,-527.7 
677523.899,4407517.266,-531.71 
677523.899,4407417.266,-535.14 
677523.899,4407317.266,-542.95 
677523.899,4407217.266,-553.02 
677523.899,4407117.266,-563.9 
677523.899,4407017.266,-571.42 
677523.899,4406917.266,-579.56 
677523.899,4406817.266,-595.02 
677523.899,4406717.266,-610.51 
677623.899,4411017.266,-614.69 
677623.899,4410917.266,-605.91 
677623.899,4410817.266,-598.99 
677623.899,4410717.266,-593.59 
677623.899,4410617.266,-582 
677623.899,4410517.266,-577.22 
677623.899,4410417.266,-570.13 
677623.899,4410317.266,-565.58 
677623.899,4410217.266,-561.33 
677623.899,4410117.266,-547.75 
677623.899,4410017.266,-537.23 
677623.899,4409917.266,-531.33 
677623.899,4409817.266,-523.89 
677623.899,4409717.266,-514.79 
677623.899,4409617.266,-504.97 
677623.899,4409517.266,-499.04 
677623.899,4409417.266,-494.98 
677623.899,4409317.266,-486.41 
677623.899,4409217.266,-475.13 
677623.899,4409117.266,-473.02 
677623.899,4409017.266,-474.89 
677623.899,4408917.266,-479.56 
677623.899,4408817.266,-487.13 
677623.899,4408717.266,-492.86 
677623.899,4408617.266,-498.28 
677623.899,4408517.266,-501.33 
677623.899,4408417.266,-502.7 
677623.899,4408317.266,-505.78 
677623.899,4408217.266,-508.34 
677623.899,4408117.266,-511.96 
677623.899,4408017.266,-513.34 
677623.899,4407917.266,-517.35 
677623.899,4407817.266,-519.1 
677623.899,4407717.266,-522.74 
677623.899,4407617.266,-527.65 
677623.899,4407517.266,-532.34 
677623.899,4407417.266,-535.71 
677623.899,4407317.266,-544.04 
677623.899,4407217.266,-554.27 
677623.899,4407117.266,-565.15 
677623.899,4407017.266,-577.53 
677623.899,4406917.266,-590.9 
677623.899,4406817.266,-603.11 
677623.899,4406717.266,-619.15 
677723.899,4411017.266,-614.51 
677723.899,4410917.266,-606.39 
677723.899,4410817.266,-599.03 
677723.899,4410717.266,-590.66 
677723.899,4410617.266,-583.03 
677723.899,4410517.266,-576.78 
677723.899,4410417.266,-570.79 
677723.899,4410317.266,-567.67 
677723.899,4410217.266,-559.42 
677723.899,4410117.266,-552.8 
677723.899,4410017.266,-539.72 
677723.899,4409917.266,-529.53 
677723.899,4409817.266,-521.91 
677723.899,4409717.266,-515.71 
677723.899,4409617.266,-506.09 
677723.899,4409517.266,-500.5 
677723.899,4409417.266,-494.98 
677723.899,4409317.266,-488.69 
677723.899,4409217.266,-476.73 
677723.899,4409117.266,-476.36 
677723.899,4409017.266,-477.48 
677723.899,4408917.266,-483.61 
677723.899,4408817.266,-491.23 
677723.899,4408717.266,-495.78 
677723.899,4408617.266,-500.79 
677723.899,4408517.266,-503.3 
677723.899,4408417.266,-505.55 
677723.899,4408317.266,-507.15 
677723.899,4408217.266,-508.86 
677723.899,4408117.266,-511.25 
677723.899,4408017.266,-513.14 
677723.899,4407917.266,-516.63 
677723.899,4407817.266,-518.49 
677723.899,4407717.266,-521.79 
677723.899,4407617.266,-527.54 
677723.899,4407517.266,-532.63 
677723.899,4407417.266,-537.09 
677723.899,4407317.266,-544.53 
677723.899,4407217.266,-554.42 
677723.899,4407117.266,-566.81 
677723.899,4407017.266,-582.62 
677723.899,4406917.266,-597.52 
677723.899,4406817.266,-606.73 
677723.899,4406717.266,-617.71 
677823.899,4411017.266,-620 
677823.899,4410917.266,-617.01 
677823.899,4410817.266,-601.01 
677823.899,4410717.266,-592.08 
677823.899,4410617.266,-586.68 
677823.899,4410517.266,-581.25 
677823.899,4410417.266,-573.93 
677823.899,4410317.266,-568.15 
677823.899,4410217.266,-561.76 
677823.899,4410117.266,-555.06 
677823.899,4410017.266,-542.6 
677823.899,4409917.266,-529 
677823.899,4409817.266,-519.61 
677823.899,4409717.266,-514.43 
677823.899,4409617.266,-508.03 
677823.899,4409517.266,-499.61 
677823.899,4409417.266,-495.2 
677823.899,4409317.266,-489.2 
677823.899,4409217.266,-480.11 
677823.899,4409117.266,-477.98 
677823.899,4409017.266,-479.21 
677823.899,4408917.266,-484.49 
677823.899,4408817.266,-493.19 
677823.899,4408717.266,-498.35 
677823.899,4408617.266,-502.74 
677823.899,4408517.266,-507.36 
677823.899,4408417.266,-507.04 
677823.899,4408317.266,-509.84 
677823.899,4408217.266,-510.52 
677823.899,4408117.266,-512.8 
677823.899,4408017.266,-515.78 
677823.899,4407917.266,-517.67 
677823.899,4407817.266,-520.15 
677823.899,4407717.266,-522.89 
677823.899,4407617.266,-528.53 
677823.899,4407517.266,-533.51 
677823.899,4407417.266,-538.89 
677823.899,4407317.266,-548.78 
677823.899,4407217.266,-558.83 
677823.899,4407117.266,-571.33 
677823.899,4407017.266,-589.44 
677823.899,4406917.266,-601.58 
677823.899,4406817.266,-611.16 
677923.899,4410917.266,-616.16 
677923.899,4410817.266,-601.03 
677923.899,4410717.266,-592.58 
677923.899,4410617.266,-585.61 
677923.899,4410517.266,-576.58 
677923.899,4410417.266,-575.31 
677923.899,4410317.266,-567.22 
677923.899,4410217.266,-563.34 
677923.899,4410117.266,-552.33 
677923.899,4410017.266,-541.55 
677923.899,4409917.266,-531.79 
677923.899,4409817.266,-523.48 
677923.899,4409717.266,-516.83 
677923.899,4409617.266,-507.24 
677923.899,4409517.266,-501.03 
677923.899,4409417.266,-493.86 
677923.899,4409317.266,-488.26 
677923.899,4409217.266,-481.94 
677923.899,4409117.266,-479.82 
677923.899,4409017.266,-482.89 
677923.899,4408917.266,-487.74 
677923.899,4408817.266,-494.21 
677923.899,4408717.266,-500.04 
677923.899,4408617.266,-504.75 
677923.899,4408517.266,-509.15 
677923.899,4408417.266,-509.8 
677923.899,4408317.266,-510.95 
677923.899,4408217.266,-512.2 
677923.899,4408117.266,-513.9 
677923.899,4408017.266,-516.79 
677923.899,4407917.266,-519.41 
677923.899,4407817.266,-521.82 
677923.899,4407717.266,-526.15 
677923.899,4407617.266,-529.94 
677923.899,4407517.266,-535.26 
677923.899,4407417.266,-541.57 
677923.899,4407317.266,-554.62 
677923.899,4407217.266,-566.36 
677923.899,4407117.266,-581.32 
677923.899,4407017.266,-593.8 
677923.899,4406917.266,-604.13 
677923.899,4406817.266,-614.71 
678023.899,4410917.266,-612.52 
678023.899,4410817.266,-599.66 
678023.899,4410717.266,-592.65 
678023.899,4410617.266,-584.33 
678023.899,4410517.266,-575.02 
678023.899,4410417.266,-570.23 
678023.899,4410317.266,-559.9 
678023.899,4410217.266,-552.8 
678023.899,4410117.266,-549.81 
678023.899,4410017.266,-541.99 
678023.899,4409917.266,-529.22 
678023.899,4409817.266,-522.81 
678023.899,4409717.266,-514.98 
678023.899,4409617.266,-508.97 
678023.899,4409517.266,-501.82 
678023.899,4409417.266,-495.58 
678023.899,4409317.266,-487.73 
678023.899,4409217.266,-486.91 
678023.899,4409117.266,-482.77 
678023.899,4409017.266,-483.86 
678023.899,4408917.266,-488.67 
678023.899,4408817.266,-494.99 
678023.899,4408717.266,-500.71 
678023.899,4408617.266,-506.8 
678023.899,4408517.266,-509.89 
678023.899,4408417.266,-511.3 
678023.899,4408317.266,-513.04 
678023.899,4408217.266,-514.23 
678023.899,4408117.266,-516.08 
678023.899,4408017.266,-517.88 
678023.899,4407917.266,-522.09 
678023.899,4407817.266,-525.64 
678023.899,4407717.266,-529.6 
678023.899,4407617.266,-532.89 
678023.899,4407517.266,-537.11 
678023.899,4407417.266,-544.07 
678023.899,4407317.266,-559.9 
678023.899,4407217.266,-574.63 
678023.899,4407117.266,-586.9 
678023.899,4407017.266,-597.51 
678023.899,4406917.266,-606.92 
678023.899,4406817.266,-619.41 
678123.899,4410917.266,-609.88 
678123.899,4410817.266,-598.16 
678123.899,4410717.266,-587.99 
678123.899,4410617.266,-581.42 
678123.899,4410517.266,-570.77 
678123.899,4410417.266,-567.07 
678123.899,4410317.266,-558.75 
678123.899,4410217.266,-553.64 
678123.899,4410117.266,-541.52 
678123.899,4410017.266,-531.98 
678123.899,4409917.266,-522.33 
678123.899,4409817.266,-516.93 
678123.899,4409717.266,-512.81 
678123.899,4409617.266,-507.35 
678123.899,4409517.266,-503.46 
678123.899,4409417.266,-500.31 
678123.899,4409317.266,-494.73 
678123.899,4409217.266,-491.62 
678123.899,4409117.266,-487.66 
678123.899,4409017.266,-487.28 
678123.899,4408917.266,-490.5 
678123.899,4408817.266,-496.47 
678123.899,4408717.266,-501.7 
678123.899,4408617.266,-508.18 
678123.899,4408517.266,-511.75 
678123.899,4408417.266,-514.05 
678123.899,4408317.266,-515.46 
678123.899,4408217.266,-516.73 
678123.899,4408117.266,-517.48 
678123.899,4408017.266,-518.87 
678123.899,4407917.266,-522.13 
678123.899,4407817.266,-526.27 
678123.899,4407717.266,-530.31 
678123.899,4407617.266,-535.03 
678123.899,4407517.266,-538.99 
678123.899,4407417.266,-548.41 
678123.899,4407317.266,-563.96 
678123.899,4407217.266,-576.56 
678123.899,4407117.266,-587.6 
678123.899,4407017.266,-599.62 
678123.899,4406917.266,-610.61 
678223.899,4410917.266,-610.02 
678223.899,4410817.266,-594.16 
678223.899,4410717.266,-583.12 
678223.899,4410617.266,-573.98 
678223.899,4410517.266,-570.59 
678223.899,4410417.266,-561.66 
678223.899,4410317.266,-554.75 
678223.899,4410217.266,-542.26 
678223.899,4410117.266,-536.76 
678223.899,4410017.266,-528.76 
678223.899,4409917.266,-523.56 
678223.899,4409817.266,-519.34 
678223.899,4409717.266,-516.86 
678223.899,4409617.266,-514.38 
678223.899,4409517.266,-509.53 
678223.899,4409417.266,-502.75 
678223.899,4409317.266,-495.19 
678223.899,4409217.266,-495.36 
678223.899,4409117.266,-495.44 
678223.899,4409017.266,-492.47 
678223.899,4408917.266,-494.12 
678223.899,4408817.266,-497.41 
678223.899,4408717.266,-504.59 
678223.899,4408617.266,-511.4 
678223.899,4408517.266,-515.94 
678223.899,4408417.266,-517.95 
678223.899,4408317.266,-518.98 
678223.899,4408217.266,-518.74 
678223.899,4408117.266,-519.96 
678223.899,4408017.266,-521.17 
678223.899,4407917.266,-522.27 
678223.899,4407817.266,-524.48 
678223.899,4407717.266,-530.15 
678223.899,4407617.266,-535.88 
678223.899,4407517.266,-543.22 
678223.899,4407417.266,-553.84 
678223.899,4407317.266,-568.29 
678223.899,4407217.266,-578.75 
678223.899,4407117.266,-589.58 
678223.899,4407017.266,-600.89 
678223.899,4406917.266,-613.24 
678323.899,4410917.266,-613.95 
678323.899,4410817.266,-596.82 
678323.899,4410717.266,-583.22 
678323.899,4410617.266,-578.45 
678323.899,4410517.266,-571.05 
678323.899,4410417.266,-567 
678323.899,4410317.266,-553 
678323.899,4410217.266,-543.91 
678323.899,4410117.266,-539.77 
678323.899,4410017.266,-532.15 
678323.899,4409917.266,-529.1 
678323.899,4409817.266,-520.81 
678323.899,4409717.266,-518.08 
678323.899,4409617.266,-516.33 
678323.899,4409517.266,-513.61 
678323.899,4409417.266,-509.43 
678323.899,4409317.266,-504.64 
678323.899,4409217.266,-501.1 
678323.899,4409117.266,-497.41 
678323.899,4409017.266,-495.64 
678323.899,4408917.266,-496.88 
678323.899,4408817.266,-502.14 
678323.899,4408717.266,-508.74 
678323.899,4408617.266,-515.71 
678323.899,4408517.266,-517.66 
678323.899,4408417.266,-521.03 
678323.899,4408317.266,-521.23 
678323.899,4408217.266,-522.31 
678323.899,4408117.266,-523.34 
678323.899,4408017.266,-524.01 
678323.899,4407917.266,-524.76 
678323.899,4407817.266,-525.8 
678323.899,4407717.266,-529.24 
678323.899,4407617.266,-535.99 
678323.899,4407517.266,-546.25 
678323.899,4407417.266,-556.47 
678323.899,4407317.266,-572.47 
678323.899,4407217.266,-583.82 
678323.899,4407117.266,-594.02 
678323.899,4407017.266,-604.12 
678323.899,4406917.266,-616.21 
678423.899,4410917.266,-615.44 
678423.899,4410817.266,-606.93 
678423.899,4410717.266,-595.34 
678423.899,4410617.266,-587.13 
678423.899,4410517.266,-580.2 
678423.899,4410417.266,-568.5 
678423.899,4410317.266,-554.44 
678423.899,4410217.266,-548.98 
678423.899,4410117.266,-541.95 
678423.899,4410017.266,-537.04 
678423.899,4409917.266,-530.71 
678423.899,4409817.266,-524.17 
678423.899,4409717.266,-522.45 
678423.899,4409617.266,-520.55 
678423.899,4409517.266,-517.67 
678423.899,4409417.266,-513.67 
678423.899,4409317.266,-508.53 
678423.899,4409217.266,-504.68 
678423.899,4409117.266,-502.83 
678423.899,4409017.266,-500.75 
678423.899,4408917.266,-499.92 
678423.899,4408817.266,-504.41 
678423.899,4408717.266,-511.86 
678423.899,4408617.266,-518.48 
678423.899,4408517.266,-524.33 
678423.899,4408417.266,-524.78 
678423.899,4408317.266,-525.01 
678423.899,4408217.266,-525.56 
678423.899,4408117.266,-526.82 
678423.899,4408017.266,-525.94 
678423.899,4407917.266,-524.91 
678423.899,4407817.266,-527.52 
678423.899,4407717.266,-530.88 
678423.899,4407617.266,-539.28 
678423.899,4407517.266,-547.25 
678423.899,4407417.266,-559.24 
678423.899,4407317.266,-573.69 
678423.899,4407217.266,-586.66 
678423.899,4407117.266,-599.32 
678423.899,4407017.266,-608.86 
678523.899,4410817.266,-611.58 
678523.899,4410717.266,-602.46 
678523.899,4410617.266,-592.69 
678523.899,4410517.266,-585.24 
678523.899,4410417.266,-574.46 
678523.899,4410317.266,-558.84 
678523.899,4410217.266,-553.99 
678523.899,4410117.266,-544.02 
678523.899,4410017.266,-544.16 
678523.899,4409917.266,-533.77 
678523.899,4409817.266,-530.06 
678523.899,4409717.266,-526.12 
678523.899,4409617.266,-523.76 
678523.899,4409517.266,-520.45 
678523.899,4409417.266,-518.05 
678523.899,4409317.266,-515.99 
678523.899,4409217.266,-511.14 
678523.899,4409117.266,-507.38 
678523.899,4409017.266,-505.73 
678523.899,4408917.266,-506.18 
678523.899,4408817.266,-509.44 
678523.899,4408717.266,-515.97 
678523.899,4408617.266,-520.97 
678523.899,4408517.266,-524.47 
678523.899,4408417.266,-528.23 
678523.899,4408317.266,-532.17 
678523.899,4408217.266,-532.98 
678523.899,4408117.266,-531.94 
678523.899,4408017.266,-532.14 
678523.899,4407917.266,-528.89 
678523.899,4407817.266,-532.71 
678523.899,4407717.266,-531.17 
678523.899,4407617.266,-542.29 
678523.899,4407517.266,-548.48 
678523.899,4407417.266,-559.97 
678523.899,4407317.266,-574.72 
678523.899,4407217.266,-589.48 
678523.899,4407117.266,-601.49 
678523.899,4407017.266,-612.11 
678623.899,4410817.266,-613.88 
678623.899,4410717.266,-605.84 
678623.899,4410617.266,-593.76 
678623.899,4410517.266,-584.07 
678623.899,4410417.266,-573.9 
678623.899,4410317.266,-564.47 
678623.899,4410217.266,-557.89 
678623.899,4410117.266,-552.31 
678623.899,4410017.266,-545.58 
678623.899,4409917.266,-540.27 
678623.899,4409817.266,-535.47 
678623.899,4409717.266,-531.56 
678623.899,4409617.266,-526.8 
678623.899,4409517.266,-523.33 
678623.899,4409417.266,-521.74 
678623.899,4409317.266,-519.1 
678623.899,4409217.266,-517.09 
678623.899,4409117.266,-512.96 
678623.899,4409017.266,-511.12 
678623.899,4408917.266,-511.82 
678623.899,4408817.266,-511.8 
678623.899,4408717.266,-519.31 
678623.899,4408617.266,-523.79 
678623.899,4408517.266,-531.17 
678623.899,4408417.266,-533.8 
678623.899,4408317.266,-534.74 
678623.899,4408217.266,-536.6 
678623.899,4408117.266,-537.12 
678623.899,4408017.266,-535.65 
678623.899,4407917.266,-538.71 
678623.899,4407817.266,-536.7 
678623.899,4407717.266,-542.92 
678623.899,4407617.266,-546.38 
678623.899,4407517.266,-554.04 
678623.899,4407417.266,-564.61 
678623.899,4407317.266,-572.95 
678623.899,4407217.266,-587.4 
678623.899,4407117.266,-602.01 
678623.899,4407017.266,-615.85 
678723.899,4410817.266,-617.77 
678723.899,4410717.266,-608.78 
678723.899,4410617.266,-597.76 
678723.899,4410517.266,-586.74 
678723.899,4410417.266,-579.53 
678723.899,4410317.266,-573.57 
678723.899,4410217.266,-560.33 
678723.899,4410117.266,-558.89 
678723.899,4410017.266,-550.37 
678723.899,4409917.266,-545.82 
678723.899,4409817.266,-542.89 
678723.899,4409717.266,-538.83 
678723.899,4409617.266,-534.03 
678723.899,4409517.266,-530.14 
678723.899,4409417.266,-525.72 
678723.899,4409317.266,-523.68 
678723.899,4409217.266,-520.96 
678723.899,4409117.266,-516.5 
678723.899,4409017.266,-515.84 
678723.899,4408917.266,-514.91 
678723.899,4408817.266,-516.06 
678723.899,4408717.266,-519.79 
678723.899,4408617.266,-525.02 
678723.899,4408517.266,-533.23 
678723.899,4408417.266,-534.21 
678723.899,4408317.266,-536.85 
678723.899,4408217.266,-540.42 
678723.899,4408117.266,-540.79 
678723.899,4408017.266,-539.19 
678723.899,4407917.266,-542.93 
678723.899,4407817.266,-542.32 
678723.899,4407717.266,-544.88 
678723.899,4407617.266,-552.17 
678723.899,4407517.266,-554.37 
678723.899,4407417.266,-565.73 
678723.899,4407317.266,-576.9 
678723.899,4407217.266,-588.04 
678723.899,4407117.266,-599.4 
678723.899,4407017.266,-615.6 
678823.899,4410717.266,-612.68 
678823.899,4410617.266,-599.97 
678823.899,4410517.266,-591.3 
678823.899,4410417.266,-582.2 
678823.899,4410317.266,-571.96 
678823.899,4410217.266,-563.53 
678823.899,4410117.266,-557.83 
678823.899,4410017.266,-553.6 
678823.899,4409917.266,-551.35 
678823.899,4409817.266,-548.48 
678823.899,4409717.266,-544.79 
678823.899,4409617.266,-541.58 
678823.899,4409517.266,-537.29 
678823.899,4409417.266,-532.83 
678823.899,4409317.266,-528.52 
678823.899,4409217.266,-524.86 
678823.899,4409117.266,-523.23 
678823.899,4409017.266,-520.47 
678823.899,4408917.266,-519.02 
678823.899,4408817.266,-519.63 
678823.899,4408717.266,-523.58 
678823.899,4408617.266,-530.3 
678823.899,4408517.266,-536.03 
678823.899,4408417.266,-537.04 
678823.899,4408317.266,-537.57 
678823.899,4408217.266,-540.08 
678823.899,4408117.266,-539.01 
678823.899,4408017.266,-540.77 
678823.899,4407917.266,-546.86 
678823.899,4407817.266,-547.91 
678823.899,4407717.266,-554.15 
678823.899,4407617.266,-558.53 
678823.899,4407517.266,-565.76 
678823.899,4407417.266,-571.3 
678823.899,4407317.266,-580.18 
678823.899,4407217.266,-591.12 
678823.899,4407117.266,-600.52 
678823.899,4407017.266,-616.28 
678923.899,4410717.266,-619.83 
678923.899,4410617.266,-608.4 
678923.899,4410517.266,-596.34 
678923.899,4410417.266,-584.26 
678923.899,4410317.266,-572.86 
678923.899,4410217.266,-566.05 
678923.899,4410117.266,-561.89 
678923.899,4410017.266,-556.42 
678923.899,4409917.266,-553.42 
678923.899,4409817.266,-550.49 
678923.899,4409717.266,-549.33 
678923.899,4409617.266,-547.46 
678923.899,4409517.266,-545.02 
678923.899,4409417.266,-540.8 
678923.899,4409317.266,-536.36 
678923.899,4409217.266,-532.65 
678923.899,4409117.266,-529.19 
678923.899,4409017.266,-526.79 
678923.899,4408917.266,-525.03 
678923.899,4408817.266,-524.87 
678923.899,4408717.266,-528.19 
678923.899,4408617.266,-532.6 
678923.899,4408517.266,-537.49 
678923.899,4408417.266,-540.14 
678923.899,4408317.266,-543.65 
678923.899,4408217.266,-545.79 
678923.899,4408117.266,-545.67 
678923.899,4408017.266,-544.71 
678923.899,4407917.266,-549.3 
678923.899,4407817.266,-552.16 
678923.899,4407717.266,-556.38 
678923.899,4407617.266,-565.58 
678923.899,4407517.266,-571.38 
678923.899,4407417.266,-576.91 
678923.899,4407317.266,-587.29 
678923.899,4407217.266,-598.11 
678923.899,4407117.266,-608.11 
678923.899,4407017.266,-619.24 
679023.899,4410617.266,-619.88 
679023.899,4410517.266,-605.13 
679023.899,4410417.266,-591.75 
679023.899,4410317.266,-580.64 
679023.899,4410217.266,-571.79 
679023.899,4410117.266,-567.98 
679023.899,4410017.266,-561.64 
679023.899,4409917.266,-558.73 
679023.899,4409817.266,-554.15 
679023.899,4409717.266,-555.11 
679023.899,4409617.266,-553.95 
679023.899,4409517.266,-549.7 
679023.899,4409417.266,-549.47 
679023.899,4409317.266,-544.44 
679023.899,4409217.266,-539.58 
679023.899,4409117.266,-537.49 
679023.899,4409017.266,-533.23 
679023.899,4408917.266,-533.29 
679023.899,4408817.266,-533.79 
679023.899,4408717.266,-538.69 
679023.899,4408617.266,-539.92 
679023.899,4408517.266,-542.06 
679023.899,4408417.266,-544.7 
679023.899,4408317.266,-547.55 
679023.899,4408217.266,-549.63 
679023.899,4408117.266,-550.31 
679023.899,4408017.266,-552.22 
679023.899,4407917.266,-553.01 
679023.899,4407817.266,-559.45 
679023.899,4407717.266,-563.46 
679023.899,4407617.266,-571.03 
679023.899,4407517.266,-577.5 
679023.899,4407417.266,-582.32 
679023.899,4407317.266,-592.83 
679023.899,4407217.266,-604.52 
679023.899,4407117.266,-616.03 
679123.899,4410517.266,-614.61 
679123.899,4410417.266,-599.16 
679123.899,4410317.266,-587.66 
679123.899,4410217.266,-577.01 
679123.899,4410117.266,-571.75 
679123.899,4410017.266,-569.54 
679123.899,4409917.266,-564.67 
679123.899,4409817.266,-560.35 
679123.899,4409717.266,-560.36 
679123.899,4409617.266,-557.76 
679123.899,4409517.266,-557.01 
679123.899,4409417.266,-550.68 
679123.899,4409317.266,-550.61 
679123.899,4409217.266,-547.32 
679123.899,4409117.266,-544.82 
679123.899,4409017.266,-540.58 
679123.899,4408917.266,-538.3 
679123.899,4408817.266,-541.83 
679123.899,4408717.266,-545.27 
679123.899,4408617.266,-548.04 
679123.899,4408517.266,-548.1 
679123.899,4408417.266,-550.6 
679123.899,4408317.266,-552.61 
679123.899,4408217.266,-554.03 
679123.899,4408117.266,-555.57 
679123.899,4408017.266,-556.97 
679123.899,4407917.266,-559.35 
679123.899,4407817.266,-564.63 
679123.899,4407717.266,-572.92 
679123.899,4407617.266,-580.84 
679123.899,4407517.266,-584.52 
679123.899,4407417.266,-589.62 
679123.899,4407317.266,-601.63 
679123.899,4407217.266,-610.48 
679223.899,4410417.266,-606.83 
679223.899,4410317.266,-595.58 
679223.899,4410217.266,-586.1 
679223.899,4410117.266,-579.72 
679223.899,4410017.266,-574.95 
679223.899,4409917.266,-570.26 
679223.899,4409817.266,-567.99 
679223.899,4409717.266,-566.45 
679223.899,4409617.266,-563.38 
679223.899,4409517.266,-564.92 
679223.899,4409417.266,-559.9 
679223.899,4409317.266,-556.86 
679223.899,4409217.266,-555.06 
679223.899,4409117.266,-552.5 
679223.899,4409017.266,-548.16 
679223.899,4408917.266,-546.14 
679223.899,4408817.266,-547.08 
679223.899,4408717.266,-550.8 
679223.899,4408617.266,-555.42 
679223.899,4408517.266,-555.52 
679223.899,4408417.266,-558.13 
679223.899,4408317.266,-557.99 
679223.899,4408217.266,-559.71 
679223.899,4408117.266,-560.16 
679223.899,4408017.266,-563.42 
679223.899,4407917.266,-571.93 
679223.899,4407817.266,-576.83 
679223.899,4407717.266,-582.43 
679223.899,4407617.266,-587.74 
679223.899,4407517.266,-594.76 
679223.899,4407417.266,-597.62 
679223.899,4407317.266,-605.24 
679223.899,4407217.266,-617.36 
679323.899,4410417.266,-619.94 
679323.899,4410317.266,-606.36 
679323.899,4410217.266,-596.42 
679323.899,4410117.266,-586.81 
679323.899,4410017.266,-580.16 
679323.899,4409917.266,-575.44 
679323.899,4409817.266,-574.66 
679323.899,4409717.266,-569.33 
679323.899,4409617.266,-570.38 
679323.899,4409517.266,-573.6 
679323.899,4409417.266,-568.31 
679323.899,4409317.266,-564.2 
679323.899,4409217.266,-565.13 
679323.899,4409117.266,-559.85 
679323.899,4409017.266,-556.74 
679323.899,4408917.266,-552.61 
679323.899,4408817.266,-554.99 
679323.899,4408717.266,-558.45 
679323.899,4408617.266,-559.39 
679323.899,4408517.266,-563.02 
679323.899,4408417.266,-564.2 
679323.899,4408317.266,-566.15 
679323.899,4408217.266,-566.59 
679323.899,4408117.266,-570.65 
679323.899,4408017.266,-576.76 
679323.899,4407917.266,-593.03 
679323.899,4407817.266,-598.24 
679323.899,4407717.266,-597.52 
679323.899,4407617.266,-599.13 
679323.899,4407517.266,-603.71 
679323.899,4407417.266,-607.01 
679323.899,4407317.266,-614.68 
679423.899,4410317.266,-612.81 
679423.899,4410217.266,-605.87 
679423.899,4410117.266,-594.86 
679423.899,4410017.266,-586.36 
679423.899,4409917.266,-585.77 
679423.899,4409817.266,-583.91 
679423.899,4409717.266,-580.08 
679423.899,4409617.266,-578.4 
679423.899,4409517.266,-577.35 
679423.899,4409417.266,-575.1 
679423.899,4409317.266,-573.95 
679423.899,4409217.266,-572.04 
679423.899,4409117.266,-567.27 
679423.899,4409017.266,-565.01 
679423.899,4408917.266,-561.05 
679423.899,4408817.266,-562.83 
679423.899,4408717.266,-564.56 
679423.899,4408617.266,-567 
679423.899,4408517.266,-567.25 
679423.899,4408417.266,-570.11 
679423.899,4408317.266,-573.98 
679423.899,4408217.266,-575.39 
679423.899,4408117.266,-582.68 
679423.899,4408017.266,-597.48 
679423.899,4407917.266,-608.21 
679423.899,4407817.266,-607.44 
679423.899,4407717.266,-613.96 
679423.899,4407617.266,-615.09 
679423.899,4407517.266,-615.67 
679423.899,4407417.266,-618.93 
679523.899,4410217.266,-611.86 
679523.899,4410117.266,-604.3 
679523.899,4410017.266,-595.21 
679523.899,4409917.266,-592.44 
679523.899,4409817.266,-591.23 
679523.899,4409717.266,-589.35 
679523.899,4409617.266,-587.58 
679523.899,4409517.266,-583.85 
679523.899,4409417.266,-582.37 
679523.899,4409317.266,-581.33 
679523.899,4409217.266,-578.58 
679523.899,4409117.266,-575.22 
679523.899,4409017.266,-573.3 
679523.899,4408917.266,-571.03 
679523.899,4408817.266,-571.14 
679523.899,4408717.266,-572.6 
679523.899,4408617.266,-574.22 
679523.899,4408517.266,-574.36 
679523.899,4408417.266,-574.55 
679523.899,4408317.266,-579.78 
679523.899,4408217.266,-582.3 
679523.899,4408117.266,-594.64 
679523.899,4408017.266,-613.17 
679523.899,4407917.266,-618.49 
679623.899,4410217.266,-616.72 
679623.899,4410117.266,-608.2 
679623.899,4410017.266,-597 
679623.899,4409917.266,-590.99 
679623.899,4409817.266,-596.17 
679623.899,4409717.266,-594.23 
679623.899,4409617.266,-590.78 
679623.899,4409517.266,-592.36 
679623.899,4409417.266,-588.7 
679623.899,4409317.266,-591.15 
679623.899,4409217.266,-585.21 
679623.899,4409117.266,-581.01 
679623.899,4409017.266,-579.4 
679623.899,4408917.266,-579.32 
679623.899,4408817.266,-576.62 
679623.899,4408717.266,-579.72 
679623.899,4408617.266,-580.69 
679623.899,4408517.266,-582.02 
679623.899,4408417.266,-585.67 
679623.899,4408317.266,-588.08 
679623.899,4408217.266,-591.46 
679623.899,4408117.266,-600.52 
679623.899,4408017.266,-617.94 
679723.899,4410117.266,-611.12 
679723.899,4410017.266,-595.51 
679723.899,4409917.266,-594.58 
679723.899,4409817.266,-595.52 
679723.899,4409717.266,-592.59 
679723.899,4409617.266,-593.56 
679723.899,4409517.266,-595.84 
679723.899,4409417.266,-593.97 
679723.899,4409317.266,-593.89 
679723.899,4409217.266,-592.62 
679723.899,4409117.266,-589.95 
679723.899,4409017.266,-587.71 
679723.899,4408917.266,-584.65 
679723.899,4408817.266,-582.52 
679723.899,4408717.266,-584.88 
679723.899,4408617.266,-585.83 
679723.899,4408517.266,-587.9 
679723.899,4408417.266,-592.08 
679723.899,4408317.266,-596.26 
679723.899,4408217.266,-598 
679723.899,4408117.266,-602.86 
679723.899,4408017.266,-615.85 
679823.899,4410117.266,-609.9 
679823.899,4410017.266,-594.76 
679823.899,4409917.266,-593.06 
679823.899,4409817.266,-597.04 
679823.899,4409717.266,-597.19 
679823.899,4409617.266,-598.26 
679823.899,4409517.266,-597.23 
679823.899,4409417.266,-597.51 
679823.899,4409317.266,-594.22 
679823.899,4409217.266,-594.83 
679823.899,4409117.266,-595.33 
679823.899,4409017.266,-595.32 
679823.899,4408917.266,-594.4 
679823.899,4408817.266,-588.89 
679823.899,4408717.266,-590.55 
679823.899,4408617.266,-591.4 
679823.899,4408517.266,-595.18 
679823.899,4408417.266,-596.59 
679823.899,4408317.266,-601.8 
679823.899,4408217.266,-605.35 
679823.899,4408117.266,-607.51 
679823.899,4408017.266,-614.48 
679923.899,4410117.266,-605.99 
679923.899,4410017.266,-591.29 
679923.899,4409917.266,-592.6 
679923.899,4409817.266,-589.51 
679923.899,4409717.266,-596.79 
679923.899,4409617.266,-593.52 
679923.899,4409517.266,-595.85 
679923.899,4409417.266,-597.51 
679923.899,4409317.266,-594.11 
679923.899,4409217.266,-595.98 
679923.899,4409117.266,-597.76 
679923.899,4409017.266,-597.02 
679923.899,4408917.266,-597.82 
679923.899,4408817.266,-594.44 
679923.899,4408717.266,-596.55 
679923.899,4408617.266,-595.64 
679923.899,4408517.266,-601.78 
679923.899,4408417.266,-603.18 
679923.899,4408317.266,-605.75 
679923.899,4408217.266,-612.11 
679923.899,4408117.266,-615.6 
679923.899,4408017.266,-619.61 
680023.899,4410217.266,-614.38 
680023.899,4410117.266,-598.14 
680023.899,4410017.266,-593.6 
680023.899,4409917.266,-594.5 
680023.899,4409817.266,-596.09 
680023.899,4409717.266,-600.46 
680023.899,4409617.266,-595.42 
680023.899,4409517.266,-593.83 
680023.899,4409417.266,-599.46 
680023.899,4409317.266,-597.65 
680023.899,4409217.266,-594.36 
680023.899,4409117.266,-597.66 
680023.899,4409017.266,-594.78 
680023.899,4408917.266,-597.79 
680023.899,4408817.266,-599.7 
680023.899,4408717.266,-596.08 
680023.899,4408617.266,-596.5 
680023.899,4408517.266,-599.19 
680023.899,4408417.266,-606.03 
680023.899,4408317.266,-609.5 
680023.899,4408217.266,-616.38 
680123.899,4410217.266,-604.61 
680123.899,4410117.266,-598.15 
680123.899,4410017.266,-596.52 
680123.899,4409917.266,-598.6 
680123.899,4409817.266,-596.68 
680123.899,4409717.266,-597.83 
680123.899,4409617.266,-603.16 
680123.899,4409517.266,-597.66 
680123.899,4409417.266,-597.77 
680123.899,4409317.266,-595.38 
680123.899,4409217.266,-595.32 
680123.899,4409117.266,-595.05 
680123.899,4409017.266,-591.25 
680123.899,4408917.266,-593.83 
680123.899,4408817.266,-597.6 
680123.899,4408717.266,-594.18 
680123.899,4408617.266,-595.35 
680123.899,4408517.266,-599.24 
680123.899,4408417.266,-609.54 
680123.899,4408317.266,-611.93 
680223.899,4410217.266,-606.08 
680223.899,4410117.266,-596.49 
680223.899,4410017.266,-597.08 
680223.899,4409917.266,-598.14 
680223.899,4409817.266,-600.91 
680223.899,4409717.266,-600.86 
680223.899,4409617.266,-602.44 
680223.899,4409517.266,-600.96 
680223.899,4409417.266,-601.46 
680223.899,4409317.266,-599.37 
680223.899,4409217.266,-598.25 
680223.899,4409117.266,-599.44 
680223.899,4409017.266,-594.03 
