711473.899,4419967.266,-1498.2 
711473.899,4419767.266,-1502.57 
711473.899,4419567.266,-1507.15 
711473.899,4419367.266,-1510.35 
711473.899,4419167.266,-1516.26 
711473.899,4418967.266,-1522.87 
711473.899,4418767.266,-1528.28 
711473.899,4418567.266,-1528.66 
711473.899,4418367.266,-1535.91 
711473.899,4418167.266,-1547.68 
711473.899,4417967.266,-1559.87 
711473.899,4417767.266,-1578.64 
711473.899,4417567.266,-1591.37 
711473.899,4417367.266,-1602.41 
711473.899,4417167.266,-1607.81 
711473.899,4416967.266,-1613 
711473.899,4416767.266,-1621.24 
711473.899,4416567.266,-1636.59 
711473.899,4416367.266,-1641.68 
711473.899,4416167.266,-1648.96 
711473.899,4415967.266,-1654.34 
711473.899,4415767.266,-1661.14 
711473.899,4415567.266,-1664.58 
711473.899,4415367.266,-1668.52 
711473.899,4415167.266,-1668.46 
711473.899,4414967.266,-1674.78 
711473.899,4414767.266,-1675.28 
711473.899,4414567.266,-1674.12 
711473.899,4414367.266,-1679.22 
711473.899,4414167.266,-1677.65 
711473.899,4413967.266,-1675.9 
711473.899,4413767.266,-1678.04 
711473.899,4413567.266,-1681.38 
711473.899,4413367.266,-1689.31 
711473.899,4413167.266,-1694.71 
711473.899,4412967.266,-1699.86 
711473.899,4412767.266,-1707.98 
711473.899,4412567.266,-1715.75 
711473.899,4412367.266,-1721.51 
711473.899,4412167.266,-1729.57 
711473.899,4411967.266,-1733.82 
711473.899,4411767.266,-1740.72 
711473.899,4411567.266,-1746.53 
711473.899,4411367.266,-1751.61 
711473.899,4411167.266,-1754.28 
711473.899,4410967.266,-1755.01 
711473.899,4410767.266,-1752.59 
711473.899,4410567.266,-1751.75 
711473.899,4410367.266,-1751.24 
711473.899,4410167.266,-1757.2 
711473.899,4409967.266,-1771.16 
711473.899,4409767.266,-1786.31 
711473.899,4409567.266,-1802.85 
711473.899,4409367.266,-1817.29 
711473.899,4409167.266,-1831.48 
711473.899,4408967.266,-1835.13 
711473.899,4408767.266,-1845.59 
711473.899,4408567.266,-1848.49 
711473.899,4408367.266,-1851.55 
711473.899,4408167.266,-1849.23 
711473.899,4407967.266,-1851.18 
711473.899,4407767.266,-1853.85 
711473.899,4407567.266,-1859.6 
711473.899,4407367.266,-1865.42 
711473.899,4407167.266,-1869.25 
711473.899,4406967.266,-1873.18 
711473.899,4406767.266,-1875.54 
711473.899,4406567.266,-1879.26 
711473.899,4406367.266,-1883.65 
711473.899,4406167.266,-1886.43 
711473.899,4405967.266,-1887.83 
711473.899,4405767.266,-1886.22 
711473.899,4405567.266,-1885.7 
711473.899,4405367.266,-1884.37 
711473.899,4405167.266,-1876.16 
711473.899,4404967.266,-1866.97 
711473.899,4404767.266,-1844.34 
711473.899,4404567.266,-1829.85 
711473.899,4404367.266,-1818.98 
711473.899,4404167.266,-1809.35 
711473.899,4403967.266,-1783.63 
711473.899,4403767.266,-1753.76 
711473.899,4403567.266,-1722.4 
711473.899,4403367.266,-1676.55 
711473.899,4403167.266,-1647.44 
711473.899,4402967.266,-1643.51 
711473.899,4402767.266,-1640.64 
711473.899,4402567.266,-1627.1 
711473.899,4402367.266,-1613.45 
711473.899,4402167.266,-1613.33 
711473.899,4401967.266,-1613.84 
711673.899,4439567.266,-1000.07 
711673.899,4439367.266,-1008.25 
711673.899,4439167.266,-1028.55 
711673.899,4438967.266,-1045.71 
711673.899,4438767.266,-1053.38 
711673.899,4438567.266,-1058.47 
711673.899,4438367.266,-1081.57 
711673.899,4438167.266,-1106.7 
711673.899,4437967.266,-1122.55 
711673.899,4437767.266,-1127.24 
711673.899,4437567.266,-1133.27 
711673.899,4437367.266,-1136.66 
711673.899,4437167.266,-1138.43 
711673.899,4436967.266,-1142.45 
711673.899,4436767.266,-1145.97 
711673.899,4436567.266,-1146.05 
711673.899,4436367.266,-1144.55 
711673.899,4436167.266,-1144.4 
711673.899,4435967.266,-1144.11 
711673.899,4435767.266,-1140.77 
711673.899,4435567.266,-1139.53 
711673.899,4435367.266,-1139.51 
711673.899,4435167.266,-1138 
711673.899,4434967.266,-1136.69 
711673.899,4434767.266,-1136.23 
711673.899,4434567.266,-1136.82 
711673.899,4434367.266,-1139.42 
711673.899,4434167.266,-1142.57 
711673.899,4433967.266,-1139.06 
711673.899,4433767.266,-1142.96 
711673.899,4433567.266,-1143.34 
711673.899,4433367.266,-1142.23 
711673.899,4433167.266,-1137.75 
711673.899,4432967.266,-1135.46 
711673.899,4432767.266,-1131.39 
711673.899,4432567.266,-1132.41 
711673.899,4432367.266,-1131.46 
711673.899,4432167.266,-1127.16 
711673.899,4431967.266,-1118.99 
711673.899,4431767.266,-1117.6 
711673.899,4431567.266,-1112.37 
711673.899,4431367.266,-1112.82 
711673.899,4431167.266,-1119.06 
711673.899,4430967.266,-1123.05 
711673.899,4430767.266,-1132.15 
711673.899,4430567.266,-1137.8 
711673.899,4430367.266,-1142.42 
711673.899,4430167.266,-1142.44 
711673.899,4429967.266,-1146.47 
711673.899,4429767.266,-1153.47 
711673.899,4429567.266,-1155.9 
711673.899,4429367.266,-1160 
711673.899,4429167.266,-1160.78 
711673.899,4428967.266,-1163.5 
711673.899,4428767.266,-1156.96 
711673.899,4428567.266,-1155.81 
711673.899,4428367.266,-1156.55 
711673.899,4428167.266,-1157.5 
711673.899,4427967.266,-1161.97 
711673.899,4427767.266,-1174.45 
711673.899,4427567.266,-1187.52 
711673.899,4427367.266,-1195.22 
711673.899,4427167.266,-1220.9 
711673.899,4426967.266,-1259.83 
711673.899,4426767.266,-1268.13 
711673.899,4426567.266,-1260.82 
711673.899,4426367.266,-1273.2 
711673.899,4426167.266,-1297.3 
711673.899,4425967.266,-1307.25 
711673.899,4425767.266,-1311.01 
711673.899,4425567.266,-1317.85 
711673.899,4425367.266,-1323.95 
711673.899,4425167.266,-1323 
711673.899,4424967.266,-1318.9 
711673.899,4424767.266,-1318.23 
711673.899,4424567.266,-1316.94 
711673.899,4424367.266,-1315.28 
711673.899,4424167.266,-1314 
711673.899,4423967.266,-1315.14 
711673.899,4423767.266,-1313.94 
711673.899,4423567.266,-1312.05 
711673.899,4423367.266,-1314.04 
711673.899,4423167.266,-1320.58 
711673.899,4422967.266,-1316.47 
711673.899,4422767.266,-1308.1 
711673.899,4422567.266,-1306.95 
711673.899,4422367.266,-1316.4 
711673.899,4422167.266,-1326.6 
711673.899,4421967.266,-1338.89 
711673.899,4421767.266,-1346.1 
711673.899,4421567.266,-1357.1 
711673.899,4421367.266,-1378.12 
711673.899,4421167.266,-1385.04 
711673.899,4420967.266,-1397.36 
711673.899,4420767.266,-1409.43 
711673.899,4420567.266,-1422.18 
711673.899,4420367.266,-1448.96 
711673.899,4420167.266,-1476.33 
711673.899,4419967.266,-1486.64 
711673.899,4419767.266,-1491.31 
711673.899,4419567.266,-1489.83 
711673.899,4419367.266,-1495.82 
711673.899,4419167.266,-1502.83 
711673.899,4418967.266,-1507.74 
711673.899,4418767.266,-1508.25 
711673.899,4418567.266,-1511.67 
711673.899,4418367.266,-1524.32 
711673.899,4418167.266,-1534.52 
711673.899,4417967.266,-1553.04 
711673.899,4417767.266,-1573.86 
711673.899,4417567.266,-1596.29 
711673.899,4417367.266,-1617.17 
711673.899,4417167.266,-1619.01 
711673.899,4416967.266,-1622.02 
711673.899,4416767.266,-1632.46 
711673.899,4416567.266,-1637.47 
711673.899,4416367.266,-1641.15 
711673.899,4416167.266,-1649.14 
711673.899,4415967.266,-1656.05 
711673.899,4415767.266,-1657.94 
711673.899,4415567.266,-1662.91 
711673.899,4415367.266,-1665.37 
711673.899,4415167.266,-1669.54 
711673.899,4414967.266,-1670.64 
711673.899,4414767.266,-1671.13 
711673.899,4414567.266,-1672.68 
711673.899,4414367.266,-1671.36 
711673.899,4414167.266,-1670.3 
711673.899,4413967.266,-1670.75 
711673.899,4413767.266,-1676.84 
711673.899,4413567.266,-1684.97 
711673.899,4413367.266,-1690.12 
711673.899,4413167.266,-1697.67 
711673.899,4412967.266,-1703.59 
711673.899,4412767.266,-1709.59 
711673.899,4412567.266,-1716.17 
711673.899,4412367.266,-1723.55 
711673.899,4412167.266,-1727.23 
711673.899,4411967.266,-1733.19 
711673.899,4411767.266,-1738.84 
711673.899,4411567.266,-1745 
711673.899,4411367.266,-1749.88 
711673.899,4411167.266,-1748.01 
711673.899,4410967.266,-1748.12 
711673.899,4410767.266,-1745.91 
711673.899,4410567.266,-1746.29 
711673.899,4410367.266,-1752.45 
711673.899,4410167.266,-1763.91 
711673.899,4409967.266,-1780.87 
711673.899,4409767.266,-1794.87 
711673.899,4409567.266,-1806.76 
711673.899,4409367.266,-1815.62 
711673.899,4409167.266,-1818.62 
711673.899,4408967.266,-1825.07 
711673.899,4408767.266,-1830.47 
711673.899,4408567.266,-1834.12 
711673.899,4408367.266,-1839.35 
711673.899,4408167.266,-1844.45 
711673.899,4407967.266,-1844.28 
711673.899,4407767.266,-1843.77 
711673.899,4407567.266,-1852.84 
711673.899,4407367.266,-1867.05 
711673.899,4407167.266,-1871.54 
711673.899,4406967.266,-1870.04 
711673.899,4406767.266,-1876.36 
711673.899,4406567.266,-1881.12 
711673.899,4406367.266,-1883.94 
711673.899,4406167.266,-1885.95 
711673.899,4405967.266,-1887.34 
711673.899,4405767.266,-1888.93 
711673.899,4405567.266,-1890.49 
711673.899,4405367.266,-1887.17 
711673.899,4405167.266,-1884.01 
711673.899,4404967.266,-1882.82 
711673.899,4404767.266,-1875.96 
711673.899,4404567.266,-1867.57 
711673.899,4404367.266,-1859.37 
711673.899,4404167.266,-1845.53 
711673.899,4403967.266,-1829.72 
711673.899,4403767.266,-1800.42 
711673.899,4403567.266,-1774.93 
711673.899,4403367.266,-1713.88 
711673.899,4403167.266,-1649.08 
711673.899,4402967.266,-1638.66 
711673.899,4402767.266,-1636.69 
711673.899,4402567.266,-1624.52 
711673.899,4402367.266,-1611.46 
711673.899,4402167.266,-1604.59 
711673.899,4401967.266,-1606.34 
711873.899,4439567.266,-989.7 
711873.899,4439367.266,-997.04 
711873.899,4439167.266,-992.73 
711873.899,4438967.266,-1019.24 
711873.899,4438767.266,-1036.15 
711873.899,4438567.266,-1046.02 
711873.899,4438367.266,-1062.19 
711873.899,4438167.266,-1081.33 
711873.899,4437967.266,-1102.31 
711873.899,4437767.266,-1116.68 
711873.899,4437567.266,-1129.64 
711873.899,4437367.266,-1137.26 
711873.899,4437167.266,-1136.05 
711873.899,4436967.266,-1135.9 
711873.899,4436767.266,-1139.83 
711873.899,4436567.266,-1138 
711873.899,4436367.266,-1139.41 
711873.899,4436167.266,-1139.81 
711873.899,4435967.266,-1137.91 
711873.899,4435767.266,-1134.25 
711873.899,4435567.266,-1130.88 
711873.899,4435367.266,-1133.21 
711873.899,4435167.266,-1132.47 
711873.899,4434967.266,-1128.95 
711873.899,4434767.266,-1129.03 
711873.899,4434567.266,-1130.54 
711873.899,4434367.266,-1132.32 
711873.899,4434167.266,-1133.03 
711873.899,4433967.266,-1130.5 
711873.899,4433767.266,-1130.68 
711873.899,4433567.266,-1129.82 
711873.899,4433367.266,-1129.92 
711873.899,4433167.266,-1130.33 
711873.899,4432967.266,-1121.04 
711873.899,4432767.266,-1119.11 
711873.899,4432567.266,-1119.59 
711873.899,4432367.266,-1115.87 
711873.899,4432167.266,-1109.05 
711873.899,4431967.266,-1109.65 
711873.899,4431767.266,-1106.79 
711873.899,4431567.266,-1103.48 
711873.899,4431367.266,-1103.94 
711873.899,4431167.266,-1107.62 
711873.899,4430967.266,-1115.59 
711873.899,4430767.266,-1120.31 
711873.899,4430567.266,-1128.84 
711873.899,4430367.266,-1134.44 
711873.899,4430167.266,-1132.94 
711873.899,4429967.266,-1140.32 
711873.899,4429767.266,-1144.59 
711873.899,4429567.266,-1145.97 
711873.899,4429367.266,-1147.74 
711873.899,4429167.266,-1150.57 
711873.899,4428967.266,-1143.91 
711873.899,4428767.266,-1141.87 
711873.899,4428567.266,-1140.38 
711873.899,4428367.266,-1142.12 
711873.899,4428167.266,-1142.53 
711873.899,4427967.266,-1149.47 
711873.899,4427767.266,-1158.1 
711873.899,4427567.266,-1176.55 
711873.899,4427367.266,-1187.43 
711873.899,4427167.266,-1196.91 
711873.899,4426967.266,-1208.28 
711873.899,4426767.266,-1237.19 
711873.899,4426567.266,-1251.52 
711873.899,4426367.266,-1255.38 
711873.899,4426167.266,-1279.02 
711873.899,4425967.266,-1294.27 
711873.899,4425767.266,-1300.69 
711873.899,4425567.266,-1310.33 
711873.899,4425367.266,-1312.01 
711873.899,4425167.266,-1316.77 
711873.899,4424967.266,-1314.37 
711873.899,4424767.266,-1316.7 
711873.899,4424567.266,-1313.7 
711873.899,4424367.266,-1313.25 
711873.899,4424167.266,-1311.8 
711873.899,4423967.266,-1309.6 
711873.899,4423767.266,-1311.21 
711873.899,4423567.266,-1316.69 
711873.899,4423367.266,-1315.35 
711873.899,4423167.266,-1317.3 
711873.899,4422967.266,-1315.91 
711873.899,4422767.266,-1310.48 
711873.899,4422567.266,-1304.82 
711873.899,4422367.266,-1310.95 
711873.899,4422167.266,-1313.73 
711873.899,4421967.266,-1325.5 
711873.899,4421767.266,-1338.69 
711873.899,4421567.266,-1350.75 
711873.899,4421367.266,-1366.07 
711873.899,4421167.266,-1372.83 
711873.899,4420967.266,-1383.56 
711873.899,4420767.266,-1401.63 
711873.899,4420567.266,-1420.82 
711873.899,4420367.266,-1448.01 
711873.899,4420167.266,-1461.54 
711873.899,4419967.266,-1462.62 
711873.899,4419767.266,-1468.71 
711873.899,4419567.266,-1475.09 
711873.899,4419367.266,-1482.5 
711873.899,4419167.266,-1487.98 
711873.899,4418967.266,-1487.75 
711873.899,4418767.266,-1493.27 
711873.899,4418567.266,-1500.73 
711873.899,4418367.266,-1515.96 
711873.899,4418167.266,-1531.41 
711873.899,4417967.266,-1550.69 
711873.899,4417767.266,-1579.08 
711873.899,4417567.266,-1602.58 
711873.899,4417367.266,-1620.93 
711873.899,4417167.266,-1630.09 
711873.899,4416967.266,-1630.71 
711873.899,4416767.266,-1637.5 
711873.899,4416567.266,-1638.03 
711873.899,4416367.266,-1639.42 
711873.899,4416167.266,-1646.1 
711873.899,4415967.266,-1652.01 
711873.899,4415767.266,-1657.02 
711873.899,4415567.266,-1660.07 
711873.899,4415367.266,-1663.1 
711873.899,4415167.266,-1665.12 
711873.899,4414967.266,-1669.23 
711873.899,4414767.266,-1669.62 
711873.899,4414567.266,-1669.95 
711873.899,4414367.266,-1664.95 
711873.899,4414167.266,-1669.87 
711873.899,4413967.266,-1674.26 
711873.899,4413767.266,-1679.23 
711873.899,4413567.266,-1685.28 
711873.899,4413367.266,-1688.35 
711873.899,4413167.266,-1696.03 
711873.899,4412967.266,-1702.92 
711873.899,4412767.266,-1709.16 
711873.899,4412567.266,-1714.29 
711873.899,4412367.266,-1718.54 
711873.899,4412167.266,-1725.02 
711873.899,4411967.266,-1730.79 
711873.899,4411767.266,-1737.16 
711873.899,4411567.266,-1739.48 
711873.899,4411367.266,-1740.92 
711873.899,4411167.266,-1744.19 
711873.899,4410967.266,-1743.5 
711873.899,4410767.266,-1740.84 
711873.899,4410567.266,-1742.69 
711873.899,4410367.266,-1754.34 
711873.899,4410167.266,-1770.01 
711873.899,4409967.266,-1789.33 
711873.899,4409767.266,-1798.38 
711873.899,4409567.266,-1804.69 
711873.899,4409367.266,-1809.79 
711873.899,4409167.266,-1811.82 
711873.899,4408967.266,-1816.84 
711873.899,4408767.266,-1823.81 
711873.899,4408567.266,-1830.05 
711873.899,4408367.266,-1831.83 
711873.899,4408167.266,-1832.31 
711873.899,4407967.266,-1831.63 
711873.899,4407767.266,-1830.17 
711873.899,4407567.266,-1840.04 
711873.899,4407367.266,-1860.95 
711873.899,4407167.266,-1875.47 
711873.899,4406967.266,-1870.92 
711873.899,4406767.266,-1876.07 
711873.899,4406567.266,-1882.38 
711873.899,4406367.266,-1885.05 
711873.899,4406167.266,-1885.18 
711873.899,4405967.266,-1887.24 
711873.899,4405767.266,-1889.07 
711873.899,4405567.266,-1890.27 
711873.899,4405367.266,-1890.73 
711873.899,4405167.266,-1890.5 
711873.899,4404967.266,-1890.34 
711873.899,4404767.266,-1889.85 
711873.899,4404567.266,-1886.8 
711873.899,4404367.266,-1882.88 
711873.899,4404167.266,-1871.6 
711873.899,4403967.266,-1837.66 
711873.899,4403767.266,-1799.83 
711873.899,4403567.266,-1749.48 
711873.899,4403367.266,-1692.44 
711873.899,4403167.266,-1676.05 
711873.899,4402967.266,-1659.61 
711873.899,4402767.266,-1639.31 
711873.899,4402567.266,-1619.96 
711873.899,4402367.266,-1606.66 
711873.899,4402167.266,-1602.17 
711873.899,4401967.266,-1604.78 
712073.899,4439567.266,-972.3 
712073.899,4439367.266,-972.4 
712073.899,4439167.266,-982.8 
712073.899,4438967.266,-993.88 
712073.899,4438767.266,-1011.27 
712073.899,4438567.266,-1030.77 
712073.899,4438367.266,-1039.33 
712073.899,4438167.266,-1061.19 
712073.899,4437967.266,-1077.32 
712073.899,4437767.266,-1089.54 
712073.899,4437567.266,-1103.92 
712073.899,4437367.266,-1117.87 
712073.899,4437167.266,-1129.97 
712073.899,4436967.266,-1135.09 
712073.899,4436767.266,-1133.86 
712073.899,4436567.266,-1135.9 
712073.899,4436367.266,-1135.86 
712073.899,4436167.266,-1135.96 
712073.899,4435967.266,-1133.42 
712073.899,4435767.266,-1128.85 
712073.899,4435567.266,-1128.35 
712073.899,4435367.266,-1126.97 
712073.899,4435167.266,-1126.46 
712073.899,4434967.266,-1126.04 
712073.899,4434767.266,-1124.02 
712073.899,4434567.266,-1123.26 
712073.899,4434367.266,-1122.12 
712073.899,4434167.266,-1122.6 
712073.899,4433967.266,-1122.25 
712073.899,4433767.266,-1124.85 
712073.899,4433567.266,-1123.02 
712073.899,4433367.266,-1123.24 
712073.899,4433167.266,-1118.3 
712073.899,4432967.266,-1113.77 
712073.899,4432767.266,-1112.59 
712073.899,4432567.266,-1106.14 
712073.899,4432367.266,-1100.55 
712073.899,4432167.266,-1100.24 
712073.899,4431967.266,-1097.87 
712073.899,4431767.266,-1098.85 
712073.899,4431567.266,-1099.02 
712073.899,4431367.266,-1097.77 
712073.899,4431167.266,-1098.89 
712073.899,4430967.266,-1105.62 
712073.899,4430767.266,-1114.05 
712073.899,4430567.266,-1118.94 
712073.899,4430367.266,-1123.07 
712073.899,4430167.266,-1124.95 
712073.899,4429967.266,-1131.18 
712073.899,4429767.266,-1135.02 
712073.899,4429567.266,-1135.89 
712073.899,4429367.266,-1135.52 
712073.899,4429167.266,-1128.46 
712073.899,4428967.266,-1129.45 
712073.899,4428767.266,-1129.69 
712073.899,4428567.266,-1128.9 
712073.899,4428367.266,-1128.32 
712073.899,4428167.266,-1131.5 
712073.899,4427967.266,-1141.17 
712073.899,4427767.266,-1146.79 
712073.899,4427567.266,-1165.87 
712073.899,4427367.266,-1178.42 
712073.899,4427167.266,-1186.12 
712073.899,4426967.266,-1188.34 
712073.899,4426767.266,-1189.01 
712073.899,4426567.266,-1212.05 
712073.899,4426367.266,-1221.69 
712073.899,4426167.266,-1248.5 
712073.899,4425967.266,-1274.67 
712073.899,4425767.266,-1277.86 
712073.899,4425567.266,-1280.31 
712073.899,4425367.266,-1297.88 
712073.899,4425167.266,-1309.35 
712073.899,4424967.266,-1311.35 
712073.899,4424767.266,-1310.88 
712073.899,4424567.266,-1314.43 
712073.899,4424367.266,-1309.31 
712073.899,4424167.266,-1311.37 
712073.899,4423967.266,-1308.22 
712073.899,4423767.266,-1312.4 
712073.899,4423567.266,-1313.29 
712073.899,4423367.266,-1314.42 
712073.899,4423167.266,-1316.31 
712073.899,4422967.266,-1319.18 
712073.899,4422767.266,-1312.37 
712073.899,4422567.266,-1306.34 
712073.899,4422367.266,-1304.92 
712073.899,4422167.266,-1310.83 
712073.899,4421967.266,-1318.1 
712073.899,4421767.266,-1326.79 
712073.899,4421567.266,-1343.78 
712073.899,4421367.266,-1357.67 
712073.899,4421167.266,-1365.86 
712073.899,4420967.266,-1374.96 
712073.899,4420767.266,-1392.81 
712073.899,4420567.266,-1413.04 
712073.899,4420367.266,-1424.14 
712073.899,4420167.266,-1436.68 
712073.899,4419967.266,-1445.64 
712073.899,4419767.266,-1455.13 
712073.899,4419567.266,-1462.43 
712073.899,4419367.266,-1465.06 
712073.899,4419167.266,-1470.47 
712073.899,4418967.266,-1472.19 
712073.899,4418767.266,-1483.87 
712073.899,4418567.266,-1497.66 
712073.899,4418367.266,-1517.26 
712073.899,4418167.266,-1538.11 
712073.899,4417967.266,-1558.01 
712073.899,4417767.266,-1587.35 
712073.899,4417567.266,-1610.68 
712073.899,4417367.266,-1622.06 
712073.899,4417167.266,-1628.54 
712073.899,4416967.266,-1633.95 
712073.899,4416767.266,-1638.12 
712073.899,4416567.266,-1636.63 
712073.899,4416367.266,-1638.32 
712073.899,4416167.266,-1640.9 
712073.899,4415967.266,-1647.5 
712073.899,4415767.266,-1650.23 
712073.899,4415567.266,-1654.11 
712073.899,4415367.266,-1659.58 
712073.899,4415167.266,-1662.06 
712073.899,4414967.266,-1662.39 
712073.899,4414767.266,-1664.45 
712073.899,4414567.266,-1665 
712073.899,4414367.266,-1665.26 
712073.899,4414167.266,-1668.77 
712073.899,4413967.266,-1677.37 
712073.899,4413767.266,-1678.39 
712073.899,4413567.266,-1683.7 
712073.899,4413367.266,-1689.76 
712073.899,4413167.266,-1694.93 
712073.899,4412967.266,-1698.89 
712073.899,4412767.266,-1704.44 
712073.899,4412567.266,-1708.68 
712073.899,4412367.266,-1716.26 
712073.899,4412167.266,-1723.61 
712073.899,4411967.266,-1727.03 
712073.899,4411767.266,-1728.84 
712073.899,4411567.266,-1728.95 
712073.899,4411367.266,-1730.9 
712073.899,4411167.266,-1736.59 
712073.899,4410967.266,-1736.8 
712073.899,4410767.266,-1736.38 
712073.899,4410567.266,-1739.32 
712073.899,4410367.266,-1754.29 
712073.899,4410167.266,-1770.46 
712073.899,4409967.266,-1785.29 
712073.899,4409767.266,-1794.75 
712073.899,4409567.266,-1800.69 
712073.899,4409367.266,-1801.7 
712073.899,4409167.266,-1803.51 
712073.899,4408967.266,-1806.01 
712073.899,4408767.266,-1810.1 
712073.899,4408567.266,-1817.14 
712073.899,4408367.266,-1820.36 
712073.899,4408167.266,-1817.97 
712073.899,4407967.266,-1816.57 
712073.899,4407767.266,-1823.73 
712073.899,4407567.266,-1844.23 
712073.899,4407367.266,-1862.83 
712073.899,4407167.266,-1872.02 
712073.899,4406967.266,-1873.57 
712073.899,4406767.266,-1874.61 
712073.899,4406567.266,-1880.72 
712073.899,4406367.266,-1884.1 
712073.899,4406167.266,-1884.66 
712073.899,4405967.266,-1887.4 
712073.899,4405767.266,-1887.26 
712073.899,4405567.266,-1889.5 
712073.899,4405367.266,-1890.77 
712073.899,4405167.266,-1891.64 
712073.899,4404967.266,-1892.69 
712073.899,4404767.266,-1892.84 
712073.899,4404567.266,-1895.06 
712073.899,4404367.266,-1890.81 
712073.899,4404167.266,-1887.01 
712073.899,4403967.266,-1865.13 
712073.899,4403767.266,-1834.27 
712073.899,4403567.266,-1803.84 
712073.899,4403367.266,-1751.13 
712073.899,4403167.266,-1738.35 
712073.899,4402967.266,-1726.85 
712073.899,4402767.266,-1675.45 
712073.899,4402567.266,-1647.9 
712073.899,4402367.266,-1622.46 
712073.899,4402167.266,-1612.51 
712073.899,4401967.266,-1608.41 
712273.899,4439567.266,-939.74 
712273.899,4439367.266,-951.88 
712273.899,4439167.266,-959.58 
712273.899,4438967.266,-969.44 
712273.899,4438767.266,-989.4 
712273.899,4438567.266,-1020.12 
712273.899,4438367.266,-1026.79 
712273.899,4438167.266,-1041.57 
712273.899,4437967.266,-1049.31 
712273.899,4437767.266,-1072.24 
712273.899,4437567.266,-1082.07 
712273.899,4437367.266,-1093.33 
712273.899,4437167.266,-1108.17 
712273.899,4436967.266,-1125.08 
712273.899,4436767.266,-1126.38 
712273.899,4436567.266,-1127.95 
712273.899,4436367.266,-1129.78 
712273.899,4436167.266,-1129.22 
712273.899,4435967.266,-1124.97 
712273.899,4435767.266,-1123.38 
712273.899,4435567.266,-1125.3 
712273.899,4435367.266,-1124.62 
712273.899,4435167.266,-1122.65 
712273.899,4434967.266,-1122.91 
712273.899,4434767.266,-1120.31 
712273.899,4434567.266,-1118.51 
712273.899,4434367.266,-1116.54 
712273.899,4434167.266,-1116.23 
712273.899,4433967.266,-1113.36 
712273.899,4433767.266,-1114.25 
712273.899,4433567.266,-1116.09 
712273.899,4433367.266,-1115.26 
712273.899,4433167.266,-1114.6 
712273.899,4432967.266,-1109.47 
712273.899,4432767.266,-1105.89 
712273.899,4432567.266,-1100.2 
712273.899,4432367.266,-1090.98 
712273.899,4432167.266,-1086 
712273.899,4431967.266,-1088.45 
712273.899,4431767.266,-1089.25 
712273.899,4431567.266,-1089 
712273.899,4431367.266,-1094.35 
712273.899,4431167.266,-1097.28 
712273.899,4430967.266,-1100.22 
712273.899,4430767.266,-1101.89 
712273.899,4430567.266,-1108.85 
712273.899,4430367.266,-1116.4 
712273.899,4430167.266,-1116.38 
712273.899,4429967.266,-1120.9 
712273.899,4429767.266,-1124.01 
712273.899,4429567.266,-1122.22 
712273.899,4429367.266,-1117.46 
712273.899,4429167.266,-1115.7 
712273.899,4428967.266,-1116.75 
712273.899,4428767.266,-1116.17 
712273.899,4428567.266,-1116.33 
712273.899,4428367.266,-1115.44 
712273.899,4428167.266,-1118.55 
712273.899,4427967.266,-1132.73 
712273.899,4427767.266,-1139.72 
712273.899,4427567.266,-1156.44 
712273.899,4427367.266,-1166.47 
712273.899,4427167.266,-1171.4 
712273.899,4426967.266,-1169.32 
712273.899,4426767.266,-1173.16 
712273.899,4426567.266,-1193.74 
712273.899,4426367.266,-1199.5 
712273.899,4426167.266,-1216.01 
712273.899,4425967.266,-1239.43 
712273.899,4425767.266,-1245.69 
712273.899,4425567.266,-1252.64 
712273.899,4425367.266,-1287.21 
712273.899,4425167.266,-1300.65 
712273.899,4424967.266,-1304.72 
712273.899,4424767.266,-1307.64 
712273.899,4424567.266,-1307.54 
712273.899,4424367.266,-1307.9 
712273.899,4424167.266,-1305.11 
712273.899,4423967.266,-1307.33 
712273.899,4423767.266,-1308.72 
712273.899,4423567.266,-1307.64 
712273.899,4423367.266,-1309.77 
712273.899,4423167.266,-1312.26 
712273.899,4422967.266,-1315 
712273.899,4422767.266,-1315.89 
712273.899,4422567.266,-1310.73 
712273.899,4422367.266,-1306.56 
712273.899,4422167.266,-1305.76 
712273.899,4421967.266,-1310.25 
712273.899,4421767.266,-1314.98 
712273.899,4421567.266,-1334.15 
712273.899,4421367.266,-1347.83 
712273.899,4421167.266,-1361.04 
712273.899,4420967.266,-1366.58 
712273.899,4420767.266,-1377.39 
712273.899,4420567.266,-1397.22 
712273.899,4420367.266,-1413.59 
712273.899,4420167.266,-1425.8 
712273.899,4419967.266,-1434.99 
712273.899,4419767.266,-1440.64 
712273.899,4419567.266,-1444.43 
712273.899,4419367.266,-1450.21 
712273.899,4419167.266,-1456.39 
712273.899,4418967.266,-1469.14 
712273.899,4418767.266,-1485.76 
712273.899,4418567.266,-1504.1 
712273.899,4418367.266,-1529.41 
712273.899,4418167.266,-1550.51 
712273.899,4417967.266,-1573.36 
712273.899,4417767.266,-1596.34 
712273.899,4417567.266,-1612.74 
712273.899,4417367.266,-1622.28 
712273.899,4417167.266,-1627.58 
712273.899,4416967.266,-1629.12 
712273.899,4416767.266,-1631.97 
712273.899,4416567.266,-1634.68 
712273.899,4416367.266,-1640.06 
712273.899,4416167.266,-1638.45 
712273.899,4415967.266,-1640.56 
712273.899,4415767.266,-1643.39 
712273.899,4415567.266,-1647.54 
712273.899,4415367.266,-1653.54 
712273.899,4415167.266,-1658.82 
712273.899,4414967.266,-1657.8 
712273.899,4414767.266,-1658.63 
712273.899,4414567.266,-1662.19 
712273.899,4414367.266,-1665.62 
712273.899,4414167.266,-1670.72 
712273.899,4413967.266,-1675.84 
712273.899,4413767.266,-1681.15 
712273.899,4413567.266,-1684.58 
712273.899,4413367.266,-1688.34 
712273.899,4413167.266,-1689.92 
712273.899,4412967.266,-1691.36 
712273.899,4412767.266,-1694.83 
712273.899,4412567.266,-1704.08 
712273.899,4412367.266,-1708.49 
712273.899,4412167.266,-1714.73 
712273.899,4411967.266,-1716.64 
712273.899,4411767.266,-1718.83 
712273.899,4411567.266,-1718.37 
712273.899,4411367.266,-1719.25 
712273.899,4411167.266,-1721.6 
712273.899,4410967.266,-1723.78 
712273.899,4410767.266,-1725.36 
712273.899,4410567.266,-1733.38 
712273.899,4410367.266,-1747.45 
712273.899,4410167.266,-1766.22 
712273.899,4409967.266,-1779.38 
712273.899,4409767.266,-1788.97 
712273.899,4409567.266,-1790.27 
712273.899,4409367.266,-1789.15 
712273.899,4409167.266,-1789.48 
712273.899,4408967.266,-1789.99 
712273.899,4408767.266,-1792.78 
712273.899,4408567.266,-1795.71 
712273.899,4408367.266,-1799 
712273.899,4408167.266,-1801.57 
712273.899,4407967.266,-1807.09 
712273.899,4407767.266,-1829.94 
712273.899,4407567.266,-1847.31 
712273.899,4407367.266,-1858.56 
712273.899,4407167.266,-1865.61 
712273.899,4406967.266,-1873 
712273.899,4406767.266,-1875.45 
712273.899,4406567.266,-1880.16 
712273.899,4406367.266,-1880.48 
712273.899,4406167.266,-1884.35 
712273.899,4405967.266,-1883.32 
712273.899,4405767.266,-1887.45 
712273.899,4405567.266,-1890.26 
712273.899,4405367.266,-1892.05 
712273.899,4405167.266,-1892.71 
712273.899,4404967.266,-1894.39 
712273.899,4404767.266,-1895.7 
712273.899,4404567.266,-1894.58 
712273.899,4404367.266,-1896.61 
712273.899,4404167.266,-1894.71 
712273.899,4403967.266,-1885.01 
712273.899,4403767.266,-1874.02 
712273.899,4403567.266,-1859.62 
712273.899,4403367.266,-1829.22 
712273.899,4403167.266,-1785.52 
712273.899,4402967.266,-1745.31 
712273.899,4402767.266,-1716.23 
712273.899,4402567.266,-1670.2 
712273.899,4402367.266,-1650.49 
712273.899,4402167.266,-1630.93 
712273.899,4401967.266,-1619.65 
712473.899,4439567.266,-906.99 
712473.899,4439367.266,-922.99 
712473.899,4439167.266,-941.44 
712473.899,4438967.266,-958.52 
712473.899,4438767.266,-969.3 
712473.899,4438567.266,-987.6 
712473.899,4438367.266,-997.85 
712473.899,4438167.266,-1011.79 
712473.899,4437967.266,-1034.95 
712473.899,4437767.266,-1041.27 
712473.899,4437567.266,-1056.2 
712473.899,4437367.266,-1072.99 
712473.899,4437167.266,-1084.89 
712473.899,4436967.266,-1100.34 
712473.899,4436767.266,-1105.8 
712473.899,4436567.266,-1104.37 
712473.899,4436367.266,-1118.45 
712473.899,4436167.266,-1124.01 
712473.899,4435967.266,-1118.17 
712473.899,4435767.266,-1119.52 
712473.899,4435567.266,-1116.53 
712473.899,4435367.266,-1118.89 
712473.899,4435167.266,-1121.77 
712473.899,4434967.266,-1118.68 
712473.899,4434767.266,-1115.43 
712473.899,4434567.266,-1114.56 
712473.899,4434367.266,-1112.77 
712473.899,4434167.266,-1108.91 
712473.899,4433967.266,-1108.4 
712473.899,4433767.266,-1106.78 
712473.899,4433567.266,-1107.38 
712473.899,4433367.266,-1108.59 
712473.899,4433167.266,-1106.03 
712473.899,4432967.266,-1102.46 
712473.899,4432767.266,-1094.44 
712473.899,4432567.266,-1086.86 
712473.899,4432367.266,-1085.84 
712473.899,4432167.266,-1079.09 
712473.899,4431967.266,-1080.33 
712473.899,4431767.266,-1077.15 
712473.899,4431567.266,-1080.85 
712473.899,4431367.266,-1083.38 
712473.899,4431167.266,-1088.13 
712473.899,4430967.266,-1094.81 
712473.899,4430767.266,-1098.52 
712473.899,4430567.266,-1103.55 
712473.899,4430367.266,-1104.84 
712473.899,4430167.266,-1108.27 
712473.899,4429967.266,-1110.6 
712473.899,4429767.266,-1112.14 
712473.899,4429567.266,-1100.83 
712473.899,4429367.266,-1102.84 
712473.899,4429167.266,-1106.83 
712473.899,4428967.266,-1102.56 
712473.899,4428767.266,-1103.61 
712473.899,4428567.266,-1104.6 
712473.899,4428367.266,-1104.45 
712473.899,4428167.266,-1107.89 
712473.899,4427967.266,-1123.84 
712473.899,4427767.266,-1132.88 
712473.899,4427567.266,-1145.23 
712473.899,4427367.266,-1155.93 
712473.899,4427167.266,-1154.57 
712473.899,4426967.266,-1159.06 
712473.899,4426767.266,-1162.55 
712473.899,4426567.266,-1176.74 
712473.899,4426367.266,-1184.05 
712473.899,4426167.266,-1188.74 
712473.899,4425967.266,-1208.2 
712473.899,4425767.266,-1214.93 
712473.899,4425567.266,-1248.77 
712473.899,4425367.266,-1286.92 
712473.899,4425167.266,-1294.76 
712473.899,4424967.266,-1296.51 
712473.899,4424767.266,-1303.12 
712473.899,4424567.266,-1305.13 
712473.899,4424367.266,-1305.54 
712473.899,4424167.266,-1306.21 
712473.899,4423967.266,-1307.04 
712473.899,4423767.266,-1304.77 
712473.899,4423567.266,-1303.84 
712473.899,4423367.266,-1305.11 
712473.899,4423167.266,-1308.3 
712473.899,4422967.266,-1310.8 
712473.899,4422767.266,-1308.63 
712473.899,4422567.266,-1306.49 
712473.899,4422367.266,-1304.02 
712473.899,4422167.266,-1303.12 
712473.899,4421967.266,-1301.33 
712473.899,4421767.266,-1304.75 
712473.899,4421567.266,-1317.26 
712473.899,4421367.266,-1335.7 
712473.899,4421167.266,-1345.92 
712473.899,4420967.266,-1355.04 
712473.899,4420767.266,-1368.16 
712473.899,4420567.266,-1387.09 
712473.899,4420367.266,-1403.19 
712473.899,4420167.266,-1412.23 
712473.899,4419967.266,-1417.23 
712473.899,4419767.266,-1424.81 
712473.899,4419567.266,-1429.96 
712473.899,4419367.266,-1439.49 
712473.899,4419167.266,-1456.29 
712473.899,4418967.266,-1476.67 
712473.899,4418767.266,-1496.47 
712473.899,4418567.266,-1513.98 
712473.899,4418367.266,-1536.23 
712473.899,4418167.266,-1560.35 
712473.899,4417967.266,-1582.21 
712473.899,4417767.266,-1599.54 
712473.899,4417567.266,-1612.29 
712473.899,4417367.266,-1620.69 
712473.899,4417167.266,-1624.28 
712473.899,4416967.266,-1628.22 
712473.899,4416767.266,-1631.49 
712473.899,4416567.266,-1632.04 
712473.899,4416367.266,-1632.31 
712473.899,4416167.266,-1634.4 
712473.899,4415967.266,-1634.82 
712473.899,4415767.266,-1633.7 
712473.899,4415567.266,-1641.21 
712473.899,4415367.266,-1646.33 
712473.899,4415167.266,-1648.64 
712473.899,4414967.266,-1651.16 
712473.899,4414767.266,-1655.53 
712473.899,4414567.266,-1660.62 
712473.899,4414367.266,-1665.94 
712473.899,4414167.266,-1669.42 
712473.899,4413967.266,-1675.13 
712473.899,4413767.266,-1679.92 
712473.899,4413567.266,-1681.35 
712473.899,4413367.266,-1681.82 
712473.899,4413167.266,-1686.91 
712473.899,4412967.266,-1688.28 
712473.899,4412767.266,-1692.68 
712473.899,4412567.266,-1701.28 
712473.899,4412367.266,-1705.59 
712473.899,4412167.266,-1706.61 
712473.899,4411967.266,-1710.07 
712473.899,4411767.266,-1713.19 
712473.899,4411567.266,-1711.99 
712473.899,4411367.266,-1712.94 
712473.899,4411167.266,-1718.15 
712473.899,4410967.266,-1721.96 
712473.899,4410767.266,-1727.4 
712473.899,4410567.266,-1736.74 
712473.899,4410367.266,-1745.61 
712473.899,4410167.266,-1754.71 
712473.899,4409967.266,-1764.94 
712473.899,4409767.266,-1775.03 
712473.899,4409567.266,-1777.84 
712473.899,4409367.266,-1777.05 
712473.899,4409167.266,-1772.8 
712473.899,4408967.266,-1770.26 
712473.899,4408767.266,-1771.96 
712473.899,4408567.266,-1775.13 
712473.899,4408367.266,-1783.62 
712473.899,4408167.266,-1795.32 
712473.899,4407967.266,-1809.55 
712473.899,4407767.266,-1830.03 
712473.899,4407567.266,-1847.24 
712473.899,4407367.266,-1852.3 
712473.899,4407167.266,-1861.01 
712473.899,4406967.266,-1867.25 
712473.899,4406767.266,-1873.14 
712473.899,4406567.266,-1872.19 
712473.899,4406367.266,-1873.41 
712473.899,4406167.266,-1877.56 
712473.899,4405967.266,-1884.9 
712473.899,4405767.266,-1889.74 
712473.899,4405567.266,-1893.8 
712473.899,4405367.266,-1893.51 
712473.899,4405167.266,-1895.47 
712473.899,4404967.266,-1894.94 
712473.899,4404767.266,-1896.3 
712473.899,4404567.266,-1896.75 
712473.899,4404367.266,-1898.66 
712473.899,4404167.266,-1897.67 
712473.899,4403967.266,-1895.52 
712473.899,4403767.266,-1889.49 
712473.899,4403567.266,-1878.67 
712473.899,4403367.266,-1866.18 
712473.899,4403167.266,-1835.97 
712473.899,4402967.266,-1800.88 
712473.899,4402767.266,-1748 
712473.899,4402567.266,-1697.57 
712473.899,4402367.266,-1685.86 
712473.899,4402167.266,-1654.66 
712473.899,4401967.266,-1639.11 
712673.899,4439567.266,-891.99 
712673.899,4439367.266,-899.12 
712673.899,4439167.266,-920.97 
712673.899,4438967.266,-943.86 
712673.899,4438767.266,-956.92 
712673.899,4438567.266,-963.06 
712673.899,4438367.266,-976.3 
712673.899,4438167.266,-990.65 
712673.899,4437967.266,-1005.1 
712673.899,4437767.266,-1021.57 
712673.899,4437567.266,-1038.62 
712673.899,4437367.266,-1051.14 
712673.899,4437167.266,-1062.33 
712673.899,4436967.266,-1071.84 
712673.899,4436767.266,-1082.03 
712673.899,4436567.266,-1086.58 
712673.899,4436367.266,-1106.29 
712673.899,4436167.266,-1115.77 
712673.899,4435967.266,-1116.68 
712673.899,4435767.266,-1115.75 
712673.899,4435567.266,-1114.62 
712673.899,4435367.266,-1113.57 
712673.899,4435167.266,-1114 
712673.899,4434967.266,-1113.78 
712673.899,4434767.266,-1112.99 
712673.899,4434567.266,-1110.2 
712673.899,4434367.266,-1107.11 
712673.899,4434167.266,-1104.95 
712673.899,4433967.266,-1103.1 
712673.899,4433767.266,-1100.92 
712673.899,4433567.266,-1098.24 
712673.899,4433367.266,-1099.89 
712673.899,4433167.266,-1096.9 
712673.899,4432967.266,-1092.07 
712673.899,4432767.266,-1086.76 
712673.899,4432567.266,-1079.9 
712673.899,4432367.266,-1075.22 
712673.899,4432167.266,-1072.6 
712673.899,4431967.266,-1071.12 
712673.899,4431767.266,-1073.05 
712673.899,4431567.266,-1070.54 
712673.899,4431367.266,-1073.01 
712673.899,4431167.266,-1077.43 
712673.899,4430967.266,-1083.74 
712673.899,4430767.266,-1089.58 
712673.899,4430567.266,-1096.4 
712673.899,4430367.266,-1101.61 
712673.899,4430167.266,-1101.13 
712673.899,4429967.266,-1102.55 
712673.899,4429767.266,-1090.26 
712673.899,4429567.266,-1090.88 
712673.899,4429367.266,-1095.06 
712673.899,4429167.266,-1092.7 
712673.899,4428967.266,-1091.25 
712673.899,4428767.266,-1090.82 
712673.899,4428567.266,-1089.74 
712673.899,4428367.266,-1093.94 
712673.899,4428167.266,-1096.22 
712673.899,4427967.266,-1111.87 
712673.899,4427767.266,-1121.78 
712673.899,4427567.266,-1135.86 
712673.899,4427367.266,-1137.18 
712673.899,4427167.266,-1142.26 
712673.899,4426967.266,-1149.97 
712673.899,4426767.266,-1154.84 
712673.899,4426567.266,-1156.84 
712673.899,4426367.266,-1161.38 
712673.899,4426167.266,-1172.24 
712673.899,4425967.266,-1183.95 
712673.899,4425767.266,-1181.97 
712673.899,4425567.266,-1221.82 
712673.899,4425367.266,-1271.98 
712673.899,4425167.266,-1279.91 
712673.899,4424967.266,-1285.7 
712673.899,4424767.266,-1297.86 
712673.899,4424567.266,-1302.89 
712673.899,4424367.266,-1301.8 
712673.899,4424167.266,-1301.17 
712673.899,4423967.266,-1298.86 
712673.899,4423767.266,-1297.56 
712673.899,4423567.266,-1296.67 
712673.899,4423367.266,-1293.72 
712673.899,4423167.266,-1301.41 
712673.899,4422967.266,-1301.08 
712673.899,4422767.266,-1303.09 
712673.899,4422567.266,-1303.42 
712673.899,4422367.266,-1298.59 
712673.899,4422167.266,-1297.42 
712673.899,4421967.266,-1301.48 
712673.899,4421767.266,-1305.23 
712673.899,4421567.266,-1309.05 
712673.899,4421367.266,-1318.02 
712673.899,4421167.266,-1330.05 
712673.899,4420967.266,-1351.39 
712673.899,4420767.266,-1361.44 
712673.899,4420567.266,-1367.51 
712673.899,4420367.266,-1381.29 
712673.899,4420167.266,-1393.9 
712673.899,4419967.266,-1403.99 
712673.899,4419767.266,-1411.32 
712673.899,4419567.266,-1426.33 
712673.899,4419367.266,-1443.02 
712673.899,4419167.266,-1464.26 
712673.899,4418967.266,-1480.17 
712673.899,4418767.266,-1498.63 
712673.899,4418567.266,-1523.82 
712673.899,4418367.266,-1548.74 
712673.899,4418167.266,-1565.79 
712673.899,4417967.266,-1582.08 
712673.899,4417767.266,-1597.92 
712673.899,4417567.266,-1606.62 
712673.899,4417367.266,-1611.19 
712673.899,4417167.266,-1620.56 
712673.899,4416967.266,-1626.27 
712673.899,4416767.266,-1628.56 
712673.899,4416567.266,-1626.75 
712673.899,4416367.266,-1628.01 
712673.899,4416167.266,-1626.53 
712673.899,4415967.266,-1625.96 
712673.899,4415767.266,-1617.24 
712673.899,4415567.266,-1622.71 
712673.899,4415367.266,-1638.18 
712673.899,4415167.266,-1637.78 
712673.899,4414967.266,-1641.24 
712673.899,4414767.266,-1651.93 
712673.899,4414567.266,-1658.21 
712673.899,4414367.266,-1663.44 
712673.899,4414167.266,-1667.81 
712673.899,4413967.266,-1668.79 
712673.899,4413767.266,-1673.26 
712673.899,4413567.266,-1676.39 
712673.899,4413367.266,-1680.14 
712673.899,4413167.266,-1684.66 
712673.899,4412967.266,-1690.36 
712673.899,4412767.266,-1691.29 
712673.899,4412567.266,-1696.39 
712673.899,4412367.266,-1699.15 
712673.899,4412167.266,-1702.15 
712673.899,4411967.266,-1703.35 
712673.899,4411767.266,-1705.74 
712673.899,4411567.266,-1707.21 
712673.899,4411367.266,-1709.15 
712673.899,4411167.266,-1718.51 
712673.899,4410967.266,-1723.24 
712673.899,4410767.266,-1730.16 
712673.899,4410567.266,-1736.56 
712673.899,4410367.266,-1742.96 
712673.899,4410167.266,-1750.98 
712673.899,4409967.266,-1757.58 
712673.899,4409767.266,-1763.85 
712673.899,4409567.266,-1767.02 
712673.899,4409367.266,-1764.84 
712673.899,4409167.266,-1758.42 
712673.899,4408967.266,-1758.47 
712673.899,4408767.266,-1760.29 
712673.899,4408567.266,-1768.96 
712673.899,4408367.266,-1782 
712673.899,4408167.266,-1797.4 
712673.899,4407967.266,-1815.31 
712673.899,4407767.266,-1825.08 
712673.899,4407567.266,-1840.14 
712673.899,4407367.266,-1842.55 
712673.899,4407167.266,-1853.03 
712673.899,4406967.266,-1858.84 
712673.899,4406767.266,-1864.62 
712673.899,4406567.266,-1869.42 
712673.899,4406367.266,-1867.27 
712673.899,4406167.266,-1881.29 
712673.899,4405967.266,-1886.46 
712673.899,4405767.266,-1893.6 
712673.899,4405567.266,-1892.09 
712673.899,4405367.266,-1896.16 
712673.899,4405167.266,-1895.89 
712673.899,4404967.266,-1896.75 
712673.899,4404767.266,-1897.56 
712673.899,4404567.266,-1897.85 
712673.899,4404367.266,-1896.35 
712673.899,4404167.266,-1897.96 
712673.899,4403967.266,-1899.14 
712673.899,4403767.266,-1897.33 
712673.899,4403567.266,-1891.25 
712673.899,4403367.266,-1883.25 
712673.899,4403167.266,-1866.36 
712673.899,4402967.266,-1845.96 
712673.899,4402767.266,-1807.89 
712673.899,4402567.266,-1764.39 
712673.899,4402367.266,-1717.58 
712673.899,4402167.266,-1683.77 
712673.899,4401967.266,-1653.73 
712873.899,4439567.266,-881.84 
712873.899,4439367.266,-890.21 
712873.899,4439167.266,-912.35 
712873.899,4438967.266,-928.06 
712873.899,4438767.266,-942.58 
712873.899,4438567.266,-957.86 
712873.899,4438367.266,-966.21 
712873.899,4438167.266,-978.34 
712873.899,4437967.266,-984.91 
712873.899,4437767.266,-1001.99 
712873.899,4437567.266,-1023.01 
712873.899,4437367.266,-1038.88 
712873.899,4437167.266,-1049.08 
712873.899,4436967.266,-1059.05 
712873.899,4436767.266,-1065.28 
712873.899,4436567.266,-1072.23 
712873.899,4436367.266,-1088.17 
712873.899,4436167.266,-1100.92 
712873.899,4435967.266,-1109.3 
712873.899,4435767.266,-1109.53 
712873.899,4435567.266,-1110.17 
712873.899,4435367.266,-1110.28 
712873.899,4435167.266,-1110.37 
712873.899,4434967.266,-1109.76 
712873.899,4434767.266,-1106.74 
712873.899,4434567.266,-1108.43 
712873.899,4434367.266,-1105.27 
712873.899,4434167.266,-1105.34 
712873.899,4433967.266,-1099.24 
712873.899,4433767.266,-1094.5 
712873.899,4433567.266,-1092.37 
712873.899,4433367.266,-1089.79 
712873.899,4433167.266,-1087.89 
712873.899,4432967.266,-1084.21 
712873.899,4432767.266,-1077.83 
712873.899,4432567.266,-1071.92 
712873.899,4432367.266,-1067.08 
712873.899,4432167.266,-1063.42 
712873.899,4431967.266,-1064.59 
712873.899,4431767.266,-1064.37 
712873.899,4431567.266,-1063.78 
712873.899,4431367.266,-1065.31 
712873.899,4431167.266,-1071.08 
712873.899,4430967.266,-1073.23 
712873.899,4430767.266,-1079.75 
712873.899,4430567.266,-1086.49 
712873.899,4430367.266,-1089.06 
712873.899,4430167.266,-1092.3 
712873.899,4429967.266,-1095.81 
712873.899,4429767.266,-1085.46 
712873.899,4429567.266,-1083.45 
712873.899,4429367.266,-1087.74 
712873.899,4429167.266,-1081.75 
712873.899,4428967.266,-1079.76 
712873.899,4428767.266,-1080.63 
712873.899,4428567.266,-1081.05 
712873.899,4428367.266,-1084.05 
712873.899,4428167.266,-1090.72 
712873.899,4427967.266,-1099.74 
712873.899,4427767.266,-1107.63 
712873.899,4427567.266,-1116.44 
712873.899,4427367.266,-1124.31 
712873.899,4427167.266,-1132.96 
712873.899,4426967.266,-1141.05 
712873.899,4426767.266,-1144.36 
712873.899,4426567.266,-1147.97 
712873.899,4426367.266,-1146.95 
712873.899,4426167.266,-1160.6 
712873.899,4425967.266,-1165.57 
712873.899,4425767.266,-1165.18 
712873.899,4425567.266,-1183.44 
712873.899,4425367.266,-1227.59 
712873.899,4425167.266,-1256.97 
712873.899,4424967.266,-1280.84 
712873.899,4424767.266,-1292.53 
712873.899,4424567.266,-1296.37 
712873.899,4424367.266,-1298.08 
712873.899,4424167.266,-1295.8 
712873.899,4423967.266,-1295.04 
712873.899,4423767.266,-1292.23 
712873.899,4423567.266,-1290.35 
712873.899,4423367.266,-1292.53 
712873.899,4423167.266,-1290.84 
712873.899,4422967.266,-1299.44 
712873.899,4422767.266,-1298.09 
712873.899,4422567.266,-1292.79 
712873.899,4422367.266,-1290.61 
712873.899,4422167.266,-1290.71 
712873.899,4421967.266,-1299.04 
712873.899,4421767.266,-1303.76 
712873.899,4421567.266,-1310.96 
712873.899,4421367.266,-1314.3 
712873.899,4421167.266,-1326.46 
712873.899,4420967.266,-1346.41 
712873.899,4420767.266,-1356.43 
712873.899,4420567.266,-1361.26 
712873.899,4420367.266,-1366.47 
712873.899,4420167.266,-1379.02 
712873.899,4419967.266,-1394.38 
712873.899,4419767.266,-1410.83 
712873.899,4419567.266,-1430.72 
712873.899,4419367.266,-1453.8 
712873.899,4419167.266,-1478.11 
712873.899,4418967.266,-1495.21 
712873.899,4418767.266,-1511.92 
712873.899,4418567.266,-1530.7 
712873.899,4418367.266,-1547.45 
712873.899,4418167.266,-1562.05 
712873.899,4417967.266,-1577.85 
712873.899,4417767.266,-1587.47 
712873.899,4417567.266,-1594.41 
712873.899,4417367.266,-1602.76 
712873.899,4417167.266,-1610.82 
712873.899,4416967.266,-1616.52 
712873.899,4416767.266,-1618.22 
712873.899,4416567.266,-1617.62 
712873.899,4416367.266,-1618.2 
712873.899,4416167.266,-1617.41 
712873.899,4415967.266,-1613.23 
712873.899,4415767.266,-1605.56 
712873.899,4415567.266,-1610.76 
712873.899,4415367.266,-1626.16 
712873.899,4415167.266,-1632.85 
712873.899,4414967.266,-1634.27 
712873.899,4414767.266,-1644.09 
712873.899,4414567.266,-1646.82 
712873.899,4414367.266,-1653.78 
712873.899,4414167.266,-1658.8 
712873.899,4413967.266,-1665.41 
712873.899,4413767.266,-1666.33 
712873.899,4413567.266,-1670 
712873.899,4413367.266,-1676.77 
712873.899,4413167.266,-1681.24 
712873.899,4412967.266,-1685.71 
712873.899,4412767.266,-1687.13 
712873.899,4412567.266,-1688.73 
712873.899,4412367.266,-1695.72 
712873.899,4412167.266,-1697.52 
712873.899,4411967.266,-1700.72 
712873.899,4411767.266,-1701.95 
712873.899,4411567.266,-1702.84 
712873.899,4411367.266,-1705.43 
712873.899,4411167.266,-1714.45 
712873.899,4410967.266,-1720.74 
712873.899,4410767.266,-1727.41 
712873.899,4410567.266,-1733.58 
712873.899,4410367.266,-1739.28 
712873.899,4410167.266,-1743.23 
712873.899,4409967.266,-1748.65 
712873.899,4409767.266,-1750.19 
712873.899,4409567.266,-1751.14 
712873.899,4409367.266,-1750.39 
712873.899,4409167.266,-1748 
712873.899,4408967.266,-1748.94 
712873.899,4408767.266,-1755.75 
712873.899,4408567.266,-1768.22 
712873.899,4408367.266,-1774.88 
712873.899,4408167.266,-1790.77 
712873.899,4407967.266,-1803.95 
712873.899,4407767.266,-1812.1 
712873.899,4407567.266,-1819.84 
712873.899,4407367.266,-1831.62 
712873.899,4407167.266,-1840.35 
712873.899,4406967.266,-1847.05 
712873.899,4406767.266,-1857.44 
712873.899,4406567.266,-1859.15 
712873.899,4406367.266,-1861.48 
712873.899,4406167.266,-1870.49 
712873.899,4405967.266,-1886.34 
712873.899,4405767.266,-1896.6 
712873.899,4405567.266,-1896.31 
712873.899,4405367.266,-1893.83 
712873.899,4405167.266,-1901.03 
712873.899,4404967.266,-1896.14 
712873.899,4404767.266,-1899.16 
712873.899,4404567.266,-1899.31 
712873.899,4404367.266,-1897 
712873.899,4404167.266,-1896.24 
712873.899,4403967.266,-1898.64 
712873.899,4403767.266,-1900.39 
712873.899,4403567.266,-1897.85 
712873.899,4403367.266,-1896.52 
712873.899,4403167.266,-1884.89 
712873.899,4402967.266,-1866.74 
712873.899,4402767.266,-1848.5 
712873.899,4402567.266,-1822.35 
712873.899,4402367.266,-1772.6 
712873.899,4402167.266,-1728.84 
712873.899,4401967.266,-1696.17 
713073.899,4439567.266,-874.07 
713073.899,4439367.266,-890.07 
713073.899,4439167.266,-902.56 
713073.899,4438967.266,-915.01 
