516463.497,4295368.502,-478.017
516463.497,4295268.502,-494.406
516463.497,4295168.502,-499.275
516463.497,4295068.502,-511.799
516463.497,4294968.502,-524.377
516463.497,4294868.502,-506.992
516463.497,4294768.502,-511.427
516463.497,4294668.502,-523.982
516463.497,4294568.502,-531.215
516463.497,4294468.502,-531.021
516463.497,4294368.502,-550.545
516463.497,4294268.502,-560.373
516463.497,4294168.502,-577.808
516463.497,4294068.502,-586.774
516463.497,4293968.502,-584.300
516463.497,4293868.502,-579.730
516463.497,4293768.502,-562.539
516463.497,4293668.502,-542.558
516463.497,4293568.502,-573.515
516463.497,4293468.502,-591.168
516463.497,4293368.502,-609.626
516563.497,4318668.502,-133.112
516563.497,4318568.502,-152.686
516563.497,4318468.502,-173.057
516563.497,4318368.502,-179.420
516563.497,4318268.502,-174.982
516563.497,4318168.502,-171.670
516563.497,4318068.502,-176.161
516563.497,4317968.502,-167.547
516563.497,4317868.502,-176.629
516563.497,4317768.502,-190.580
516563.497,4317668.502,-217.762
516563.497,4317568.502,-232.571
516563.497,4317468.502,-238.690
516563.497,4317368.502,-241.977
516563.497,4317268.502,-241.840
516563.497,4317168.502,-218.974
516563.497,4317068.502,-188.288
516563.497,4316968.502,-187.191
516563.497,4316868.502,-192.405
516563.497,4316768.502,-196.381
516563.497,4316668.502,-201.602
516563.497,4316568.502,-204.197
516563.497,4316468.502,-206.332
516563.497,4316368.502,-206.839
516563.497,4316268.502,-209.947
516563.497,4316168.502,-213.262
516563.497,4316068.502,-221.249
516563.497,4315968.502,-232.255
516563.497,4315868.502,-245.860
516563.497,4315768.502,-250.909
516563.497,4315668.502,-245.147
516563.497,4315568.502,-239.339
516563.497,4315468.502,-240.753
516563.497,4315368.502,-242.961
516563.497,4315268.502,-244.754
516563.497,4315168.502,-243.459
516563.497,4315068.502,-247.566
516563.497,4314968.502,-248.224
516563.497,4314868.502,-249.427
516563.497,4314768.502,-249.832
516563.497,4314668.502,-252.860
516563.497,4314568.502,-255.502
516563.497,4314468.502,-257.803
516563.497,4314368.502,-260.597
516563.497,4314268.502,-267.810
516563.497,4314168.502,-273.984
516563.497,4314068.502,-272.007
516563.497,4313968.502,-269.244
516563.497,4313868.502,-268.250
516563.497,4313768.502,-266.834
516563.497,4313668.502,-262.252
516563.497,4313568.502,-255.343
516563.497,4313468.502,-251.546
516563.497,4313368.502,-250.595
516563.497,4313268.502,-252.596
516563.497,4313168.502,-254.517
516563.497,4313068.502,-254.362
516563.497,4312968.502,-256.132
516563.497,4312868.502,-256.103
516563.497,4312768.502,-257.044
516563.497,4312668.502,-258.259
516563.497,4312568.502,-258.536
516563.497,4312468.502,-258.741
516563.497,4312368.502,-262.431
516563.497,4312268.502,-298.408
516563.497,4312168.502,-313.304
516563.497,4312068.502,-353.331
516563.497,4311968.502,-366.637
516563.497,4311868.502,-367.370
516563.497,4311768.502,-368.925
516563.497,4311668.502,-368.955
516563.497,4311568.502,-375.221
516563.497,4311468.502,-373.508
516563.497,4311368.502,-367.288
516563.497,4311268.502,-359.445
516563.497,4311168.502,-357.261
516563.497,4311068.502,-353.241
516563.497,4310968.502,-328.356
516563.497,4310868.502,-310.425
516563.497,4310768.502,-290.535
516563.497,4310668.502,-262.907
516563.497,4310568.502,-245.483
516563.497,4310468.502,-245.459
516563.497,4310368.502,-245.287
516563.497,4310268.502,-245.720
516563.497,4310168.502,-247.706
516563.497,4310068.502,-247.262
516563.497,4309968.502,-248.731
516563.497,4309868.502,-250.926
516563.497,4309768.502,-254.768
516563.497,4309668.502,-261.351
516563.497,4309568.502,-270.153
516563.497,4309468.502,-273.651
516563.497,4309368.502,-274.116
516563.497,4309268.502,-271.746
516563.497,4309168.502,-264.780
516563.497,4309068.502,-256.443
516563.497,4308968.502,-250.705
516563.497,4308868.502,-248.455
516563.497,4308768.502,-248.096
516563.497,4308668.502,-248.642
516563.497,4308568.502,-248.546
516563.497,4308468.502,-249.099
516563.497,4308368.502,-249.807
516563.497,4308268.502,-251.245
516563.497,4308168.502,-251.870
516563.497,4308068.502,-252.511
516563.497,4307968.502,-252.521
516563.497,4307868.502,-252.869
516563.497,4307768.502,-253.277
516563.497,4307668.502,-254.027
516563.497,4307568.502,-254.012
516563.497,4307468.502,-254.802
516563.497,4307368.502,-255.599
516563.497,4307268.502,-256.249
516563.497,4307168.502,-257.203
516563.497,4307068.502,-258.248
516563.497,4306968.502,-259.275
516563.497,4306868.502,-259.514
516563.497,4306768.502,-260.962
516563.497,4306668.502,-261.345
516563.497,4306568.502,-262.125
516563.497,4306468.502,-262.716
516563.497,4306368.502,-263.089
516563.497,4306268.502,-263.332
516563.497,4306168.502,-263.914
516563.497,4306068.502,-265.597
516563.497,4305968.502,-266.084
516563.497,4305868.502,-266.730
516563.497,4305768.502,-267.338
516563.497,4305668.502,-266.957
516563.497,4305568.502,-263.185
516563.497,4305468.502,-267.427
516563.497,4305368.502,-270.218
516563.497,4305268.502,-269.437
516563.497,4305168.502,-267.379
516563.497,4305068.502,-263.000
516563.497,4304968.502,-249.067
516563.497,4304868.502,-227.150
516563.497,4304768.502,-199.793
516563.497,4304668.502,-173.813
516563.497,4304568.502,-150.742
516563.497,4304468.502,-132.827
516563.497,4303168.502,-130.159
516563.497,4303068.502,-131.742
516563.497,4302968.502,-132.653
516563.497,4302868.502,-134.377
516563.497,4302768.502,-136.388
516563.497,4302668.502,-138.541
516563.497,4302568.502,-142.333
516563.497,4302468.502,-147.647
516563.497,4302368.502,-157.341
516563.497,4302268.502,-172.921
516563.497,4302168.502,-192.506
516563.497,4302068.502,-213.456
516563.497,4301968.502,-231.224
516563.497,4301868.502,-242.023
516563.497,4301768.502,-244.267
516563.497,4301668.502,-242.623
516563.497,4301568.502,-240.897
516563.497,4301468.502,-240.324
516563.497,4301368.502,-241.563
516563.497,4301268.502,-244.533
516563.497,4301168.502,-248.337
516563.497,4301068.502,-253.309
516563.497,4300968.502,-258.558
516563.497,4300868.502,-264.025
516563.497,4300768.502,-271.114
516563.497,4300668.502,-283.951
516563.497,4300568.502,-295.247
516563.497,4300468.502,-305.313
516563.497,4300368.502,-316.174
516563.497,4300268.502,-324.026
516563.497,4300168.502,-327.028
516563.497,4300068.502,-326.824
516563.497,4299968.502,-326.623
516563.497,4299868.502,-327.033
516563.497,4299768.502,-326.913
516563.497,4299668.502,-326.756
516563.497,4299568.502,-327.525
516563.497,4299468.502,-326.333
516563.497,4299368.502,-326.118
516563.497,4299268.502,-326.221
516563.497,4299168.502,-326.015
516563.497,4299068.502,-326.612
516563.497,4298968.502,-327.415
516563.497,4298868.502,-328.379
516563.497,4298768.502,-329.586
516563.497,4298668.502,-329.984
516563.497,4298568.502,-329.831
516563.497,4298468.502,-330.014
516563.497,4298368.502,-330.274
516563.497,4298268.502,-329.498
516563.497,4298168.502,-329.434
516563.497,4298068.502,-328.031
516563.497,4297968.502,-327.733
516563.497,4297868.502,-328.105
516563.497,4297768.502,-330.226
516563.497,4297668.502,-334.130
516563.497,4297568.502,-343.265
516563.497,4297468.502,-359.816
516563.497,4297368.502,-382.677
516563.497,4297268.502,-413.415
516563.497,4297168.502,-461.613
516563.497,4297068.502,-483.251
516563.497,4296968.502,-481.193
516563.497,4296868.502,-463.564
516563.497,4296768.502,-440.031
516563.497,4296668.502,-416.729
516563.497,4296568.502,-377.893
516563.497,4296468.502,-364.918
516563.497,4296368.502,-366.961
516563.497,4296268.502,-357.978
516563.497,4296168.502,-360.599
516563.497,4296068.502,-389.363
516563.497,4295968.502,-405.259
516563.497,4295868.502,-398.646
516563.497,4295768.502,-405.612
516563.497,4295668.502,-390.696
516563.497,4295568.502,-388.759
516563.497,4295468.502,-403.549
516563.497,4295368.502,-430.234
516563.497,4295268.502,-465.112
516563.497,4295168.502,-483.886
516563.497,4295068.502,-495.950
516563.497,4294968.502,-507.140
516563.497,4294868.502,-494.970
516563.497,4294768.502,-491.392
516563.497,4294668.502,-494.150
516563.497,4294568.502,-514.659
516563.497,4294468.502,-509.649
516563.497,4294368.502,-514.615
516563.497,4294268.502,-531.940
516563.497,4294168.502,-558.925
516563.497,4294068.502,-570.571
516563.497,4293968.502,-565.770
516563.497,4293868.502,-550.302
516563.497,4293768.502,-528.156
516563.497,4293668.502,-520.258
516563.497,4293568.502,-551.555
516563.497,4293468.502,-574.906
516563.497,4293368.502,-605.944
516663.497,4318868.502,-130.366
516663.497,4318768.502,-136.530
516663.497,4318668.502,-160.340
516663.497,4318568.502,-177.384
516663.497,4318468.502,-186.518
516663.497,4318368.502,-183.590
516663.497,4318268.502,-177.425
516663.497,4318168.502,-177.972
516663.497,4318068.502,-180.769
516663.497,4317968.502,-181.894
516663.497,4317868.502,-182.820
516663.497,4317768.502,-206.406
516663.497,4317668.502,-233.985
516663.497,4317568.502,-235.317
516663.497,4317468.502,-246.117
516663.497,4317368.502,-246.435
516663.497,4317268.502,-242.991
516663.497,4317168.502,-218.395
516663.497,4317068.502,-198.523
516663.497,4316968.502,-194.279
516663.497,4316868.502,-198.513
516663.497,4316768.502,-203.973
516663.497,4316668.502,-207.013
516663.497,4316568.502,-209.905
516663.497,4316468.502,-213.575
516663.497,4316368.502,-213.580
516663.497,4316268.502,-216.064
516663.497,4316168.502,-219.503
516663.497,4316068.502,-224.451
516663.497,4315968.502,-235.887
516663.497,4315868.502,-249.557
516663.497,4315768.502,-255.611
516663.497,4315668.502,-252.872
516663.497,4315568.502,-245.205
516663.497,4315468.502,-242.725
516663.497,4315368.502,-248.111
516663.497,4315268.502,-247.048
516663.497,4315168.502,-246.052
516663.497,4315068.502,-253.382
516663.497,4314968.502,-253.987
516663.497,4314868.502,-255.091
516663.497,4314768.502,-256.357
516663.497,4314668.502,-259.320
516663.497,4314568.502,-261.104
516663.497,4314468.502,-264.586
516663.497,4314368.502,-266.184
516663.497,4314268.502,-269.879
516663.497,4314168.502,-272.747
516663.497,4314068.502,-275.806
516663.497,4313968.502,-274.361
516663.497,4313868.502,-271.836
516663.497,4313768.502,-270.090
516663.497,4313668.502,-264.328
516663.497,4313568.502,-256.344
516663.497,4313468.502,-252.970
516663.497,4313368.502,-254.711
516663.497,4313268.502,-255.991
516663.497,4313168.502,-256.795
516663.497,4313068.502,-257.385
516663.497,4312968.502,-259.177
516663.497,4312868.502,-259.968
516663.497,4312768.502,-260.419
516663.497,4312668.502,-261.744
516663.497,4312568.502,-262.691
516663.497,4312468.502,-262.657
516663.497,4312368.502,-266.389
516663.497,4312268.502,-301.063
516663.497,4312168.502,-311.586
516663.497,4312068.502,-334.434
516663.497,4311968.502,-367.466
516663.497,4311868.502,-372.647
516663.497,4311768.502,-372.203
516663.497,4311668.502,-371.793
516663.497,4311568.502,-376.570
516663.497,4311468.502,-374.228
516663.497,4311368.502,-370.422
516663.497,4311268.502,-360.953
516663.497,4311168.502,-355.533
516663.497,4311068.502,-346.947
516663.497,4310968.502,-316.392
516663.497,4310868.502,-296.030
516663.497,4310768.502,-272.217
516663.497,4310668.502,-251.095
516663.497,4310568.502,-248.212
516663.497,4310468.502,-247.935
516663.497,4310368.502,-248.538
516663.497,4310268.502,-249.684
516663.497,4310168.502,-250.326
516663.497,4310068.502,-252.169
516663.497,4309968.502,-253.531
516663.497,4309868.502,-256.030
516663.497,4309768.502,-261.208
516663.497,4309668.502,-269.513
516663.497,4309568.502,-277.358
516663.497,4309468.502,-279.035
516663.497,4309368.502,-276.130
516663.497,4309268.502,-269.409
516663.497,4309168.502,-262.074
516663.497,4309068.502,-254.983
516663.497,4308968.502,-251.643
516663.497,4308868.502,-250.858
516663.497,4308768.502,-250.851
516663.497,4308668.502,-250.797
516663.497,4308568.502,-250.893
516663.497,4308468.502,-251.939
516663.497,4308368.502,-253.223
516663.497,4308268.502,-253.835
516663.497,4308168.502,-254.113
516663.497,4308068.502,-253.878
516663.497,4307968.502,-254.527
516663.497,4307868.502,-254.906
516663.497,4307768.502,-255.454
516663.497,4307668.502,-255.539
516663.497,4307568.502,-256.213
516663.497,4307468.502,-256.723
516663.497,4307368.502,-257.770
516663.497,4307268.502,-258.728
516663.497,4307168.502,-259.269
516663.497,4307068.502,-259.903
516663.497,4306968.502,-260.647
516663.497,4306868.502,-260.884
516663.497,4306768.502,-261.887
516663.497,4306668.502,-262.465
516663.497,4306568.502,-263.068
516663.497,4306468.502,-263.621
516663.497,4306368.502,-264.179
516663.497,4306268.502,-264.539
516663.497,4306168.502,-264.677
516663.497,4306068.502,-265.884
516663.497,4305968.502,-266.677
516663.497,4305868.502,-267.683
516663.497,4305768.502,-267.849
516663.497,4305668.502,-268.955
516663.497,4305568.502,-260.764
516663.497,4305468.502,-267.469
516663.497,4305368.502,-268.418
516663.497,4305268.502,-267.540
516663.497,4305168.502,-263.976
516663.497,4305068.502,-259.090
516663.497,4304968.502,-247.904
516663.497,4304868.502,-227.997
516663.497,4304768.502,-203.860
516663.497,4304668.502,-177.561
516663.497,4304568.502,-154.789
516663.497,4304468.502,-134.877
516663.497,4303068.502,-130.583
516663.497,4302968.502,-132.028
516663.497,4302868.502,-133.581
516663.497,4302768.502,-135.544
516663.497,4302668.502,-137.754
516663.497,4302568.502,-141.038
516663.497,4302468.502,-146.143
516663.497,4302368.502,-154.143
516663.497,4302268.502,-167.860
516663.497,4302168.502,-185.083
516663.497,4302068.502,-204.652
516663.497,4301968.502,-223.241
516663.497,4301868.502,-235.474
516663.497,4301768.502,-239.782
516663.497,4301668.502,-239.766
516663.497,4301568.502,-238.892
516663.497,4301468.502,-238.578
516663.497,4301368.502,-239.377
516663.497,4301268.502,-241.628
516663.497,4301168.502,-245.334
516663.497,4301068.502,-249.678
516663.497,4300968.502,-255.023
516663.497,4300868.502,-261.376
516663.497,4300768.502,-268.085
516663.497,4300668.502,-277.342
516663.497,4300568.502,-287.114
516663.497,4300468.502,-296.633
516663.497,4300368.502,-306.451
516663.497,4300268.502,-316.000
516663.497,4300168.502,-323.676
516663.497,4300068.502,-326.182
516663.497,4299968.502,-326.568
516663.497,4299868.502,-325.652
516663.497,4299768.502,-325.227
516663.497,4299668.502,-326.237
516663.497,4299568.502,-326.569
516663.497,4299468.502,-326.591
516663.497,4299368.502,-326.532
516663.497,4299268.502,-326.854
516663.497,4299168.502,-327.444
516663.497,4299068.502,-327.756
516663.497,4298968.502,-327.728
516663.497,4298868.502,-328.222
516663.497,4298768.502,-329.398
516663.497,4298668.502,-329.462
516663.497,4298568.502,-330.212
516663.497,4298468.502,-330.604
516663.497,4298368.502,-331.073
516663.497,4298268.502,-332.800
516663.497,4298168.502,-332.848
516663.497,4298068.502,-332.150
516663.497,4297968.502,-332.183
516663.497,4297868.502,-332.714
516663.497,4297768.502,-333.016
516663.497,4297668.502,-335.767
516663.497,4297568.502,-339.760
516663.497,4297468.502,-348.120
516663.497,4297368.502,-364.205
516663.497,4297268.502,-387.419
516663.497,4297168.502,-419.999
516663.497,4297068.502,-456.927
516663.497,4296968.502,-481.937
516663.497,4296868.502,-486.536
516663.497,4296768.502,-481.352
516663.497,4296668.502,-470.560
516663.497,4296568.502,-425.439
516663.497,4296468.502,-395.716
516663.497,4296368.502,-397.203
516663.497,4296268.502,-405.469
516663.497,4296168.502,-419.725
516663.497,4296068.502,-444.581
516663.497,4295968.502,-425.764
516663.497,4295868.502,-457.005
516663.497,4295768.502,-460.943
516663.497,4295668.502,-444.854
516663.497,4295568.502,-439.537
516663.497,4295468.502,-435.772
516663.497,4295368.502,-426.902
516663.497,4295268.502,-425.202
516663.497,4295168.502,-439.458
516663.497,4295068.502,-467.541
516663.497,4294968.502,-476.538
516663.497,4294868.502,-468.619
516663.497,4294768.502,-486.069
516663.497,4294668.502,-479.768
516663.497,4294568.502,-486.155
516663.497,4294468.502,-474.651
516663.497,4294368.502,-479.298
516663.497,4294268.502,-490.016
516663.497,4294168.502,-507.883
516663.497,4294068.502,-532.828
516663.497,4293968.502,-529.427
516663.497,4293868.502,-513.679
516663.497,4293768.502,-480.403
516663.497,4293668.502,-507.190
516663.497,4293568.502,-532.328
516663.497,4293468.502,-560.031
516663.497,4293368.502,-582.377
516663.497,4293268.502,-632.268
516763.497,4318868.502,-137.180
516763.497,4318768.502,-159.971
516763.497,4318668.502,-180.783
516763.497,4318568.502,-187.764
516763.497,4318468.502,-192.158
516763.497,4318368.502,-186.155
516763.497,4318268.502,-184.672
516763.497,4318168.502,-187.356
516763.497,4318068.502,-190.501
516763.497,4317968.502,-193.794
516763.497,4317868.502,-194.990
516763.497,4317768.502,-215.886
516763.497,4317668.502,-240.799
516763.497,4317568.502,-247.286
516763.497,4317468.502,-251.570
516763.497,4317368.502,-254.222
516763.497,4317268.502,-238.637
516763.497,4317168.502,-214.644
516763.497,4317068.502,-210.876
516763.497,4316968.502,-201.982
516763.497,4316868.502,-205.934
516763.497,4316768.502,-209.850
516763.497,4316668.502,-212.146
516763.497,4316568.502,-216.412
516763.497,4316468.502,-219.415
516763.497,4316368.502,-220.841
516763.497,4316268.502,-222.639
516763.497,4316168.502,-225.776
516763.497,4316068.502,-229.371
516763.497,4315968.502,-237.802
516763.497,4315868.502,-250.990
516763.497,4315768.502,-257.014
516763.497,4315668.502,-260.954
516763.497,4315568.502,-253.392
516763.497,4315468.502,-250.003
516763.497,4315368.502,-251.396
516763.497,4315268.502,-252.464
516763.497,4315168.502,-254.782
516763.497,4315068.502,-258.987
516763.497,4314968.502,-259.929
516763.497,4314868.502,-259.353
516763.497,4314768.502,-263.962
516763.497,4314668.502,-267.315
516763.497,4314568.502,-270.511
516763.497,4314468.502,-269.974
516763.497,4314368.502,-272.276
516763.497,4314268.502,-273.877
516763.497,4314168.502,-277.235
516763.497,4314068.502,-279.406
516763.497,4313968.502,-278.595
516763.497,4313868.502,-276.039
516763.497,4313768.502,-273.533
516763.497,4313668.502,-267.501
516763.497,4313568.502,-259.976
516763.497,4313468.502,-258.043
516763.497,4313368.502,-259.228
516763.497,4313268.502,-259.454
516763.497,4313168.502,-259.495
516763.497,4313068.502,-260.633
516763.497,4312968.502,-262.378
516763.497,4312868.502,-263.894
516763.497,4312768.502,-264.081
516763.497,4312668.502,-265.186
516763.497,4312568.502,-266.250
516763.497,4312468.502,-266.135
516763.497,4312368.502,-266.810
516763.497,4312268.502,-300.298
516763.497,4312168.502,-307.419
516763.497,4312068.502,-323.788
516763.497,4311968.502,-352.923
516763.497,4311868.502,-371.710
516763.497,4311768.502,-374.823
516763.497,4311668.502,-377.148
516763.497,4311568.502,-377.539
516763.497,4311468.502,-374.895
516763.497,4311368.502,-372.587
516763.497,4311268.502,-361.005
516763.497,4311168.502,-351.859
516763.497,4311068.502,-323.615
516763.497,4310968.502,-291.055
516763.497,4310868.502,-272.875
516763.497,4310768.502,-253.843
516763.497,4310668.502,-249.526
516763.497,4310568.502,-251.129
516763.497,4310468.502,-250.944
516763.497,4310368.502,-251.862
516763.497,4310268.502,-253.254
516763.497,4310168.502,-254.603
516763.497,4310068.502,-255.430
516763.497,4309968.502,-257.881
516763.497,4309868.502,-261.664
516763.497,4309768.502,-269.001
516763.497,4309668.502,-278.619
516763.497,4309568.502,-284.938
516763.497,4309468.502,-282.216
516763.497,4309368.502,-274.299
516763.497,4309268.502,-266.636
516763.497,4309168.502,-259.257
516763.497,4309068.502,-254.904
516763.497,4308968.502,-253.588
516763.497,4308868.502,-253.351
516763.497,4308768.502,-253.327
516763.497,4308668.502,-253.515
516763.497,4308568.502,-253.722
516763.497,4308468.502,-255.085
516763.497,4308368.502,-255.505
516763.497,4308268.502,-255.729
516763.497,4308168.502,-255.728
516763.497,4308068.502,-256.190
516763.497,4307968.502,-256.639
516763.497,4307868.502,-257.176
516763.497,4307768.502,-257.255
516763.497,4307668.502,-257.715
516763.497,4307568.502,-258.477
516763.497,4307468.502,-259.108
516763.497,4307368.502,-259.981
516763.497,4307268.502,-260.598
516763.497,4307168.502,-260.810
516763.497,4307068.502,-260.985
516763.497,4306968.502,-261.975
516763.497,4306868.502,-262.480
516763.497,4306768.502,-263.099
516763.497,4306668.502,-263.670
516763.497,4306568.502,-264.333
516763.497,4306468.502,-265.360
516763.497,4306368.502,-265.697
516763.497,4306268.502,-266.292
516763.497,4306168.502,-266.248
516763.497,4306068.502,-267.014
516763.497,4305968.502,-267.499
516763.497,4305868.502,-268.101
516763.497,4305768.502,-268.492
516763.497,4305668.502,-269.064
516763.497,4305568.502,-268.083
516763.497,4305468.502,-265.630
516763.497,4305368.502,-266.401
516763.497,4305268.502,-263.547
516763.497,4305168.502,-259.454
516763.497,4305068.502,-253.208
516763.497,4304968.502,-243.985
516763.497,4304868.502,-228.566
516763.497,4304768.502,-207.819
516763.497,4304668.502,-183.153
516763.497,4304568.502,-159.423
516763.497,4304468.502,-133.654
516763.497,4303068.502,-130.039
516763.497,4302968.502,-131.255
516763.497,4302868.502,-132.752
516763.497,4302768.502,-135.125
516763.497,4302668.502,-137.154
516763.497,4302568.502,-139.844
516763.497,4302468.502,-144.679
516763.497,4302368.502,-152.379
516763.497,4302268.502,-165.046
516763.497,4302168.502,-180.592
516763.497,4302068.502,-198.935
516763.497,4301968.502,-216.921
516763.497,4301868.502,-229.855
516763.497,4301768.502,-236.366
516763.497,4301668.502,-238.016
516763.497,4301568.502,-238.661
516763.497,4301468.502,-239.116
516763.497,4301368.502,-239.365
516763.497,4301268.502,-241.169
516763.497,4301168.502,-243.725
516763.497,4301068.502,-247.792
516763.497,4300968.502,-252.422
516763.497,4300868.502,-258.283
516763.497,4300768.502,-265.447
516763.497,4300668.502,-272.860
516763.497,4300568.502,-281.045
516763.497,4300468.502,-290.934
516763.497,4300368.502,-300.109
516763.497,4300268.502,-309.449
516763.497,4300168.502,-317.706
516763.497,4300068.502,-324.075
516763.497,4299968.502,-326.338
516763.497,4299868.502,-325.938
516763.497,4299768.502,-326.347
516763.497,4299668.502,-326.227
516763.497,4299568.502,-326.836
516763.497,4299468.502,-326.916
516763.497,4299368.502,-326.490
516763.497,4299268.502,-327.037
516763.497,4299168.502,-327.419
516763.497,4299068.502,-328.428
516763.497,4298968.502,-328.284
516763.497,4298868.502,-328.317
516763.497,4298768.502,-328.965
516763.497,4298668.502,-329.571
516763.497,4298568.502,-330.058
516763.497,4298468.502,-331.219
516763.497,4298368.502,-332.068
516763.497,4298268.502,-333.577
516763.497,4298168.502,-334.544
516763.497,4298068.502,-334.956
516763.497,4297968.502,-335.939
516763.497,4297868.502,-336.191
516763.497,4297768.502,-336.998
516763.497,4297668.502,-337.868
516763.497,4297568.502,-340.791
516763.497,4297468.502,-344.528
516763.497,4297368.502,-353.348
516763.497,4297268.502,-367.493
516763.497,4297168.502,-388.784
516763.497,4297068.502,-414.751
516763.497,4296968.502,-442.329
516763.497,4296868.502,-469.193
516763.497,4296768.502,-489.578
516763.497,4296668.502,-493.501
516763.497,4296568.502,-463.942
516763.497,4296468.502,-450.875
516763.497,4296368.502,-443.142
516763.497,4296268.502,-456.094
516763.497,4296168.502,-474.726
516763.497,4296068.502,-446.526
516763.497,4295968.502,-453.468
516763.497,4295868.502,-473.156
516763.497,4295768.502,-492.087
516763.497,4295668.502,-488.999
516763.497,4295568.502,-494.002
516763.497,4295468.502,-483.288
516763.497,4295368.502,-483.585
516763.497,4295268.502,-464.916
516763.497,4295168.502,-451.267
516763.497,4295068.502,-442.892
516763.497,4294968.502,-443.093
516763.497,4294868.502,-435.180
516763.497,4294768.502,-460.774
516763.497,4294668.502,-464.768
516763.497,4294568.502,-463.438
516763.497,4294468.502,-462.040
516763.497,4294368.502,-467.969
516763.497,4294268.502,-478.806
516763.497,4294168.502,-482.263
516763.497,4294068.502,-480.266
516763.497,4293968.502,-481.464
516763.497,4293868.502,-468.647
516763.497,4293768.502,-478.988
516763.497,4293668.502,-498.723
516763.497,4293568.502,-513.972
516763.497,4293468.502,-552.780
516763.497,4293368.502,-595.849
516763.497,4293268.502,-634.523
516863.497,4318868.502,-144.848
516863.497,4318768.502,-178.664
516863.497,4318668.502,-190.151
516863.497,4318568.502,-194.763
516863.497,4318468.502,-198.855
516863.497,4318368.502,-197.556
516863.497,4318268.502,-201.743
516863.497,4318168.502,-198.405
516863.497,4318068.502,-195.158
516863.497,4317968.502,-198.586
516863.497,4317868.502,-207.094
516863.497,4317768.502,-219.970
516863.497,4317668.502,-244.908
516863.497,4317568.502,-249.970
516863.497,4317468.502,-255.362
516863.497,4317368.502,-259.882
516863.497,4317268.502,-254.183
516863.497,4317168.502,-229.235
516863.497,4317068.502,-219.870
516863.497,4316968.502,-209.857
516863.497,4316868.502,-211.293
516863.497,4316768.502,-214.705
516863.497,4316668.502,-218.288
516863.497,4316568.502,-222.634
516863.497,4316468.502,-225.076
516863.497,4316368.502,-227.061
516863.497,4316268.502,-226.703
516863.497,4316168.502,-229.339
516863.497,4316068.502,-231.472
516863.497,4315968.502,-236.881
516863.497,4315868.502,-248.361
516863.497,4315768.502,-259.238
516863.497,4315668.502,-263.382
516863.497,4315568.502,-263.673
516863.497,4315468.502,-257.441
516863.497,4315368.502,-258.650
516863.497,4315268.502,-260.418
516863.497,4315168.502,-261.748
516863.497,4315068.502,-263.836
516863.497,4314968.502,-265.666
516863.497,4314868.502,-269.160
516863.497,4314768.502,-271.712
516863.497,4314668.502,-275.270
516863.497,4314568.502,-279.569
516863.497,4314468.502,-277.244
516863.497,4314368.502,-275.909
516863.497,4314268.502,-276.787
516863.497,4314168.502,-281.903
516863.497,4314068.502,-280.198
516863.497,4313968.502,-281.088
516863.497,4313868.502,-282.266
516863.497,4313768.502,-278.362
516863.497,4313668.502,-272.153
516863.497,4313568.502,-265.507
516863.497,4313468.502,-262.373
516863.497,4313368.502,-262.959
516863.497,4313268.502,-262.551
516863.497,4313168.502,-263.202
516863.497,4313068.502,-264.159
516863.497,4312968.502,-265.657
516863.497,4312868.502,-267.539
516863.497,4312768.502,-267.696
516863.497,4312668.502,-268.696
516863.497,4312568.502,-270.271
516863.497,4312468.502,-267.661
516863.497,4312368.502,-268.691
516863.497,4312268.502,-291.006
516863.497,4312168.502,-312.926
516863.497,4312068.502,-336.596
516863.497,4311968.502,-355.420
516863.497,4311868.502,-364.416
516863.497,4311768.502,-374.108
516863.497,4311668.502,-379.376
516863.497,4311568.502,-378.730
516863.497,4311468.502,-375.906
516863.497,4311368.502,-372.305
516863.497,4311268.502,-355.551
516863.497,4311168.502,-323.904
516863.497,4311068.502,-293.056
516863.497,4310968.502,-272.214
516863.497,4310868.502,-250.881
516863.497,4310768.502,-252.077
516863.497,4310668.502,-254.028
516863.497,4310568.502,-254.150
516863.497,4310468.502,-255.275
516863.497,4310368.502,-255.665
516863.497,4310268.502,-256.785
516863.497,4310168.502,-257.875
516863.497,4310068.502,-259.526
516863.497,4309968.502,-262.453
516863.497,4309868.502,-267.477
516863.497,4309768.502,-276.740
516863.497,4309668.502,-286.625
516863.497,4309568.502,-287.057
516863.497,4309468.502,-280.863
516863.497,4309368.502,-271.339
516863.497,4309268.502,-263.507
516863.497,4309168.502,-258.238
516863.497,4309068.502,-256.160
516863.497,4308968.502,-255.907
516863.497,4308868.502,-255.863
516863.497,4308768.502,-255.848
516863.497,4308668.502,-256.220
516863.497,4308568.502,-256.992
516863.497,4308468.502,-257.208
516863.497,4308368.502,-257.414
516863.497,4308268.502,-257.409
516863.497,4308168.502,-257.944
516863.497,4308068.502,-258.160
516863.497,4307968.502,-259.205
516863.497,4307868.502,-259.021
516863.497,4307768.502,-259.368
516863.497,4307668.502,-260.063
516863.497,4307568.502,-260.883
516863.497,4307468.502,-261.686
516863.497,4307368.502,-261.965
516863.497,4307268.502,-262.226
516863.497,4307168.502,-262.352
516863.497,4307068.502,-262.801
516863.497,4306968.502,-263.295
516863.497,4306868.502,-263.920
516863.497,4306768.502,-264.546
516863.497,4306668.502,-265.172
516863.497,4306568.502,-265.767
516863.497,4306468.502,-266.251
516863.497,4306368.502,-266.848
516863.497,4306268.502,-267.455
516863.497,4306168.502,-267.658
516863.497,4306068.502,-268.219
516863.497,4305968.502,-268.235
516863.497,4305868.502,-268.568
516863.497,4305768.502,-268.116
516863.497,4305668.502,-266.286
516863.497,4305568.502,-265.328
516863.497,4305468.502,-264.379
516863.497,4305368.502,-263.046
516863.497,4305268.502,-260.221
516863.497,4305168.502,-255.455
516863.497,4305068.502,-248.590
516863.497,4304968.502,-238.961
516863.497,4304868.502,-227.984
516863.497,4304768.502,-211.017
516863.497,4304668.502,-187.680
516863.497,4304568.502,-162.159
516863.497,4304468.502,-133.445
516863.497,4302968.502,-130.787
516863.497,4302868.502,-132.119
516863.497,4302768.502,-133.939
516863.497,4302668.502,-136.295
516863.497,4302568.502,-138.918
516863.497,4302468.502,-143.571
516863.497,4302368.502,-151.508
516863.497,4302268.502,-164.324
516863.497,4302168.502,-179.695
516863.497,4302068.502,-196.796
516863.497,4301968.502,-213.925
516863.497,4301868.502,-227.168
516863.497,4301768.502,-235.303
516863.497,4301668.502,-238.222
516863.497,4301568.502,-239.771
516863.497,4301468.502,-240.889
516863.497,4301368.502,-241.337
516863.497,4301268.502,-241.840
516863.497,4301168.502,-243.583
516863.497,4301068.502,-246.532
516863.497,4300968.502,-251.317
516863.497,4300868.502,-256.588
516863.497,4300768.502,-262.976
516863.497,4300668.502,-270.507
516863.497,4300568.502,-275.577
516863.497,4300468.502,-284.982
516863.497,4300368.502,-293.674
516863.497,4300268.502,-303.831
516863.497,4300168.502,-312.196
516863.497,4300068.502,-319.122
516863.497,4299968.502,-324.126
516863.497,4299868.502,-326.265
516863.497,4299768.502,-325.763
516863.497,4299668.502,-326.149
516863.497,4299568.502,-327.527
516863.497,4299468.502,-327.700
516863.497,4299368.502,-327.552
516863.497,4299268.502,-327.717
516863.497,4299168.502,-328.157
516863.497,4299068.502,-328.773
516863.497,4298968.502,-328.937
516863.497,4298868.502,-328.955
516863.497,4298768.502,-329.473
516863.497,4298668.502,-329.874
516863.497,4298568.502,-330.366
516863.497,4298468.502,-331.212
516863.497,4298368.502,-332.172
516863.497,4298268.502,-333.827
516863.497,4298168.502,-335.570
516863.497,4298068.502,-337.234
516863.497,4297968.502,-338.151
516863.497,4297868.502,-339.750
516863.497,4297768.502,-340.479
516863.497,4297668.502,-341.163
516863.497,4297568.502,-342.350
516863.497,4297468.502,-345.197
516863.497,4297368.502,-350.280
516863.497,4297268.502,-358.532
516863.497,4297168.502,-371.863
516863.497,4297068.502,-391.112
516863.497,4296968.502,-412.793
516863.497,4296868.502,-437.568
516863.497,4296768.502,-466.966
516863.497,4296668.502,-489.081
516863.497,4296568.502,-495.230
516863.497,4296468.502,-499.198
516863.497,4296368.502,-493.259
516863.497,4296268.502,-495.365
516863.497,4296168.502,-502.042
516863.497,4296068.502,-512.768
516863.497,4295968.502,-508.188
516863.497,4295868.502,-515.563
516863.497,4295768.502,-505.910
516863.497,4295668.502,-518.045
516863.497,4295568.502,-524.074
516863.497,4295468.502,-518.642
516863.497,4295368.502,-514.927
516863.497,4295268.502,-513.540
516863.497,4295168.502,-505.914
516863.497,4295068.502,-491.554
516863.497,4294968.502,-473.382
516863.497,4294868.502,-458.590
516863.497,4294768.502,-448.121
516863.497,4294668.502,-454.008
516863.497,4294568.502,-442.813
516863.497,4294468.502,-451.589
516863.497,4294368.502,-460.216
516863.497,4294268.502,-461.667
516863.497,4294168.502,-466.924
516863.497,4294068.502,-462.619
516863.497,4293968.502,-451.297
516863.497,4293868.502,-451.360
516863.497,4293768.502,-461.565
516863.497,4293668.502,-471.000
516863.497,4293568.502,-520.474
516863.497,4293468.502,-569.550
516863.497,4293368.502,-597.388
516863.497,4293268.502,-634.268
516963.497,4318968.502,-131.264
516963.497,4318868.502,-151.346
516963.497,4318768.502,-183.776
516963.497,4318668.502,-197.721
516963.497,4318568.502,-202.624
516963.497,4318468.502,-206.282
516963.497,4318368.502,-209.995
516963.497,4318268.502,-213.977
516963.497,4318168.502,-215.104
516963.497,4318068.502,-205.985
516963.497,4317968.502,-208.568
516963.497,4317868.502,-211.751
516963.497,4317768.502,-219.965
516963.497,4317668.502,-243.309
516963.497,4317568.502,-251.979
516963.497,4317468.502,-257.872
516963.497,4317368.502,-261.920
516963.497,4317268.502,-265.823
516963.497,4317168.502,-240.630
516963.497,4317068.502,-227.053
516963.497,4316968.502,-215.138
516963.497,4316868.502,-217.804
516963.497,4316768.502,-221.550
516963.497,4316668.502,-224.678
516963.497,4316568.502,-227.429
516963.497,4316468.502,-228.995
516963.497,4316368.502,-231.408
516963.497,4316268.502,-231.394
516963.497,4316168.502,-232.364
516963.497,4316068.502,-234.229
516963.497,4315968.502,-237.264
516963.497,4315868.502,-247.738
516963.497,4315768.502,-259.675
516963.497,4315668.502,-264.573
516963.497,4315568.502,-264.977
516963.497,4315468.502,-267.605
516963.497,4315368.502,-265.746
516963.497,4315268.502,-267.010
516963.497,4315168.502,-265.735
516963.497,4315068.502,-268.975
516963.497,4314968.502,-271.989
516963.497,4314868.502,-276.286
516963.497,4314768.502,-283.035
516963.497,4314668.502,-283.573
516963.497,4314568.502,-288.028
516963.497,4314468.502,-283.543
516963.497,4314368.502,-283.111
516963.497,4314268.502,-286.093
516963.497,4314168.502,-287.310
516963.497,4314068.502,-285.574
516963.497,4313968.502,-286.346
516963.497,4313868.502,-286.070
516963.497,4313768.502,-283.241
516963.497,4313668.502,-276.781
516963.497,4313568.502,-269.400
516963.497,4313468.502,-266.813
516963.497,4313368.502,-266.368
516963.497,4313268.502,-266.756
516963.497,4313168.502,-267.385
516963.497,4313068.502,-268.392
516963.497,4312968.502,-269.161
516963.497,4312868.502,-270.623
516963.497,4312768.502,-271.622
516963.497,4312668.502,-272.589
516963.497,4312568.502,-273.483
516963.497,4312468.502,-271.326
516963.497,4312368.502,-271.135
516963.497,4312268.502,-282.030
516963.497,4312168.502,-301.139
516963.497,4312068.502,-345.983
516963.497,4311968.502,-359.667
516963.497,4311868.502,-366.125
516963.497,4311768.502,-375.322
516963.497,4311668.502,-381.618
516963.497,4311568.502,-381.070
516963.497,4311468.502,-377.429
516963.497,4311368.502,-367.691
516963.497,4311268.502,-336.314
516963.497,4311168.502,-328.838
516963.497,4311068.502,-295.259
516963.497,4310968.502,-271.269
516963.497,4310868.502,-256.450
516963.497,4310768.502,-257.555
516963.497,4310668.502,-257.376
516963.497,4310568.502,-257.949
516963.497,4310468.502,-259.135
516963.497,4310368.502,-260.595
516963.497,4310268.502,-261.586
516963.497,4310168.502,-261.643
516963.497,4310068.502,-263.709
516963.497,4309968.502,-267.561
516963.497,4309868.502,-274.871
516963.497,4309768.502,-284.584
516963.497,4309668.502,-291.312
516963.497,4309568.502,-286.950
516963.497,4309468.502,-277.813
516963.497,4309368.502,-267.531
516963.497,4309268.502,-261.707
516963.497,4309168.502,-259.056
516963.497,4309068.502,-258.664
516963.497,4308968.502,-258.439
516963.497,4308868.502,-258.257
516963.497,4308768.502,-258.811
516963.497,4308668.502,-259.127
516963.497,4308568.502,-259.637
516963.497,4308468.502,-259.719
516963.497,4308368.502,-259.554
516963.497,4308268.502,-259.938
516963.497,4308168.502,-260.349
516963.497,4308068.502,-260.466
516963.497,4307968.502,-260.957
516963.497,4307868.502,-261.181
516963.497,4307768.502,-262.319
516963.497,4307668.502,-262.860
516963.497,4307568.502,-263.470
516963.497,4307468.502,-263.565
516963.497,4307368.502,-263.741
516963.497,4307268.502,-263.792
516963.497,4307168.502,-263.938
516963.497,4307068.502,-264.511
516963.497,4306968.502,-265.173
516963.497,4306868.502,-265.984
516963.497,4306768.502,-266.469
516963.497,4306668.502,-267.088
516963.497,4306568.502,-267.509
516963.497,4306468.502,-268.021
516963.497,4306368.502,-268.382
516963.497,4306268.502,-268.807
516963.497,4306168.502,-268.856
516963.497,4306068.502,-269.165
516963.497,4305968.502,-269.320
516963.497,4305868.502,-267.721
516963.497,4305768.502,-265.874
516963.497,4305668.502,-264.176
516963.497,4305568.502,-263.113
516963.497,4305468.502,-261.004
516963.497,4305368.502,-260.171
516963.497,4305268.502,-257.547
516963.497,4305168.502,-253.030
516963.497,4305068.502,-246.590
516963.497,4304968.502,-236.973
516963.497,4304868.502,-227.216
516963.497,4304768.502,-212.688
516963.497,4304668.502,-189.552
516963.497,4304568.502,-167.081
516963.497,4304468.502,-138.273
516963.497,4302968.502,-130.132
516963.497,4302868.502,-131.456
516963.497,4302768.502,-133.046
516963.497,4302668.502,-135.362
516963.497,4302568.502,-138.005
516963.497,4302468.502,-142.022
516963.497,4302368.502,-150.593
516963.497,4302268.502,-165.040
516963.497,4302168.502,-181.808
516963.497,4302068.502,-198.328
516963.497,4301968.502,-214.020
516963.497,4301868.502,-226.633
516963.497,4301768.502,-235.131
516963.497,4301668.502,-238.919
516963.497,4301568.502,-240.864
516963.497,4301468.502,-242.176
516963.497,4301368.502,-243.046
516963.497,4301268.502,-243.767
516963.497,4301168.502,-246.491
516963.497,4301068.502,-248.207
516963.497,4300968.502,-251.458
516963.497,4300868.502,-255.963
516963.497,4300768.502,-261.217
516963.497,4300668.502,-266.974
516963.497,4300568.502,-272.958
516963.497,4300468.502,-281.212
516963.497,4300368.502,-288.958
516963.497,4300268.502,-297.793
516963.497,4300168.502,-306.175
516963.497,4300068.502,-313.799
516963.497,4299968.502,-320.013
516963.497,4299868.502,-325.666
516963.497,4299768.502,-326.743
516963.497,4299668.502,-326.736
516963.497,4299568.502,-327.248
516963.497,4299468.502,-328.200
516963.497,4299368.502,-327.823
516963.497,4299268.502,-328.443
516963.497,4299168.502,-328.884
516963.497,4299068.502,-328.858
516963.497,4298968.502,-329.081
516963.497,4298868.502,-329.323
516963.497,4298768.502,-329.750
516963.497,4298668.502,-330.634
516963.497,4298568.502,-331.471
516963.497,4298468.502,-331.853
516963.497,4298368.502,-334.168
516963.497,4298268.502,-335.336
516963.497,4298168.502,-336.483
516963.497,4298068.502,-337.795
516963.497,4297968.502,-339.739
516963.497,4297868.502,-341.327
516963.497,4297768.502,-341.864
516963.497,4297668.502,-343.882
516963.497,4297568.502,-344.784
516963.497,4297468.502,-347.591
516963.497,4297368.502,-351.674
516963.497,4297268.502,-356.776
516963.497,4297168.502,-367.422
516963.497,4297068.502,-384.761
516963.497,4296968.502,-401.336
516963.497,4296868.502,-422.422
516963.497,4296768.502,-443.053
516963.497,4296668.502,-461.467
516963.497,4296568.502,-483.625
516963.497,4296468.502,-495.242
516963.497,4296368.502,-503.930
516963.497,4296268.502,-507.704
516963.497,4296168.502,-499.806
516963.497,4296068.502,-505.583
516963.497,4295968.502,-504.411
516963.497,4295868.502,-503.799
516963.497,4295768.502,-513.224
516963.497,4295668.502,-520.386
516963.497,4295568.502,-528.123
516963.497,4295468.502,-531.304
516963.497,4295368.502,-533.592
516963.497,4295268.502,-531.672
516963.497,4295168.502,-527.989
516963.497,4295068.502,-522.444
516963.497,4294968.502,-519.411
516963.497,4294868.502,-507.144
516963.497,4294768.502,-487.633
516963.497,4294668.502,-475.461
516963.497,4294568.502,-467.504
516963.497,4294468.502,-467.516
516963.497,4294368.502,-476.381
516963.497,4294268.502,-459.131
516963.497,4294168.502,-480.686
516963.497,4294068.502,-491.108
516963.497,4293968.502,-455.785
516963.497,4293868.502,-464.322
516963.497,4293768.502,-454.365
516963.497,4293668.502,-469.127
516963.497,4293568.502,-525.960
516963.497,4293468.502,-568.853
516963.497,4293368.502,-592.831
516963.497,4293268.502,-619.050
516963.497,4293168.502,-639.033
516963.497,4293068.502,-637.868
517063.497,4319068.502,-131.881
517063.497,4318968.502,-140.274
517063.497,4318868.502,-146.060
517063.497,4318768.502,-178.654
517063.497,4318668.502,-205.328
517063.497,4318568.502,-211.198
517063.497,4318468.502,-215.030
517063.497,4318368.502,-218.687
517063.497,4318268.502,-228.719
517063.497,4318168.502,-232.643
517063.497,4318068.502,-225.927
517063.497,4317968.502,-214.453
517063.497,4317868.502,-218.006
517063.497,4317768.502,-217.533
517063.497,4317668.502,-235.948
517063.497,4317568.502,-253.824
517063.497,4317468.502,-259.580
517063.497,4317368.502,-265.887
517063.497,4317268.502,-269.073
517063.497,4317168.502,-255.936
517063.497,4317068.502,-232.486
517063.497,4316968.502,-220.645
517063.497,4316868.502,-224.431
517063.497,4316768.502,-227.329
517063.497,4316668.502,-228.970
517063.497,4316568.502,-230.639
517063.497,4316468.502,-232.711
517063.497,4316368.502,-235.485
517063.497,4316268.502,-236.667
517063.497,4316168.502,-237.340
517063.497,4316068.502,-238.382
517063.497,4315968.502,-241.069
517063.497,4315868.502,-245.813
517063.497,4315768.502,-258.949
517063.497,4315668.502,-266.598
517063.497,4315568.502,-269.884
517063.497,4315468.502,-270.262
517063.497,4315368.502,-272.140
517063.497,4315268.502,-272.282
517063.497,4315168.502,-273.349
517063.497,4315068.502,-274.548
517063.497,4314968.502,-278.001
517063.497,4314868.502,-285.270
517063.497,4314768.502,-292.118
517063.497,4314668.502,-292.372
517063.497,4314568.502,-292.054
517063.497,4314468.502,-290.338
517063.497,4314368.502,-290.510
517063.497,4314268.502,-291.170
517063.497,4314168.502,-292.054
517063.497,4314068.502,-292.989
517063.497,4313968.502,-291.974
517063.497,4313868.502,-292.061
517063.497,4313768.502,-287.996
517063.497,4313668.502,-279.493
517063.497,4313568.502,-272.543
517063.497,4313468.502,-269.263
517063.497,4313368.502,-270.056
517063.497,4313268.502,-270.772
517063.497,4313168.502,-271.643
517063.497,4313068.502,-272.295
517063.497,4312968.502,-272.974
517063.497,4312868.502,-273.823
517063.497,4312768.502,-275.713
517063.497,4312668.502,-275.902
517063.497,4312568.502,-274.831
517063.497,4312468.502,-273.996
517063.497,4312368.502,-273.856
517063.497,4312268.502,-283.119
517063.497,4312168.502,-306.290
517063.497,4312068.502,-350.913
517063.497,4311968.502,-369.766
517063.497,4311868.502,-367.192
517063.497,4311768.502,-373.258
517063.497,4311668.502,-387.343
517063.497,4311568.502,-384.563
517063.497,4311468.502,-382.733
517063.497,4311368.502,-364.159
517063.497,4311268.502,-332.216
517063.497,4311168.502,-332.100
517063.497,4311068.502,-300.193
517063.497,4310968.502,-270.451
517063.497,4310868.502,-260.560
517063.497,4310768.502,-260.965
517063.497,4310668.502,-261.348
517063.497,4310568.502,-262.205
517063.497,4310468.502,-263.841
517063.497,4310368.502,-264.218
517063.497,4310268.502,-264.787
517063.497,4310168.502,-266.367
517063.497,4310068.502,-268.827
517063.497,4309968.502,-274.500
517063.497,4309868.502,-283.268
517063.497,4309768.502,-291.345
517063.497,4309668.502,-290.705
517063.497,4309568.502,-283.978
517063.497,4309468.502,-274.077
517063.497,4309368.502,-265.825
517063.497,4309268.502,-262.580
517063.497,4309168.502,-261.623
517063.497,4309068.502,-261.282
517063.497,4308968.502,-261.174
517063.497,4308868.502,-261.053
517063.497,4308768.502,-261.583
517063.497,4308668.502,-261.796
517063.497,4308568.502,-261.691
517063.497,4308468.502,-261.906
517063.497,4308368.502,-262.145
517063.497,4308268.502,-262.480
517063.497,4308168.502,-262.604
517063.497,4308068.502,-263.085
517063.497,4307968.502,-263.428
517063.497,4307868.502,-264.014
517063.497,4307768.502,-264.335
517063.497,4307668.502,-265.268
517063.497,4307568.502,-265.225
517063.497,4307468.502,-265.411
517063.497,4307368.502,-265.360
517063.497,4307268.502,-265.800
517063.497,4307168.502,-265.987
517063.497,4307068.502,-266.807
517063.497,4306968.502,-267.649
517063.497,4306868.502,-268.221
517063.497,4306768.502,-268.375
517063.497,4306668.502,-268.838
517063.497,4306568.502,-269.055
517063.497,4306468.502,-269.528
517063.497,4306368.502,-270.043
517063.497,4306268.502,-270.343
517063.497,4306168.502,-270.314
517063.497,4306068.502,-269.618
517063.497,4305968.502,-268.274
517063.497,4305868.502,-266.135
517063.497,4305768.502,-264.256
517063.497,4305668.502,-262.473
517063.497,4305568.502,-260.753
517063.497,4305468.502,-259.111
517063.497,4305368.502,-257.086
517063.497,4305268.502,-255.184
517063.497,4305168.502,-251.610
517063.497,4305068.502,-245.322
517063.497,4304968.502,-236.677
517063.497,4304868.502,-226.383
517063.497,4304768.502,-211.810
517063.497,4304668.502,-192.574
517063.497,4304568.502,-170.480
517063.497,4304468.502,-140.747
517063.497,4302868.502,-130.338
517063.497,4302768.502,-132.067
517063.497,4302668.502,-134.108
517063.497,4302568.502,-137.315
517063.497,4302468.502,-141.323
517063.497,4302368.502,-149.466
517063.497,4302268.502,-165.857
517063.497,4302168.502,-184.193
517063.497,4302068.502,-200.818
517063.497,4301968.502,-215.701
517063.497,4301868.502,-227.029
517063.497,4301768.502,-234.877
517063.497,4301668.502,-238.603
517063.497,4301568.502,-241.668
517063.497,4301468.502,-244.564
517063.497,4301368.502,-245.507
517063.497,4301268.502,-246.927
517063.497,4301168.502,-247.298
517063.497,4301068.502,-249.288
517063.497,4300968.502,-252.274
517063.497,4300868.502,-256.016
517063.497,4300768.502,-260.195
517063.497,4300668.502,-266.223
517063.497,4300568.502,-272.349
517063.497,4300468.502,-279.331
517063.497,4300368.502,-286.159
517063.497,4300268.502,-293.905
517063.497,4300168.502,-302.032
517063.497,4300068.502,-309.635
517063.497,4299968.502,-317.315
517063.497,4299868.502,-323.466
517063.497,4299768.502,-327.397
517063.497,4299668.502,-327.423
517063.497,4299568.502,-327.585
517063.497,4299468.502,-327.982
517063.497,4299368.502,-328.591
517063.497,4299268.502,-328.509
517063.497,4299168.502,-328.722
517063.497,4299068.502,-329.020
517063.497,4298968.502,-329.590
517063.497,4298868.502,-329.829
517063.497,4298768.502,-330.451
517063.497,4298668.502,-331.250
517063.497,4298568.502,-332.025
517063.497,4298468.502,-332.721
517063.497,4298368.502,-335.422
517063.497,4298268.502,-335.639
517063.497,4298168.502,-336.904
517063.497,4298068.502,-338.403
517063.497,4297968.502,-341.229
517063.497,4297868.502,-342.546
517063.497,4297768.502,-343.465
517063.497,4297668.502,-346.357
517063.497,4297568.502,-348.228
517063.497,4297468.502,-350.300
517063.497,4297368.502,-353.229
517063.497,4297268.502,-357.876
517063.497,4297168.502,-364.204
517063.497,4297068.502,-378.203
517063.497,4296968.502,-395.812
517063.497,4296868.502,-408.704
517063.497,4296768.502,-422.505
517063.497,4296668.502,-437.974
517063.497,4296568.502,-448.805
517063.497,4296468.502,-466.778
517063.497,4296368.502,-480.754
517063.497,4296268.502,-479.317
