516113.497,4293418.502,-664.195
516113.497,4293218.502,-712.198
516113.497,4293018.502,-772.696
516113.497,4292818.502,-814.739
516113.497,4292618.502,-762.148
516113.497,4292418.502,-672.604
516113.497,4292218.502,-677.483
516113.497,4292018.502,-655.387
516113.497,4291818.502,-660.353
516113.497,4291618.502,-697.492
516113.497,4291418.502,-776.401
516113.497,4291218.502,-811.174
516113.497,4291018.502,-874.959
516113.497,4290818.502,-922.597
516113.497,4290618.502,-926.965
516113.497,4290418.502,-923.781
516113.497,4290218.502,-947.715
516113.497,4290018.502,-967.881
516113.497,4289818.502,-965.812
516113.497,4289618.502,-952.759
516113.497,4289418.502,-941.521
516113.497,4289218.502,-947.494
516113.497,4289018.502,-967.951
516113.497,4288818.502,-975.521
516113.497,4288618.502,-999.528
516113.497,4288418.502,-997.477
516113.497,4288218.502,-969.800
516113.497,4288018.502,-890.240
516113.497,4287818.502,-855.159
516113.497,4287618.502,-825.927
516113.497,4287418.502,-800.314
516313.497,4294218.502,-600.675
516313.497,4294018.502,-607.360
516313.497,4293818.502,-628.912
516313.497,4293618.502,-603.850
516313.497,4293418.502,-610.099
516313.497,4293218.502,-690.640
516313.497,4293018.502,-718.496
516313.497,4292818.502,-792.299
516313.497,4292618.502,-824.023
516313.497,4292418.502,-750.615
516313.497,4292218.502,-731.595
516313.497,4292018.502,-701.876
516313.497,4291818.502,-709.987
516313.497,4291618.502,-760.150
516313.497,4291418.502,-815.170
516313.497,4291218.502,-855.679
516313.497,4291018.502,-895.604
516313.497,4290818.502,-929.862
516313.497,4290618.502,-884.615
516313.497,4290418.502,-878.525
516313.497,4290218.502,-929.566
516313.497,4290018.502,-897.522
516313.497,4289818.502,-865.518
516313.497,4289618.502,-882.482
516313.497,4289418.502,-875.058
516313.497,4289218.502,-876.519
516313.497,4289018.502,-897.786
516313.497,4288818.502,-894.187
516313.497,4288618.502,-913.000
516313.497,4288418.502,-989.626
516313.497,4288218.502,-1020.103
516313.497,4288018.502,-941.211
516313.497,4287818.502,-868.942
516313.497,4287618.502,-812.337
516313.497,4287418.502,-806.361
516513.497,4294018.502,-583.461
516513.497,4293418.502,-596.073
516513.497,4293218.502,-670.358
516513.497,4293018.502,-686.921
516513.497,4292818.502,-752.097
516513.497,4292618.502,-836.263
516513.497,4292418.502,-848.196
516513.497,4292218.502,-840.517
516513.497,4292018.502,-766.809
516513.497,4291818.502,-767.221
516513.497,4291618.502,-783.445
516513.497,4291418.502,-834.838
516513.497,4291218.502,-877.646
516513.497,4291018.502,-909.789
516513.497,4290818.502,-913.824
516513.497,4290618.502,-833.200
516513.497,4290418.502,-827.320
516513.497,4290218.502,-836.026
516513.497,4290018.502,-806.695
516513.497,4289818.502,-813.387
516513.497,4289618.502,-822.187
516513.497,4289418.502,-813.758
516513.497,4289218.502,-812.330
516513.497,4289018.502,-870.461
516513.497,4288818.502,-884.660
516513.497,4288618.502,-893.161
516513.497,4288418.502,-948.570
516513.497,4288218.502,-1006.178
516513.497,4288018.502,-1021.142
516513.497,4287818.502,-945.127
516513.497,4287618.502,-850.750
516513.497,4287418.502,-773.547
516713.497,4293418.502,-570.328
516713.497,4293218.502,-658.412
516713.497,4293018.502,-679.894
516713.497,4292818.502,-693.227
516713.497,4292618.502,-763.088
516713.497,4292418.502,-779.967
516713.497,4292218.502,-854.534
516713.497,4292018.502,-867.099
516713.497,4291818.502,-841.212
516713.497,4291618.502,-838.139
516713.497,4291418.502,-830.136
516713.497,4291218.502,-883.746
516713.497,4291018.502,-918.952
516713.497,4290818.502,-870.612
516713.497,4290618.502,-766.680
516713.497,4290418.502,-764.678
516713.497,4290218.502,-762.357
516713.497,4290018.502,-758.641
516713.497,4289818.502,-767.350
516713.497,4289618.502,-760.449
516713.497,4289418.502,-770.045
516713.497,4289218.502,-756.257
516713.497,4289018.502,-821.467
516713.497,4288818.502,-852.227
516713.497,4288618.502,-841.955
516713.497,4288418.502,-917.263
516713.497,4288218.502,-971.163
516713.497,4288018.502,-1028.509
516713.497,4287818.502,-993.689
516713.497,4287618.502,-892.970
516713.497,4287418.502,-776.927
516913.497,4293418.502,-583.020
516913.497,4293218.502,-632.730
516913.497,4293018.502,-671.551
516913.497,4292818.502,-661.314
516913.497,4292618.502,-680.629
516913.497,4292418.502,-719.219
516913.497,4292218.502,-772.693
516913.497,4292018.502,-822.641
516913.497,4291818.502,-871.382
516913.497,4291618.502,-878.508
516913.497,4291418.502,-870.196
516913.497,4291218.502,-905.777
516913.497,4291018.502,-857.264
516913.497,4290818.502,-770.973
516913.497,4290618.502,-711.928
516913.497,4290418.502,-726.626
516913.497,4290218.502,-729.194
516913.497,4290018.502,-727.077
516913.497,4289818.502,-730.702
516913.497,4289618.502,-730.885
516913.497,4289418.502,-698.301
516913.497,4289218.502,-691.744
516913.497,4289018.502,-756.624
516913.497,4288818.502,-792.211
516913.497,4288618.502,-842.005
516913.497,4288418.502,-902.604
516913.497,4288218.502,-965.694
516913.497,4288018.502,-1025.517
516913.497,4287818.502,-1015.191
516913.497,4287618.502,-899.003
516913.497,4287418.502,-757.149
517113.497,4294218.502,-563.071
517113.497,4294018.502,-566.273
517113.497,4293418.502,-564.492
517113.497,4293218.502,-610.286
517113.497,4293018.502,-645.156
517113.497,4292818.502,-665.621
517113.497,4292618.502,-686.396
517113.497,4292418.502,-703.115
517113.497,4292218.502,-727.340
517113.497,4292018.502,-773.881
517113.497,4291818.502,-810.347
517113.497,4291618.502,-840.127
517113.497,4291418.502,-858.672
517113.497,4291218.502,-862.912
517113.497,4291018.502,-763.177
517113.497,4290818.502,-721.909
517113.497,4290618.502,-690.517
517113.497,4290418.502,-700.833
517113.497,4290218.502,-682.506
517113.497,4290018.502,-666.452
517113.497,4289818.502,-679.824
517113.497,4289618.502,-667.477
517113.497,4289418.502,-649.047
517113.497,4289218.502,-700.424
517113.497,4289018.502,-765.526
517113.497,4288818.502,-818.184
517113.497,4288618.502,-864.399
517113.497,4288418.502,-922.685
517113.497,4288218.502,-973.829
517113.497,4288018.502,-1036.269
517113.497,4287818.502,-1006.396
517113.497,4287618.502,-894.300
517113.497,4287418.502,-758.130
517313.497,4294218.502,-607.801
517313.497,4294018.502,-604.065
517313.497,4293818.502,-587.935
517313.497,4293018.502,-569.047
517313.497,4292818.502,-660.651
517313.497,4292618.502,-671.914
517313.497,4292418.502,-701.147
517313.497,4292218.502,-721.408
517313.497,4292018.502,-732.934
517313.497,4291818.502,-774.233
517313.497,4291618.502,-762.901
517313.497,4291418.502,-831.344
517313.497,4291218.502,-814.120
517313.497,4291018.502,-726.595
517313.497,4290818.502,-636.617
517313.497,4290618.502,-641.830
517313.497,4290418.502,-651.703
517313.497,4290218.502,-650.814
517313.497,4290018.502,-647.707
517313.497,4289818.502,-657.102
517313.497,4289618.502,-631.066
517313.497,4289418.502,-635.559
517313.497,4289218.502,-731.995
517313.497,4289018.502,-794.446
517313.497,4288818.502,-846.987
517313.497,4288618.502,-902.529
517313.497,4288418.502,-957.970
517313.497,4288218.502,-977.865
517313.497,4288018.502,-1042.133
517313.497,4287818.502,-1012.489
517313.497,4287618.502,-887.778
517313.497,4287418.502,-774.264
517513.497,4293818.502,-576.806
517513.497,4293618.502,-622.585
517513.497,4293418.502,-628.641
517513.497,4293218.502,-625.024
517513.497,4293018.502,-638.302
517513.497,4292818.502,-637.672
517513.497,4292618.502,-645.918
517513.497,4292418.502,-680.148
517513.497,4292218.502,-721.056
517513.497,4292018.502,-738.594
517513.497,4291818.502,-730.328
517513.497,4291618.502,-739.469
517513.497,4291418.502,-767.347
517513.497,4291218.502,-809.389
517513.497,4291018.502,-737.331
517513.497,4290818.502,-643.938
517513.497,4290618.502,-632.326
517513.497,4290418.502,-640.963
517513.497,4290218.502,-646.767
517513.497,4290018.502,-649.976
517513.497,4289818.502,-636.434
517513.497,4289618.502,-588.525
517513.497,4289418.502,-665.656
517513.497,4289218.502,-752.176
517513.497,4289018.502,-807.024
517513.497,4288818.502,-842.195
517513.497,4288618.502,-903.999
517513.497,4288418.502,-959.838
517513.497,4288218.502,-1009.027
517513.497,4288018.502,-1051.098
517513.497,4287818.502,-987.008
517513.497,4287618.502,-847.379
517513.497,4287418.502,-739.980
517713.497,4293418.502,-562.041
517713.497,4293218.502,-621.257
517713.497,4293018.502,-648.259
517713.497,4292818.502,-686.951
517713.497,4292618.502,-697.719
517713.497,4292418.502,-709.677
517713.497,4292218.502,-705.623
517713.497,4292018.502,-699.709
517713.497,4291818.502,-712.376
517713.497,4291618.502,-736.601
517713.497,4291418.502,-773.449
517713.497,4291218.502,-771.725
517713.497,4291018.502,-699.090
517713.497,4290818.502,-650.569
517713.497,4290618.502,-637.104
517713.497,4290418.502,-643.348
517713.497,4290218.502,-644.150
517713.497,4290018.502,-600.220
517713.497,4289818.502,-565.988
517713.497,4289618.502,-585.660
517713.497,4289418.502,-668.518
517713.497,4289218.502,-745.839
517713.497,4289018.502,-796.938
517713.497,4288818.502,-844.681
517713.497,4288618.502,-890.044
517713.497,4288418.502,-947.334
517713.497,4288218.502,-1044.276
517713.497,4288018.502,-1056.750
517713.497,4287818.502,-960.253
517713.497,4287618.502,-839.507
517713.497,4287418.502,-795.996
517913.497,4292818.502,-598.502
517913.497,4292618.502,-654.396
517913.497,4292418.502,-669.755
517913.497,4292218.502,-681.902
517913.497,4292018.502,-717.770
517913.497,4291818.502,-752.992
517913.497,4291618.502,-771.393
517913.497,4291418.502,-771.039
517913.497,4291218.502,-707.479
517913.497,4291018.502,-657.562
517913.497,4290818.502,-639.938
517913.497,4290618.502,-648.655
517913.497,4290418.502,-645.454
517913.497,4290218.502,-582.283
517913.497,4289818.502,-562.119
517913.497,4289618.502,-584.829
517913.497,4289418.502,-670.650
517913.497,4289218.502,-772.364
517913.497,4289018.502,-798.785
517913.497,4288818.502,-859.427
517913.497,4288618.502,-896.581
517913.497,4288418.502,-960.605
517913.497,4288218.502,-1065.210
517913.497,4288018.502,-1041.606
517913.497,4287818.502,-922.452
517913.497,4287618.502,-879.629
517913.497,4287418.502,-850.140
518113.497,4292818.502,-570.922
518113.497,4292618.502,-678.526
518113.497,4292418.502,-680.333
518113.497,4292218.502,-731.318
518113.497,4292018.502,-732.800
518113.497,4291818.502,-726.456
518113.497,4291618.502,-710.596
518113.497,4291418.502,-649.969
518113.497,4291218.502,-634.492
518113.497,4291018.502,-596.381
518113.497,4290818.502,-562.104
518113.497,4290618.502,-569.405
518113.497,4290418.502,-562.802
518113.497,4290018.502,-565.026
518113.497,4289818.502,-566.959
518113.497,4289618.502,-598.246
518113.497,4289418.502,-697.365
518113.497,4289218.502,-770.011
518113.497,4289018.502,-790.559
518113.497,4288818.502,-832.794
518113.497,4288618.502,-909.788
518113.497,4288418.502,-990.875
518113.497,4288218.502,-1079.778
518113.497,4288018.502,-1041.980
518113.497,4287818.502,-923.405
518113.497,4287618.502,-901.821
518113.497,4287418.502,-864.698
518313.497,4293018.502,-565.134
518313.497,4292818.502,-574.760
518313.497,4292618.502,-574.767
518313.497,4292418.502,-568.433
518313.497,4292218.502,-567.252
518313.497,4292018.502,-572.928
518313.497,4291818.502,-577.925
518313.497,4291618.502,-581.659
518313.497,4291418.502,-577.611
518313.497,4291218.502,-584.470
518313.497,4291018.502,-591.133
518313.497,4290818.502,-573.068
518313.497,4290618.502,-566.874
518313.497,4290418.502,-562.113
518313.497,4290218.502,-568.989
518313.497,4290018.502,-578.063
518313.497,4289818.502,-590.893
518313.497,4289618.502,-598.650
518313.497,4289418.502,-636.885
518313.497,4289218.502,-731.169
518313.497,4289018.502,-785.394
518313.497,4288818.502,-814.398
518313.497,4288618.502,-903.625
518313.497,4288418.502,-1006.686
518313.497,4288218.502,-1084.825
518313.497,4288018.502,-1053.567
518313.497,4287818.502,-938.782
518313.497,4287618.502,-892.078
518313.497,4287418.502,-898.130
518513.497,4291418.502,-580.444
518513.497,4291218.502,-606.872
518513.497,4291018.502,-615.947
518513.497,4290818.502,-604.130
518513.497,4290618.502,-575.631
518513.497,4290418.502,-572.440
518513.497,4290218.502,-586.986
518513.497,4290018.502,-599.496
518513.497,4289818.502,-612.825
518513.497,4289618.502,-627.278
518513.497,4289418.502,-651.138
518513.497,4289218.502,-676.689
518513.497,4289018.502,-713.473
518513.497,4288818.502,-806.359
518513.497,4288618.502,-898.855
518513.497,4288418.502,-1015.071
518513.497,4288218.502,-1086.568
518513.497,4288018.502,-1055.054
518513.497,4287818.502,-976.219
518513.497,4287618.502,-957.374
518513.497,4287418.502,-985.535
518713.497,4291418.502,-576.920
518713.497,4291218.502,-622.432
518713.497,4291018.502,-624.516
518713.497,4290818.502,-624.082
518713.497,4290618.502,-613.958
518713.497,4290418.502,-604.308
518713.497,4290218.502,-607.194
518713.497,4290018.502,-619.710
518713.497,4289818.502,-641.363
518713.497,4289618.502,-669.539
518713.497,4289418.502,-685.729
518713.497,4289218.502,-684.136
518713.497,4289018.502,-700.693
518713.497,4288818.502,-797.160
518713.497,4288618.502,-879.701
518713.497,4288418.502,-1012.426
518713.497,4288218.502,-1091.457
518713.497,4288018.502,-1065.466
518713.497,4287818.502,-1008.713
518713.497,4287618.502,-1060.711
518713.497,4287418.502,-1056.515
518913.497,4291418.502,-575.456
518913.497,4291218.502,-611.413
518913.497,4291018.502,-634.947
518913.497,4290818.502,-643.128
518913.497,4290618.502,-639.948
518913.497,4290418.502,-629.842
518913.497,4290218.502,-623.409
518913.497,4290018.502,-640.918
518913.497,4289818.502,-668.507
518913.497,4289618.502,-688.962
518913.497,4289418.502,-685.787
518913.497,4289218.502,-679.138
518913.497,4289018.502,-694.269
518913.497,4288818.502,-803.875
518913.497,4288618.502,-891.170
518913.497,4288418.502,-1018.147
518913.497,4288218.502,-1084.984
518913.497,4288018.502,-1051.674
518913.497,4287818.502,-1069.440
518913.497,4287618.502,-1123.937
518913.497,4287418.502,-1104.599
519113.497,4291418.502,-569.152
519113.497,4291218.502,-607.387
519113.497,4291018.502,-650.765
519113.497,4290818.502,-666.687
519113.497,4290618.502,-674.815
519113.497,4290418.502,-662.372
519113.497,4290218.502,-650.376
519113.497,4290018.502,-658.905
519113.497,4289818.502,-685.598
519113.497,4289618.502,-693.229
519113.497,4289418.502,-689.485
519113.497,4289218.502,-678.484
519113.497,4289018.502,-698.068
519113.497,4288818.502,-778.472
519113.497,4288618.502,-873.215
519113.497,4288418.502,-1015.172
519113.497,4288218.502,-1083.501
519113.497,4288018.502,-1095.503
519113.497,4287818.502,-1091.210
519113.497,4287618.502,-1113.034
519113.497,4287418.502,-1136.341
519313.497,4291418.502,-561.138
519313.497,4291218.502,-599.388
519313.497,4291018.502,-661.398
519313.497,4290818.502,-678.929
519313.497,4290618.502,-687.445
519313.497,4290418.502,-686.981
519313.497,4290218.502,-677.591
519313.497,4290018.502,-685.083
519313.497,4289818.502,-699.455
519313.497,4289618.502,-701.601
519313.497,4289418.502,-695.770
519313.497,4289218.502,-683.832
519313.497,4289018.502,-688.871
519313.497,4288818.502,-741.125
519313.497,4288618.502,-840.046
519313.497,4288418.502,-927.316
519313.497,4288218.502,-1016.818
519313.497,4288018.502,-1096.578
519313.497,4287818.502,-1112.196
519313.497,4287618.502,-1096.884
519313.497,4287418.502,-1079.473
519513.497,4291218.502,-582.397
519513.497,4291018.502,-645.131
519513.497,4290818.502,-682.455
519513.497,4290618.502,-693.460
519513.497,4290418.502,-695.608
519513.497,4290218.502,-701.080
519513.497,4290018.502,-703.915
519513.497,4289818.502,-702.665
519513.497,4289618.502,-702.447
519513.497,4289418.502,-701.331
519513.497,4289218.502,-693.620
519513.497,4289018.502,-683.643
519513.497,4288818.502,-707.642
519513.497,4288618.502,-773.785
519513.497,4288418.502,-863.351
519513.497,4288218.502,-952.922
519513.497,4288018.502,-1025.375
519513.497,4287818.502,-1038.886
519513.497,4287618.502,-1030.100
519513.497,4287418.502,-1011.845
519713.497,4291218.502,-589.429
519713.497,4291018.502,-623.168
519713.497,4290818.502,-659.906
519713.497,4290618.502,-692.063
519713.497,4290418.502,-699.080
519713.497,4290218.502,-703.872
519713.497,4290018.502,-707.028
519713.497,4289818.502,-711.766
519713.497,4289618.502,-713.798
519713.497,4289418.502,-710.167
519713.497,4289218.502,-703.335
519713.497,4289018.502,-696.375
519713.497,4288818.502,-707.912
519713.497,4288618.502,-723.695
519713.497,4288418.502,-770.216
519713.497,4288218.502,-870.304
519713.497,4288018.502,-920.737
519713.497,4287818.502,-930.893
519713.497,4287618.502,-920.593
519713.497,4287418.502,-906.043
519913.497,4291218.502,-575.464
519913.497,4291018.502,-607.946
519913.497,4290818.502,-658.381
519913.497,4290618.502,-693.812
519913.497,4290418.502,-698.543
519913.497,4290218.502,-706.454
519913.497,4290018.502,-716.536
519913.497,4289818.502,-719.443
519913.497,4289618.502,-725.958
519913.497,4289418.502,-725.873
519913.497,4289218.502,-720.660
519913.497,4289018.502,-711.911
519913.497,4288818.502,-718.490
519913.497,4288618.502,-725.763
519913.497,4288418.502,-736.185
519913.497,4288218.502,-762.450
519913.497,4288018.502,-804.180
519913.497,4287818.502,-818.734
519913.497,4287618.502,-817.521
519913.497,4287418.502,-823.026
520113.497,4291218.502,-563.886
520113.497,4291018.502,-600.289
520113.497,4290818.502,-632.401
520113.497,4290618.502,-695.353
520113.497,4290418.502,-700.588
520113.497,4290218.502,-699.401
520113.497,4290018.502,-711.487
520113.497,4289818.502,-726.745
520113.497,4289618.502,-731.397
520113.497,4289418.502,-730.375
520113.497,4289218.502,-729.495
520113.497,4289018.502,-727.925
520113.497,4288818.502,-725.682
520113.497,4288618.502,-746.330
520113.497,4288418.502,-764.337
520113.497,4288218.502,-775.777
520113.497,4288018.502,-783.878
520113.497,4287818.502,-803.595
520113.497,4287618.502,-821.036
520113.497,4287418.502,-842.321
520313.497,4291218.502,-561.510
520313.497,4291018.502,-581.849
520313.497,4290818.502,-605.241
520313.497,4290618.502,-633.095
520313.497,4290418.502,-690.518
520313.497,4290218.502,-691.688
520313.497,4290018.502,-707.726
520313.497,4289818.502,-723.205
520313.497,4289618.502,-727.018
520313.497,4289418.502,-733.030
520313.497,4289218.502,-733.843
520313.497,4289018.502,-732.458
520313.497,4288818.502,-735.342
520313.497,4288618.502,-760.801
520313.497,4288418.502,-778.212
520313.497,4288218.502,-781.737
520313.497,4288018.502,-805.717
520313.497,4287818.502,-831.751
520313.497,4287618.502,-845.733
520313.497,4287418.502,-861.300
520513.497,4291018.502,-573.868
520513.497,4290818.502,-580.027
520513.497,4290618.502,-598.497
520513.497,4290418.502,-625.244
520513.497,4290218.502,-689.427
520513.497,4290018.502,-713.330
520513.497,4289818.502,-717.964
520513.497,4289618.502,-716.399
520513.497,4289418.502,-719.659
520513.497,4289218.502,-730.840
520513.497,4289018.502,-733.137
520513.497,4288818.502,-735.755
520513.497,4288618.502,-747.574
520513.497,4288418.502,-762.579
520513.497,4288218.502,-787.812
520513.497,4288018.502,-822.851
520513.497,4287818.502,-847.541
520513.497,4287618.502,-859.883
520513.497,4287418.502,-877.432
520713.497,4291018.502,-563.649
520713.497,4290818.502,-577.646
520713.497,4290618.502,-598.605
520713.497,4290418.502,-645.456
520713.497,4290218.502,-672.723
520713.497,4290018.502,-661.865
520713.497,4289818.502,-652.986
520713.497,4289618.502,-656.369
520713.497,4289418.502,-684.255
520713.497,4289218.502,-729.183
520713.497,4289018.502,-732.915
520713.497,4288818.502,-729.122
520713.497,4288618.502,-735.561
520713.497,4288418.502,-756.724
520713.497,4288218.502,-795.689
520713.497,4288018.502,-823.244
520713.497,4287818.502,-846.843
520713.497,4287618.502,-863.934
520713.497,4287418.502,-882.680
520913.497,4291018.502,-561.294
520913.497,4290818.502,-580.702
520913.497,4290618.502,-599.620
520913.497,4290418.502,-625.105
520913.497,4290218.502,-637.183
520913.497,4290018.502,-624.898
520913.497,4289818.502,-625.917
520913.497,4289618.502,-634.799
520913.497,4289418.502,-668.731
520913.497,4289218.502,-723.820
520913.497,4289018.502,-733.653
520913.497,4288818.502,-729.348
520913.497,4288618.502,-731.936
520913.497,4288418.502,-743.138
520913.497,4288218.502,-784.755
520913.497,4288018.502,-821.266
520913.497,4287818.502,-845.563
520913.497,4287618.502,-869.908
520913.497,4287418.502,-890.064
521113.497,4290818.502,-569.629
521113.497,4290618.502,-600.729
521113.497,4290418.502,-614.341
521113.497,4290218.502,-612.007
521113.497,4290018.502,-606.908
521113.497,4289818.502,-628.907
521113.497,4289618.502,-658.047
521113.497,4289418.502,-676.175
521113.497,4289218.502,-710.344
521113.497,4289018.502,-735.374
521113.497,4288818.502,-731.011
521113.497,4288618.502,-736.387
521113.497,4288418.502,-761.010
521113.497,4288218.502,-785.571
521113.497,4288018.502,-809.579
521113.497,4287818.502,-841.103
521113.497,4287618.502,-868.153
521113.497,4287418.502,-897.492
521313.497,4290818.502,-581.755
521313.497,4290618.502,-603.109
521313.497,4290418.502,-597.549
521313.497,4290218.502,-595.053
521313.497,4290018.502,-611.589
521313.497,4289818.502,-635.431
521313.497,4289618.502,-663.145
521313.497,4289418.502,-688.854
521313.497,4289218.502,-720.657
521313.497,4289018.502,-735.976
521313.497,4288818.502,-735.357
521313.497,4288618.502,-749.163
521313.497,4288418.502,-766.958
521313.497,4288218.502,-793.363
521313.497,4288018.502,-824.413
521313.497,4287818.502,-850.525
521313.497,4287618.502,-876.453
521313.497,4287418.502,-901.873
521513.497,4290818.502,-578.596
521513.497,4290618.502,-591.772
521513.497,4290418.502,-582.671
521513.497,4290218.502,-593.061
521513.497,4290018.502,-611.168
521513.497,4289818.502,-637.135
521513.497,4289618.502,-665.730
521513.497,4289418.502,-699.230
521513.497,4289218.502,-732.287
521513.497,4289018.502,-743.571
521513.497,4288818.502,-745.771
521513.497,4288618.502,-766.388
521513.497,4288418.502,-782.541
521513.497,4288218.502,-813.375
521513.497,4288018.502,-847.367
521513.497,4287818.502,-868.112
521513.497,4287618.502,-887.740
521513.497,4287418.502,-919.877
521713.497,4290818.502,-569.607
521713.497,4290418.502,-565.192
521713.497,4290218.502,-573.365
521713.497,4290018.502,-602.502
521713.497,4289818.502,-648.995
521713.497,4289618.502,-668.494
521713.497,4289418.502,-702.958
521713.497,4289218.502,-743.668
521713.497,4289018.502,-752.267
521713.497,4288818.502,-753.372
521713.497,4288618.502,-769.255
521713.497,4288418.502,-791.744
521713.497,4288218.502,-849.131
521713.497,4288018.502,-866.336
521713.497,4287818.502,-893.450
521713.497,4287618.502,-909.247
521713.497,4287418.502,-945.881
521913.497,4290218.502,-586.902
521913.497,4290018.502,-631.471
521913.497,4289818.502,-655.822
521913.497,4289618.502,-674.085
521913.497,4289418.502,-716.834
521913.497,4289218.502,-757.907
521913.497,4289018.502,-765.267
521913.497,4288818.502,-770.763
521913.497,4288618.502,-796.234
521913.497,4288418.502,-820.470
521913.497,4288218.502,-874.511
521913.497,4288018.502,-916.644
521913.497,4287818.502,-926.307
521913.497,4287618.502,-939.903
521913.497,4287418.502,-943.764
522113.497,4316018.502,-565.051
522113.497,4290218.502,-598.226
522113.497,4290018.502,-637.703
522113.497,4289818.502,-654.326
522113.497,4289618.502,-678.138
522113.497,4289418.502,-717.781
522113.497,4289218.502,-759.567
522113.497,4289018.502,-774.396
522113.497,4288818.502,-791.104
522113.497,4288618.502,-810.316
522113.497,4288418.502,-838.199
522113.497,4288218.502,-907.043
522113.497,4288018.502,-929.437
522113.497,4287818.502,-946.181
522113.497,4287618.502,-963.481
522113.497,4287418.502,-957.323
522313.497,4316418.502,-568.988
522313.497,4316218.502,-569.402
522313.497,4316018.502,-565.943
522313.497,4290418.502,-579.524
522313.497,4290218.502,-612.688
522313.497,4290018.502,-635.360
522313.497,4289818.502,-658.168
522313.497,4289618.502,-679.018
522313.497,4289418.502,-710.607
522313.497,4289218.502,-770.859
522313.497,4289018.502,-808.032
522313.497,4288818.502,-812.659
522313.497,4288618.502,-856.273
522313.497,4288418.502,-887.432
522313.497,4288218.502,-940.316
522313.497,4288018.502,-955.245
522313.497,4287818.502,-946.005
522313.497,4287618.502,-968.440
522313.497,4287418.502,-977.121
522513.497,4316818.502,-573.639
522513.497,4316618.502,-576.397
522513.497,4316418.502,-574.846
522513.497,4316218.502,-567.610
522513.497,4316018.502,-563.498
522513.497,4290618.502,-566.468
522513.497,4290418.502,-593.965
522513.497,4290218.502,-620.951
522513.497,4290018.502,-633.528
522513.497,4289818.502,-651.146
522513.497,4289618.502,-665.580
522513.497,4289418.502,-695.962
522513.497,4289218.502,-772.619
522513.497,4289018.502,-813.236
522513.497,4288818.502,-836.065
522513.497,4288618.502,-872.449
522513.497,4288418.502,-905.167
522513.497,4288218.502,-934.862
522513.497,4288018.502,-958.796
522513.497,4287818.502,-959.208
522513.497,4287618.502,-970.631
522513.497,4287418.502,-985.901
522713.497,4317018.502,-575.735
522713.497,4316818.502,-580.707
522713.497,4316618.502,-575.702
522713.497,4316418.502,-570.045
522713.497,4290618.502,-620.550
522713.497,4290418.502,-629.984
522713.497,4290218.502,-624.278
522713.497,4290018.502,-626.960
522713.497,4289818.502,-641.259
522713.497,4289618.502,-668.117
522713.497,4289418.502,-739.015
522713.497,4289218.502,-780.562
522713.497,4289018.502,-816.012
522713.497,4288818.502,-843.034
522713.497,4288618.502,-887.131
522713.497,4288418.502,-913.239
522713.497,4288218.502,-941.623
522713.497,4288018.502,-959.223
522713.497,4287818.502,-962.261
522713.497,4287618.502,-968.731
522713.497,4287418.502,-982.967
522913.497,4317018.502,-584.033
522913.497,4316818.502,-576.552
522913.497,4316618.502,-567.614
522913.497,4290818.502,-562.827
522913.497,4290618.502,-613.314
522913.497,4290418.502,-623.405
522913.497,4290218.502,-644.631
522913.497,4290018.502,-660.419
522913.497,4289818.502,-678.071
522913.497,4289618.502,-723.394
522913.497,4289418.502,-762.504
522913.497,4289218.502,-805.406
522913.497,4289018.502,-835.594
522913.497,4288818.502,-857.283
522913.497,4288618.502,-886.298
522913.497,4288418.502,-918.737
522913.497,4288218.502,-940.026
522913.497,4288018.502,-958.508
522913.497,4287818.502,-965.334
522913.497,4287618.502,-967.966
522913.497,4287418.502,-981.247
523113.497,4317218.502,-575.323
523113.497,4317018.502,-586.305
523113.497,4316818.502,-577.120
523113.497,4290818.502,-595.033
523113.497,4290618.502,-623.500
523113.497,4290418.502,-658.053
523113.497,4290218.502,-685.242
523113.497,4290018.502,-695.691
523113.497,4289818.502,-699.326
523113.497,4289618.502,-736.158
523113.497,4289418.502,-782.342
523113.497,4289218.502,-826.816
523113.497,4289018.502,-857.006
523113.497,4288818.502,-884.753
523113.497,4288618.502,-906.355
523113.497,4288418.502,-923.473
523113.497,4288218.502,-941.647
523113.497,4288018.502,-956.660
523113.497,4287818.502,-959.451
523113.497,4287618.502,-963.604
523113.497,4287418.502,-982.428
523313.497,4317218.502,-577.218
523313.497,4317018.502,-589.418
523313.497,4316818.502,-577.040
523313.497,4290818.502,-597.951
523313.497,4290618.502,-646.276
523313.497,4290418.502,-675.989
523313.497,4290218.502,-695.371
523313.497,4290018.502,-714.612
523313.497,4289818.502,-730.810
523313.497,4289618.502,-764.109
523313.497,4289418.502,-815.677
523313.497,4289218.502,-836.586
523313.497,4289018.502,-871.051
523313.497,4288818.502,-887.044
523313.497,4288618.502,-912.873
523313.497,4288418.502,-926.110
523313.497,4288218.502,-941.890
523313.497,4288018.502,-953.839
523313.497,4287818.502,-950.612
523313.497,4287618.502,-957.981
523313.497,4287418.502,-979.662
523513.497,4317418.502,-569.717
523513.497,4317218.502,-588.304
523513.497,4317018.502,-592.232
523513.497,4316818.502,-568.219
523513.497,4291018.502,-564.179
523513.497,4290818.502,-630.678
523513.497,4290618.502,-661.296
523513.497,4290418.502,-693.374
523513.497,4290218.502,-714.174
523513.497,4290018.502,-740.399
523513.497,4289818.502,-777.023
523513.497,4289618.502,-808.118
523513.497,4289418.502,-831.931
523513.497,4289218.502,-845.433
523513.497,4289018.502,-867.921
523513.497,4288818.502,-888.375
523513.497,4288618.502,-910.581
523513.497,4288418.502,-921.182
523513.497,4288218.502,-933.730
523513.497,4288018.502,-947.934
523513.497,4287818.502,-956.886
523513.497,4287618.502,-969.947
523513.497,4287418.502,-978.611
523713.497,4317418.502,-590.088
523713.497,4317218.502,-594.410
523713.497,4317018.502,-588.299
523713.497,4316818.502,-566.488
523713.497,4316618.502,-560.287
523713.497,4291218.502,-576.665
523713.497,4291018.502,-609.984
523713.497,4290818.502,-644.970
523713.497,4290618.502,-683.739
523713.497,4290418.502,-719.970
523713.497,4290218.502,-751.838
523713.497,4290018.502,-780.761
523713.497,4289818.502,-818.459
523713.497,4289618.502,-841.582
523713.497,4289418.502,-844.997
523713.497,4289218.502,-851.536
523713.497,4289018.502,-865.306
523713.497,4288818.502,-883.379
523713.497,4288618.502,-906.113
523713.497,4288418.502,-922.390
523713.497,4288218.502,-932.902
523713.497,4288018.502,-942.273
523713.497,4287818.502,-958.364
523713.497,4287618.502,-967.680
523713.497,4287418.502,-975.978
523913.497,4317418.502,-584.343
523913.497,4317218.502,-593.329
523913.497,4317018.502,-595.959
523913.497,4316818.502,-594.784
523913.497,4316618.502,-571.470
523913.497,4293218.502,-561.702
523913.497,4291218.502,-599.121
523913.497,4291018.502,-641.501
523913.497,4290818.502,-671.086
523913.497,4290618.502,-727.123
523913.497,4290418.502,-759.796
523913.497,4290218.502,-777.671
523913.497,4290018.502,-801.680
523913.497,4289818.502,-834.362
523913.497,4289618.502,-851.676
523913.497,4289418.502,-855.362
523913.497,4289218.502,-861.180
523913.497,4289018.502,-873.489
523913.497,4288818.502,-899.872
523913.497,4288618.502,-915.456
523913.497,4288418.502,-923.965
523913.497,4288218.502,-933.771
523913.497,4288018.502,-942.805
523913.497,4287818.502,-956.414
523913.497,4287618.502,-963.501
523913.497,4287418.502,-969.236
524113.497,4317218.502,-589.551
524113.497,4317018.502,-602.928
524113.497,4316818.502,-603.070
524113.497,4316618.502,-578.324
524113.497,4293218.502,-587.361
524113.497,4293018.502,-621.891
524113.497,4292818.502,-569.016
524113.497,4291418.502,-585.203
524113.497,4291218.502,-617.479
524113.497,4291018.502,-662.979
524113.497,4290818.502,-729.468
524113.497,4290618.502,-761.849
524113.497,4290418.502,-789.024
524113.497,4290218.502,-799.891
524113.497,4290018.502,-821.560
524113.497,4289818.502,-846.612
524113.497,4289618.502,-855.260
524113.497,4289418.502,-863.546
524113.497,4289218.502,-869.683
524113.497,4289018.502,-883.281
524113.497,4288818.502,-889.248
524113.497,4288618.502,-911.970
524113.497,4288418.502,-925.213
524113.497,4288218.502,-932.816
524113.497,4288018.502,-941.796
524113.497,4287818.502,-949.758
524113.497,4287618.502,-958.055
524113.497,4287418.502,-958.466
524313.497,4317418.502,-574.429
524313.497,4317218.502,-610.476
524313.497,4317018.502,-609.601
524313.497,4316818.502,-607.283
524313.497,4316618.502,-575.397
524313.497,4293418.502,-590.183
524313.497,4293218.502,-605.171
524313.497,4293018.502,-615.069
524313.497,4292818.502,-606.183
524313.497,4292618.502,-583.891
524313.497,4292418.502,-609.807
524313.497,4292218.502,-591.929
524313.497,4292018.502,-582.912
524313.497,4291818.502,-570.508
524313.497,4291618.502,-625.489
524313.497,4291418.502,-649.001
524313.497,4291218.502,-701.058
524313.497,4291018.502,-740.901
524313.497,4290818.502,-771.719
524313.497,4290618.502,-791.247
524313.497,4290418.502,-806.651
524313.497,4290218.502,-823.341
524313.497,4290018.502,-843.075
524313.497,4289818.502,-849.023
524313.497,4289618.502,-855.909
524313.497,4289418.502,-864.047
524313.497,4289218.502,-873.637
524313.497,4289018.502,-883.950
524313.497,4288818.502,-895.048
524313.497,4288618.502,-906.110
524313.497,4288418.502,-922.733
524313.497,4288218.502,-938.117
524313.497,4288018.502,-939.968
524313.497,4287818.502,-942.009
524313.497,4287618.502,-946.881
524313.497,4287418.502,-955.548
524513.497,4317418.502,-613.540
524513.497,4317218.502,-614.471
524513.497,4317018.502,-609.421
524513.497,4316818.502,-585.266
524513.497,4294018.502,-567.608
524513.497,4293818.502,-591.243
524513.497,4293618.502,-602.079
524513.497,4293418.502,-596.852
524513.497,4293218.502,-584.033
524513.497,4293018.502,-585.234
524513.497,4292818.502,-618.208
524513.497,4292618.502,-681.311
524513.497,4292418.502,-674.982
524513.497,4292218.502,-689.721
524513.497,4292018.502,-693.085
524513.497,4291818.502,-687.841
524513.497,4291618.502,-708.740
524513.497,4291418.502,-732.238
524513.497,4291218.502,-745.384
524513.497,4291018.502,-775.171
524513.497,4290818.502,-789.569
524513.497,4290618.502,-808.130
524513.497,4290418.502,-815.222
524513.497,4290218.502,-833.985
524513.497,4290018.502,-838.736
524513.497,4289818.502,-847.432
524513.497,4289618.502,-855.694
524513.497,4289418.502,-862.524
524513.497,4289218.502,-870.659
524513.497,4289018.502,-881.204
524513.497,4288818.502,-889.212
524513.497,4288618.502,-900.325
524513.497,4288418.502,-925.724
524513.497,4288218.502,-931.897
524513.497,4288018.502,-940.150
524513.497,4287818.502,-938.911
524513.497,4287618.502,-944.251
524513.497,4287418.502,-946.165
524713.497,4317418.502,-617.954
524713.497,4317218.502,-613.253
524713.497,4317018.502,-597.209
524713.497,4316818.502,-593.174
524713.497,4294018.502,-562.406
524713.497,4293818.502,-594.738
524713.497,4293618.502,-620.864
524713.497,4293418.502,-633.208
524713.497,4293218.502,-645.991
524713.497,4293018.502,-667.894
524713.497,4292818.502,-695.631
524713.497,4292618.502,-728.367
524713.497,4292418.502,-763.066
524713.497,4292218.502,-757.673
524713.497,4292018.502,-731.737
524713.497,4291818.502,-726.428
524713.497,4291618.502,-733.245
524713.497,4291418.502,-745.821
524713.497,4291218.502,-763.791
524713.497,4291018.502,-794.938
524713.497,4290818.502,-797.116
524713.497,4290618.502,-798.632
524713.497,4290418.502,-814.587
524713.497,4290218.502,-835.173
524713.497,4290018.502,-840.818
524713.497,4289818.502,-847.909
524713.497,4289618.502,-857.859
524713.497,4289418.502,-866.089
524713.497,4289218.502,-871.010
524713.497,4289018.502,-877.117
524713.497,4288818.502,-887.052
524713.497,4288618.502,-901.824
524713.497,4288418.502,-911.905
524713.497,4288218.502,-928.918
524713.497,4288018.502,-935.809
524713.497,4287818.502,-940.951
524713.497,4287618.502,-947.257
524713.497,4287418.502,-953.984
524913.497,4317418.502,-609.107
524913.497,4317218.502,-622.809
524913.497,4317018.502,-604.766
524913.497,4316818.502,-575.664
524913.497,4293818.502,-599.513
524913.497,4293618.502,-612.974
524913.497,4293418.502,-620.229
524913.497,4293218.502,-640.398
524913.497,4293018.502,-662.774
524913.497,4292818.502,-692.435
524913.497,4292618.502,-735.348
524913.497,4292418.502,-765.464
524913.497,4292218.502,-766.089
524913.497,4292018.502,-756.602
524913.497,4291818.502,-747.910
524913.497,4291618.502,-748.276
524913.497,4291418.502,-766.159
524913.497,4291218.502,-790.276
524913.497,4291018.502,-807.745
524913.497,4290818.502,-806.538
524913.497,4290618.502,-811.289
524913.497,4290418.502,-820.242
524913.497,4290218.502,-835.846
524913.497,4290018.502,-841.136
524913.497,4289818.502,-848.767
524913.497,4289618.502,-856.390
524913.497,4289418.502,-863.575
524913.497,4289218.502,-870.597
524913.497,4289018.502,-877.092
524913.497,4288818.502,-888.157
524913.497,4288618.502,-898.733
524913.497,4288418.502,-909.494
524913.497,4288218.502,-922.691
524913.497,4288018.502,-931.366
524913.497,4287818.502,-936.211
524913.497,4287618.502,-944.034
524913.497,4287418.502,-952.785
525113.497,4317618.502,-566.166
525113.497,4317418.502,-566.994
525113.497,4317218.502,-620.354
525113.497,4317018.502,-628.415
525113.497,4316818.502,-586.144
525113.497,4293818.502,-601.815
525113.497,4293618.502,-600.283
525113.497,4293418.502,-615.426
525113.497,4293218.502,-626.001
525113.497,4293018.502,-649.440
525113.497,4292818.502,-677.749
525113.497,4292618.502,-708.501
525113.497,4292418.502,-741.918
525113.497,4292218.502,-772.872
525113.497,4292018.502,-785.348
525113.497,4291818.502,-774.472
525113.497,4291618.502,-769.512
525113.497,4291418.502,-799.182
525113.497,4291218.502,-808.984
525113.497,4291018.502,-815.660
525113.497,4290818.502,-814.607
525113.497,4290618.502,-818.644
525113.497,4290418.502,-826.716
525113.497,4290218.502,-834.140
525113.497,4290018.502,-842.544
525113.497,4289818.502,-850.347
525113.497,4289618.502,-858.900
525113.497,4289418.502,-863.487
525113.497,4289218.502,-871.607
525113.497,4289018.502,-876.937
525113.497,4288818.502,-885.870
525113.497,4288618.502,-896.957
525113.497,4288418.502,-910.897
525113.497,4288218.502,-922.415
525113.497,4288018.502,-927.429
525113.497,4287818.502,-932.711
525113.497,4287618.502,-940.083
525113.497,4287418.502,-947.414
525313.497,4318618.502,-561.249
525313.497,4318018.502,-563.627
525313.497,4317818.502,-574.327
525313.497,4317618.502,-607.249
525313.497,4317418.502,-575.822
525313.497,4317218.502,-614.902
525313.497,4317018.502,-631.094
525313.497,4316818.502,-582.797
525313.497,4294018.502,-595.082
525313.497,4293818.502,-595.903
525313.497,4293618.502,-599.431
525313.497,4293418.502,-608.705
525313.497,4293218.502,-631.869
525313.497,4293018.502,-653.091
525313.497,4292818.502,-680.113
525313.497,4292618.502,-717.607
525313.497,4292418.502,-748.023
525313.497,4292218.502,-771.320
525313.497,4292018.502,-782.506
525313.497,4291818.502,-806.201
525313.497,4291618.502,-805.327
525313.497,4291418.502,-801.397
525313.497,4291218.502,-814.271
525313.497,4291018.502,-825.014
525313.497,4290818.502,-825.930
525313.497,4290618.502,-827.465
525313.497,4290418.502,-832.120
525313.497,4290218.502,-840.717
525313.497,4290018.502,-847.270
525313.497,4289818.502,-852.618
525313.497,4289618.502,-857.641
525313.497,4289418.502,-862.460
525313.497,4289218.502,-868.742
525313.497,4289018.502,-874.058
525313.497,4288818.502,-884.062
525313.497,4288618.502,-893.964
525313.497,4288418.502,-905.249
525313.497,4288218.502,-918.788
525313.497,4288018.502,-925.090
525313.497,4287818.502,-930.794
525313.497,4287618.502,-929.694
525313.497,4287418.502,-929.399
525513.497,4319018.502,-561.531
525513.497,4318818.502,-570.954
525513.497,4318618.502,-597.248
525513.497,4318418.502,-597.158
525513.497,4318218.502,-596.603
525513.497,4318018.502,-605.794
525513.497,4317818.502,-621.094
525513.497,4317618.502,-617.021
525513.497,4317418.502,-608.786
525513.497,4317218.502,-617.600
525513.497,4317018.502,-633.331
525513.497,4316818.502,-580.946
525513.497,4294218.502,-589.964
525513.497,4294018.502,-592.601
525513.497,4293818.502,-600.750
525513.497,4293618.502,-609.671
525513.497,4293418.502,-622.331
525513.497,4293218.502,-645.615
525513.497,4293018.502,-665.663
525513.497,4292818.502,-692.328
525513.497,4292618.502,-730.483
525513.497,4292418.502,-758.381
525513.497,4292218.502,-771.743
525513.497,4292018.502,-784.684
525513.497,4291818.502,-810.206
525513.497,4291618.502,-851.187
525513.497,4291418.502,-837.803
525513.497,4291218.502,-828.141
525513.497,4291018.502,-837.897
525513.497,4290818.502,-834.957
525513.497,4290618.502,-835.969
525513.497,4290418.502,-841.841
525513.497,4290218.502,-846.547
525513.497,4290018.502,-849.545
525513.497,4289818.502,-853.562
525513.497,4289618.502,-858.359
525513.497,4289418.502,-862.374
525513.497,4289218.502,-868.180
525513.497,4289018.502,-874.293
525513.497,4288818.502,-884.880
525513.497,4288618.502,-892.438
525513.497,4288418.502,-897.983
525513.497,4288218.502,-912.040
525513.497,4288018.502,-917.966
525513.497,4287818.502,-911.570
525513.497,4287618.502,-908.466
525513.497,4287418.502,-908.458
525713.497,4319018.502,-563.876
525713.497,4318818.502,-595.857
525713.497,4318618.502,-654.031
525713.497,4318418.502,-653.388
525713.497,4318218.502,-650.880
525713.497,4318018.502,-648.867
525713.497,4317818.502,-643.319
525713.497,4317618.502,-626.907
525713.497,4317418.502,-618.107
525713.497,4317218.502,-630.342
525713.497,4317018.502,-635.886
525713.497,4294418.502,-579.268
525713.497,4294218.502,-590.245
525713.497,4294018.502,-596.714
525713.497,4293818.502,-614.027
525713.497,4293618.502,-635.286
525713.497,4293418.502,-649.737
525713.497,4293218.502,-666.088
525713.497,4293018.502,-685.247
525713.497,4292818.502,-710.332
525713.497,4292618.502,-744.669
525713.497,4292418.502,-760.763
525713.497,4292218.502,-774.635
525713.497,4292018.502,-803.113
525713.497,4291818.502,-824.751
525713.497,4291618.502,-858.973
525713.497,4291418.502,-867.155
525713.497,4291218.502,-865.305
525713.497,4291018.502,-851.797
525713.497,4290818.502,-842.290
525713.497,4290618.502,-845.399
525713.497,4290418.502,-848.943
525713.497,4290218.502,-853.050
525713.497,4290018.502,-852.455
525713.497,4289818.502,-856.233
525713.497,4289618.502,-858.834
525713.497,4289418.502,-863.553
525713.497,4289218.502,-871.412
525713.497,4289018.502,-878.860
525713.497,4288818.502,-884.521
525713.497,4288618.502,-887.938
525713.497,4288418.502,-896.258
525713.497,4288218.502,-904.334
525713.497,4288018.502,-899.550
525713.497,4287818.502,-898.347
525713.497,4287618.502,-899.471
525713.497,4287418.502,-903.554
525913.497,4319218.502,-563.612
525913.497,4319018.502,-576.202
525913.497,4318818.502,-643.195
525913.497,4318618.502,-657.286
525913.497,4318418.502,-633.999
525913.497,4318218.502,-619.309
525913.497,4318018.502,-632.233
525913.497,4317818.502,-638.140
525913.497,4317618.502,-645.146
525913.497,4317418.502,-640.294
525913.497,4317218.502,-639.599
525913.497,4317018.502,-608.079
525913.497,4294618.502,-578.967
525913.497,4294418.502,-587.107
525913.497,4294218.502,-602.129
525913.497,4294018.502,-616.679
525913.497,4293818.502,-639.167
525913.497,4293618.502,-669.317
525913.497,4293418.502,-684.371
525913.497,4293218.502,-689.242
525913.497,4293018.502,-694.574
525913.497,4292818.502,-711.712
525913.497,4292618.502,-735.280
525913.497,4292418.502,-748.444
525913.497,4292218.502,-773.267
525913.497,4292018.502,-810.176
525913.497,4291818.502,-845.962
525913.497,4291618.502,-867.640
525913.497,4291418.502,-864.195
525913.497,4291218.502,-865.617
525913.497,4291018.502,-863.126
525913.497,4290818.502,-851.081
525913.497,4290618.502,-854.999
525913.497,4290418.502,-855.137
525913.497,4290218.502,-856.414
525913.497,4290018.502,-857.046
525913.497,4289818.502,-860.407
525913.497,4289618.502,-857.262
525913.497,4289418.502,-864.979
525913.497,4289218.502,-871.394
525913.497,4289018.502,-874.629
525913.497,4288818.502,-883.679
525913.497,4288618.502,-883.505
525913.497,4288418.502,-895.909
525913.497,4288218.502,-898.740
525913.497,4288018.502,-899.506
525913.497,4287818.502,-898.321
525913.497,4287618.502,-900.178
525913.497,4287418.502,-907.183
526113.497,4319818.502,-560.481
526113.497,4319618.502,-563.193
526113.497,4319418.502,-566.911
526113.497,4319218.502,-565.224
526113.497,4319018.502,-590.010
526113.497,4318818.502,-648.030
526113.497,4318618.502,-644.340
526113.497,4318418.502,-626.800
526113.497,4318218.502,-636.334
526113.497,4318018.502,-639.310
526113.497,4317818.502,-619.909
526113.497,4317618.502,-633.807
526113.497,4317418.502,-637.676
526113.497,4317218.502,-596.819
526113.497,4294818.502,-582.448
526113.497,4294618.502,-579.073
526113.497,4294418.502,-594.260
526113.497,4294218.502,-629.047
526113.497,4294018.502,-656.179
526113.497,4293818.502,-669.726
526113.497,4293618.502,-708.099
526113.497,4293418.502,-717.026
526113.497,4293218.502,-712.209
526113.497,4293018.502,-705.374
526113.497,4292818.502,-715.040
526113.497,4292618.502,-739.045
526113.497,4292418.502,-753.964
526113.497,4292218.502,-790.349
526113.497,4292018.502,-828.144
526113.497,4291818.502,-845.895
526113.497,4291618.502,-861.651
526113.497,4291418.502,-860.365
526113.497,4291218.502,-859.052
526113.497,4291018.502,-861.938
526113.497,4290818.502,-860.704
526113.497,4290618.502,-857.346
526113.497,4290418.502,-858.826
526113.497,4290218.502,-857.050
526113.497,4290018.502,-858.519
526113.497,4289818.502,-860.873
526113.497,4289618.502,-858.199
526113.497,4289418.502,-863.427
526113.497,4289218.502,-870.859
526113.497,4289018.502,-881.183
526113.497,4288818.502,-891.259
526113.497,4288618.502,-900.820
526113.497,4288418.502,-905.237
526113.497,4288218.502,-910.427
526113.497,4288018.502,-912.204
526113.497,4287818.502,-914.142
526113.497,4287618.502,-922.796
526113.497,4287418.502,-926.180
526313.497,4319818.502,-567.238
526313.497,4319618.502,-573.458
526313.497,4319418.502,-578.462
526313.497,4319218.502,-580.053
526313.497,4319018.502,-583.360
526313.497,4318818.502,-658.585
526313.497,4318618.502,-665.414
526313.497,4318418.502,-638.214
526313.497,4318218.502,-644.584
526313.497,4318018.502,-645.064
526313.497,4317818.502,-605.631
526313.497,4317618.502,-598.683
526313.497,4317418.502,-594.935
526313.497,4317218.502,-571.947
526313.497,4295218.502,-564.044
526313.497,4295018.502,-597.946
526313.497,4294818.502,-606.489
526313.497,4294618.502,-614.138
526313.497,4294418.502,-635.988
526313.497,4294218.502,-677.190
526313.497,4294018.502,-717.103
526313.497,4293818.502,-737.496
526313.497,4293618.502,-757.925
526313.497,4293418.502,-763.614
526313.497,4293218.502,-750.813
526313.497,4293018.502,-730.893
526313.497,4292818.502,-745.458
526313.497,4292618.502,-761.565
526313.497,4292418.502,-780.099
526313.497,4292218.502,-813.703
526313.497,4292018.502,-843.646
526313.497,4291818.502,-847.122
526313.497,4291618.502,-849.851
526313.497,4291418.502,-865.351
526313.497,4291218.502,-857.816
526313.497,4291018.502,-866.802
526313.497,4290818.502,-862.734
526313.497,4290618.502,-866.491
526313.497,4290418.502,-863.526
526313.497,4290218.502,-863.287
526313.497,4290018.502,-866.012
526313.497,4289818.502,-865.491
526313.497,4289618.502,-868.443
526313.497,4289418.502,-871.841
526313.497,4289218.502,-879.526
526313.497,4289018.502,-886.216
526313.497,4288818.502,-895.647
526313.497,4288618.502,-905.148
526313.497,4288418.502,-911.376
526313.497,4288218.502,-919.087
526313.497,4288018.502,-920.302
526313.497,4287818.502,-924.672
526313.497,4287618.502,-934.450
526313.497,4287418.502,-942.488
526513.497,4320218.502,-563.534
526513.497,4320018.502,-566.654
526513.497,4319818.502,-571.083
526513.497,4319618.502,-580.685
526513.497,4319418.502,-580.825
526513.497,4319218.502,-588.004
526513.497,4319018.502,-606.939
526513.497,4318818.502,-637.567
526513.497,4318618.502,-668.927
526513.497,4318418.502,-663.752
526513.497,4318218.502,-660.476
526513.497,4318018.502,-647.220
