453297.551,4277033.582,-346.676
453297.551,4276933.580,-347.781
453297.551,4276833.578,-349.006
453297.551,4276733.576,-350.445
453297.551,4276633.574,-352.211
453297.551,4276533.572,-354.255
453297.551,4276433.570,-356.165
453297.551,4276333.568,-357.870
453297.551,4276233.566,-359.858
453297.551,4276133.564,-361.999
453297.551,4276033.562,-364.361
453297.551,4275933.560,-366.729
453297.551,4275833.558,-368.833
453297.551,4275733.556,-370.905
453297.551,4275633.555,-373.131
453297.551,4275533.553,-375.572
453297.551,4275433.551,-378.148
453297.551,4275333.549,-380.473
453297.551,4275233.547,-382.859
453297.551,4275133.545,-385.371
453297.551,4275033.543,-388.224
453297.551,4274933.541,-391.337
453297.551,4274833.539,-394.611
453297.551,4274733.537,-397.744
453297.551,4274633.535,-400.916
453297.551,4274533.533,-404.000
453297.551,4274433.531,-406.985
453297.551,4274333.529,-409.979
453297.551,4274233.527,-412.963
453297.551,4274133.525,-416.214
453297.551,4274033.523,-419.605
453297.551,4273933.521,-423.411
453297.551,4273833.519,-427.622
453297.551,4273733.517,-431.539
453297.551,4273633.515,-435.061
453297.551,4273533.513,-438.797
453297.551,4273433.511,-443.148
453297.551,4273333.509,-447.782
453297.551,4273233.507,-452.435
453297.551,4273133.505,-456.662
453297.551,4273033.503,-460.740
453297.551,4272933.501,-465.587
453297.551,4272833.499,-470.904
453297.551,4272733.497,-475.811
453297.551,4272633.495,-480.284
453297.551,4272533.493,-484.560
453297.551,4272433.491,-488.811
453297.551,4272333.489,-493.542
453297.551,4272233.487,-498.259
453297.551,4272133.485,-502.835
453297.551,4272033.483,-507.453
453297.551,4271933.481,-512.210
453297.551,4271833.479,-516.733
453297.551,4271733.477,-521.611
453297.551,4271633.476,-526.609
453297.551,4271533.474,-531.391
453297.551,4271433.472,-535.935
453297.551,4271333.470,-540.697
453297.551,4271233.468,-544.974
453297.551,4271133.466,-548.675
453297.551,4271033.464,-552.075
453297.551,4270933.462,-555.892
453297.551,4270833.460,-560.110
453297.551,4270733.458,-564.020
453297.551,4270633.456,-568.093
453297.551,4270533.454,-572.327
453297.551,4270433.452,-576.332
453297.551,4270333.450,-580.183
453297.551,4270233.448,-583.981
453297.551,4270133.446,-587.536
453297.551,4270033.444,-590.747
453297.551,4269933.442,-593.456
453297.551,4269833.440,-596.358
453297.551,4269733.438,-600.244
453297.551,4269633.436,-604.901
453297.551,4269533.434,-609.624
453297.551,4269433.432,-613.463
453297.551,4269333.430,-616.712
453297.551,4269233.428,-620.094
453297.551,4269133.426,-623.495
453297.551,4269033.424,-626.621
453297.551,4268933.422,-629.445
453297.551,4268833.420,-632.065
453297.551,4268733.418,-634.571
453297.551,4268633.416,-637.046
453297.551,4268533.414,-639.439
453297.551,4268433.412,-641.462
453397.555,4294033.918,-130.378
453397.555,4293933.916,-130.217
453397.555,4293833.914,-130.151
453397.555,4293733.912,-130.316
453397.555,4293633.910,-130.463
453397.555,4293533.908,-130.957
453397.555,4293433.906,-131.902
453397.555,4293333.904,-132.746
453397.555,4293233.902,-133.273
453397.555,4293133.900,-133.828
453397.555,4293033.898,-134.395
453397.555,4292933.896,-135.048
453397.555,4292833.894,-135.705
453397.555,4292733.892,-136.500
453397.555,4292633.890,-137.149
453397.555,4292533.888,-137.742
453397.555,4292433.886,-138.292
453397.555,4292333.884,-138.786
453397.555,4292233.882,-139.240
453397.555,4292133.880,-139.666
453397.555,4292033.878,-139.917
453397.555,4291933.876,-140.313
453397.555,4291833.874,-140.700
453397.555,4291733.872,-141.161
453397.555,4291633.871,-141.526
453397.555,4291533.869,-141.520
453397.555,4291433.867,-141.363
453397.555,4291333.865,-141.205
453397.555,4291233.863,-141.033
453397.555,4291133.861,-140.221
453397.555,4291033.859,-139.399
453397.555,4290933.857,-138.984
453397.555,4290833.855,-138.503
453397.555,4290733.853,-138.394
453397.555,4290633.851,-138.838
453397.555,4290533.849,-140.071
453397.555,4290433.847,-141.379
453397.555,4290333.845,-142.047
453397.555,4290233.843,-142.436
453397.555,4290133.841,-142.778
453397.555,4290033.839,-143.516
453397.555,4289933.837,-144.556
453397.555,4289833.835,-144.710
453397.555,4289733.833,-142.733
453397.555,4289633.831,-140.874
453397.555,4289533.829,-139.471
453397.555,4289433.827,-138.757
453397.555,4289333.825,-139.255
453397.555,4289233.823,-140.412
453397.555,4289133.821,-141.407
453397.555,4289033.819,-141.945
453397.555,4288933.817,-142.373
453397.555,4288833.815,-142.467
453397.555,4288733.813,-142.445
453397.555,4288633.811,-142.367
453397.555,4288533.809,-142.335
453397.555,4288433.807,-142.644
453397.555,4288333.805,-143.505
453397.555,4288233.803,-144.142
453397.555,4288133.801,-144.099
453397.555,4288033.799,-143.022
453397.555,4287933.797,-141.907
453397.555,4287833.795,-141.338
453397.555,4287733.793,-140.630
453397.555,4287633.792,-140.041
453397.555,4287533.790,-140.062
453397.555,4287433.788,-140.203
453397.555,4287333.786,-139.993
453397.555,4287233.784,-139.094
453397.555,4287133.782,-137.782
453397.555,4287033.780,-137.168
453397.555,4286933.778,-137.251
453397.555,4286833.776,-137.916
453397.555,4286733.774,-139.072
453397.555,4286633.772,-139.873
453397.555,4286533.770,-140.667
453397.555,4286433.768,-141.092
453397.555,4286333.766,-140.845
453397.555,4286233.764,-140.077
453397.555,4286133.762,-140.284
453397.555,4286033.760,-141.643
453397.555,4285933.758,-142.698
453397.555,4285833.756,-143.017
453397.555,4285733.754,-143.166
453397.555,4285633.752,-142.706
453397.555,4285533.750,-142.053
453397.555,4285433.748,-142.657
453397.555,4285333.746,-143.069
453397.555,4285233.744,-142.544
453397.555,4285133.742,-142.289
453397.555,4285033.740,-142.725
453397.555,4284933.738,-143.374
453397.555,4284833.736,-143.798
453397.555,4284733.734,-144.257
453397.555,4284633.732,-144.758
453397.555,4284533.730,-145.274
453397.555,4284433.728,-145.761
453397.555,4284333.726,-146.188
453397.555,4284233.724,-146.691
453397.555,4284133.722,-147.438
453397.555,4284033.720,-148.128
453397.555,4283933.718,-149.048
453397.555,4283833.716,-150.283
453397.555,4283733.714,-151.530
453397.555,4283633.713,-152.704
453397.555,4283533.711,-153.862
453397.555,4283433.709,-154.973
453397.555,4283333.707,-155.823
453397.555,4283233.705,-156.367
453397.555,4283133.703,-156.733
453397.555,4283033.701,-157.187
453397.555,4282933.699,-157.766
453397.555,4282833.697,-158.127
453397.555,4282733.695,-158.319
453397.555,4282633.693,-158.582
453397.555,4282533.691,-158.879
453397.555,4282433.689,-159.116
453397.555,4282333.687,-159.369
453397.555,4282233.685,-159.658
453397.555,4282133.683,-159.883
453397.555,4282033.681,-160.649
453397.555,4281933.679,-162.049
453397.555,4281833.677,-163.400
453397.555,4281733.675,-164.564
453397.555,4281633.673,-165.808
453397.555,4281533.671,-166.837
453397.555,4281433.669,-167.512
453397.555,4281333.667,-168.244
453397.555,4281233.665,-168.911
453397.555,4281133.663,-169.550
453397.555,4281033.661,-170.382
453397.555,4280933.659,-171.460
453397.555,4280833.657,-172.918
453397.555,4280733.655,-175.071
453397.555,4280633.653,-178.642
453397.555,4280533.651,-184.568
453397.555,4280433.649,-193.805
453397.555,4280333.647,-206.001
453397.555,4280233.645,-219.721
453397.555,4280133.643,-234.734
453397.555,4280033.641,-250.580
453397.555,4279933.639,-266.177
453397.555,4279833.637,-281.767
453397.555,4279733.635,-297.931
453397.555,4279633.634,-316.459
453397.555,4279533.632,-335.913
453397.555,4279433.630,-348.132
453397.555,4279333.628,-352.326
453397.555,4279233.626,-354.170
453397.555,4279133.624,-355.081
453397.555,4279033.622,-355.591
453397.555,4278933.620,-356.042
453397.555,4278833.618,-356.984
453397.555,4278733.616,-358.092
453397.555,4278633.614,-359.227
453397.555,4278533.612,-360.217
453397.555,4278433.610,-359.927
453397.555,4278333.608,-358.335
453397.555,4278233.606,-356.278
453397.555,4278133.604,-353.726
453397.555,4278033.602,-351.072
453397.555,4277933.600,-348.407
453397.555,4277833.598,-346.348
453397.555,4277733.596,-345.214
453397.555,4277633.594,-344.449
453397.555,4277533.592,-343.636
453397.555,4277433.590,-343.199
453397.555,4277333.588,-343.351
453397.555,4277233.586,-343.961
453397.555,4277133.584,-344.783
453397.555,4277033.582,-345.645
453397.555,4276933.580,-346.309
453397.555,4276833.578,-347.027
453397.555,4276733.576,-348.037
453397.555,4276633.574,-349.359
453397.555,4276533.572,-351.050
453397.555,4276433.570,-352.885
453397.555,4276333.568,-354.603
453397.555,4276233.566,-356.340
453397.555,4276133.564,-358.394
453397.555,4276033.562,-360.663
453397.555,4275933.560,-363.027
453397.555,4275833.558,-365.341
453397.555,4275733.556,-367.427
453397.555,4275633.555,-369.591
453397.555,4275533.553,-371.899
453397.555,4275433.551,-374.495
453397.555,4275333.549,-377.065
453397.555,4275233.547,-379.591
453397.555,4275133.545,-381.898
453397.555,4275033.543,-384.402
453397.555,4274933.541,-387.422
453397.555,4274833.539,-390.568
453397.555,4274733.537,-393.751
453397.555,4274633.535,-396.904
453397.555,4274533.533,-399.856
453397.555,4274433.531,-402.861
453397.555,4274333.529,-405.697
453397.555,4274233.527,-408.518
453397.555,4274133.525,-411.651
453397.555,4274033.523,-414.736
453397.555,4273933.521,-418.148
453397.555,4273833.519,-422.175
453397.555,4273733.517,-426.370
453397.555,4273633.515,-430.239
453397.555,4273533.513,-433.896
453397.555,4273433.511,-438.070
453397.555,4273333.509,-442.611
453397.555,4273233.507,-447.263
453397.555,4273133.505,-451.466
453397.555,4273033.503,-455.330
453397.555,4272933.501,-459.914
453397.555,4272833.499,-465.058
453397.555,4272733.497,-470.102
453397.555,4272633.495,-474.574
453397.555,4272533.493,-478.807
453397.555,4272433.491,-482.846
453397.555,4272333.489,-487.395
453397.555,4272233.487,-492.169
453397.555,4272133.485,-496.787
453397.555,4272033.483,-501.460
453397.555,4271933.481,-506.371
453397.555,4271833.479,-511.077
453397.555,4271733.477,-515.849
453397.555,4271633.476,-520.421
453397.555,4271533.474,-525.026
453397.555,4271433.472,-529.548
453397.555,4271333.470,-534.269
453397.555,4271233.468,-538.799
453397.555,4271133.466,-542.819
453397.555,4271033.464,-546.396
453397.555,4270933.462,-549.912
453397.555,4270833.460,-553.754
453397.555,4270733.458,-557.670
453397.555,4270633.456,-561.643
453397.555,4270533.454,-565.561
453397.555,4270433.452,-569.532
453397.555,4270333.450,-573.407
453397.555,4270233.448,-577.070
453397.555,4270133.446,-580.657
453397.555,4270033.444,-583.975
453397.555,4269933.442,-586.722
453397.555,4269833.440,-589.614
453397.555,4269733.438,-593.340
453397.555,4269633.436,-597.405
453397.555,4269533.434,-601.973
453397.555,4269433.432,-606.421
453397.555,4269333.430,-610.093
453397.555,4269233.428,-613.583
453397.555,4269133.426,-617.298
453397.555,4269033.424,-620.720
453397.555,4268933.422,-623.757
453397.555,4268833.420,-626.448
453397.555,4268733.418,-628.961
453397.555,4268633.416,-631.494
453397.555,4268533.414,-634.059
453397.555,4268433.412,-636.550
453397.555,4268333.410,-638.942
453397.555,4268233.408,-641.165
453497.560,4294033.918,-130.387
453497.560,4293933.916,-130.286
453497.560,4293833.914,-130.262
453497.560,4293733.912,-130.347
453497.560,4293633.910,-130.452
453497.560,4293533.908,-130.855
453497.560,4293433.906,-131.639
453497.560,4293333.904,-132.478
453497.560,4293233.902,-133.194
453497.560,4293133.900,-133.768
453497.560,4293033.898,-134.308
453497.560,4292933.896,-134.876
453497.560,4292833.894,-135.526
453497.560,4292733.892,-136.139
453497.560,4292633.890,-136.732
453497.560,4292533.888,-137.274
453497.560,4292433.886,-137.694
453497.560,4292333.884,-138.142
453497.560,4292233.882,-138.516
453497.560,4292133.880,-139.084
453497.560,4292033.878,-139.503
453497.560,4291933.876,-139.904
453497.560,4291833.874,-140.374
453497.560,4291733.872,-141.069
453497.560,4291633.871,-141.705
453497.560,4291533.869,-141.819
453497.560,4291433.867,-141.721
453497.560,4291333.865,-141.662
453497.560,4291233.863,-141.548
453497.560,4291133.861,-140.812
453497.560,4291033.859,-140.180
453497.560,4290933.857,-139.961
453497.560,4290833.855,-139.487
453497.560,4290733.853,-139.130
453497.560,4290633.851,-139.146
453497.560,4290533.849,-139.871
453497.560,4290433.847,-140.856
453497.560,4290333.845,-141.461
453497.560,4290233.843,-141.961
453497.560,4290133.841,-142.322
453497.560,4290033.839,-142.967
453497.560,4289933.837,-143.868
453497.560,4289833.835,-144.330
453497.560,4289733.833,-142.637
453497.560,4289633.831,-141.770
453497.560,4289533.829,-141.394
453497.560,4289433.827,-140.537
453497.560,4289333.825,-139.962
453497.560,4289233.823,-139.983
453497.560,4289133.821,-140.091
453497.560,4289033.819,-139.586
453497.560,4288933.817,-139.109
453497.560,4288833.815,-138.988
453497.560,4288733.813,-139.230
453497.560,4288633.811,-139.194
453497.560,4288533.809,-139.045
453497.560,4288433.807,-139.215
453497.560,4288333.805,-140.002
453497.560,4288233.803,-140.945
453497.560,4288133.801,-141.391
453497.560,4288033.799,-140.584
453497.560,4287933.797,-139.642
453497.560,4287833.795,-139.313
453497.560,4287733.793,-138.798
453497.560,4287633.792,-138.458
453497.560,4287533.790,-138.673
453497.560,4287433.788,-138.961
453497.560,4287333.786,-139.246
453497.560,4287233.784,-138.968
453497.560,4287133.782,-137.621
453497.560,4287033.780,-136.632
453497.560,4286933.778,-136.505
453497.560,4286833.776,-136.878
453497.560,4286733.774,-137.312
453497.560,4286633.772,-137.539
453497.560,4286533.770,-138.450
453497.560,4286433.768,-139.539
453497.560,4286333.766,-140.089
453497.560,4286233.764,-139.648
453497.560,4286133.762,-139.186
453497.560,4286033.760,-139.434
453497.560,4285933.758,-139.962
453497.560,4285833.756,-140.387
453497.560,4285733.754,-140.563
453497.560,4285633.752,-140.057
453497.560,4285533.750,-139.937
453497.560,4285433.748,-141.052
453497.560,4285333.746,-141.822
453497.560,4285233.744,-141.968
453497.560,4285133.742,-142.126
453497.560,4285033.740,-142.619
453497.560,4284933.738,-143.193
453497.560,4284833.736,-143.479
453497.560,4284733.734,-143.593
453497.560,4284633.732,-143.539
453497.560,4284533.730,-143.667
453497.560,4284433.728,-144.293
453497.560,4284333.726,-145.166
453497.560,4284233.724,-145.885
453497.560,4284133.722,-146.565
453497.560,4284033.720,-147.204
453497.560,4283933.718,-148.000
453497.560,4283833.716,-149.037
453497.560,4283733.714,-150.164
453497.560,4283633.713,-151.349
453497.560,4283533.711,-152.697
453497.560,4283433.709,-154.060
453497.560,4283333.707,-155.054
453497.560,4283233.705,-155.666
453497.560,4283133.703,-156.012
453497.560,4283033.701,-156.354
453497.560,4282933.699,-156.874
453497.560,4282833.697,-157.324
453497.560,4282733.695,-157.630
453497.560,4282633.693,-157.865
453497.560,4282533.691,-158.129
453497.560,4282433.689,-158.448
453497.560,4282333.687,-158.757
453497.560,4282233.685,-159.087
453497.560,4282133.683,-159.319
453497.560,4282033.681,-159.698
453497.560,4281933.679,-160.661
453497.560,4281833.677,-162.066
453497.560,4281733.675,-163.315
453497.560,4281633.673,-164.499
453497.560,4281533.671,-165.663
453497.560,4281433.669,-166.394
453497.560,4281333.667,-166.957
453497.560,4281233.665,-167.448
453497.560,4281133.663,-167.689
453497.560,4281033.661,-168.001
453497.560,4280933.659,-168.745
453497.560,4280833.657,-169.933
453497.560,4280733.655,-171.358
453497.560,4280633.653,-173.241
453497.560,4280533.651,-176.391
453497.560,4280433.649,-181.848
453497.560,4280333.647,-190.409
453497.560,4280233.645,-201.867
453497.560,4280133.643,-216.396
453497.560,4280033.641,-233.441
453497.560,4279933.639,-250.589
453497.560,4279833.637,-266.843
453497.560,4279733.635,-283.192
453497.560,4279633.634,-303.447
453497.560,4279533.632,-327.050
453497.560,4279433.630,-343.554
453497.560,4279333.628,-350.292
453497.560,4279233.626,-353.713
453497.560,4279133.624,-355.699
453497.560,4279033.622,-356.682
453497.560,4278933.620,-357.107
453497.560,4278833.618,-357.731
453497.560,4278733.616,-358.641
453497.560,4278633.614,-359.491
453497.560,4278533.612,-360.196
453497.560,4278433.610,-359.828
453497.560,4278333.608,-358.193
453497.560,4278233.606,-356.316
453497.560,4278133.604,-354.304
453497.560,4278033.602,-352.259
453497.560,4277933.600,-350.167
453497.560,4277833.598,-348.513
453497.560,4277733.596,-347.553
453497.560,4277633.594,-346.894
453497.560,4277533.592,-346.069
453497.560,4277433.590,-345.307
453497.560,4277333.588,-344.871
453497.560,4277233.586,-344.805
453497.560,4277133.584,-345.180
453497.560,4277033.582,-345.642
453497.560,4276933.580,-345.977
453497.560,4276833.578,-346.217
453497.560,4276733.576,-346.632
453497.560,4276633.574,-347.442
453497.560,4276533.572,-348.567
453497.560,4276433.570,-350.125
453497.560,4276333.568,-351.737
453497.560,4276233.566,-353.205
453497.560,4276133.564,-354.961
453497.560,4276033.562,-357.002
453497.560,4275933.560,-359.166
453497.560,4275833.558,-361.530
453497.560,4275733.556,-363.700
453497.560,4275633.555,-365.799
453497.560,4275533.553,-367.990
453497.560,4275433.551,-370.422
453497.560,4275333.549,-373.011
453497.560,4275233.547,-375.688
453497.560,4275133.545,-378.058
453497.560,4275033.543,-380.289
453497.560,4274933.541,-383.055
453497.560,4274833.539,-386.116
453497.560,4274733.537,-389.299
453497.560,4274633.535,-392.455
453497.560,4274533.533,-395.440
453497.560,4274433.531,-398.534
453497.560,4274333.529,-401.388
453497.560,4274233.527,-404.162
453497.560,4274133.525,-407.189
453497.560,4274033.523,-410.093
453497.560,4273933.521,-413.239
453497.560,4273833.519,-416.905
453497.560,4273733.517,-421.148
453497.560,4273633.515,-425.454
453497.560,4273533.513,-429.301
453497.560,4273433.511,-433.225
453497.560,4273333.509,-437.595
453497.560,4273233.507,-442.254
453497.560,4273133.505,-446.590
453497.560,4273033.503,-450.421
453497.560,4272933.501,-454.553
453497.560,4272833.499,-459.252
453497.560,4272733.497,-464.409
453497.560,4272633.495,-468.880
453497.560,4272533.493,-473.015
453497.560,4272433.491,-476.994
453497.560,4272333.489,-481.289
453497.560,4272233.487,-485.940
453497.560,4272133.485,-490.695
453497.560,4272033.483,-495.411
453497.560,4271933.481,-500.340
453497.560,4271833.479,-505.294
453497.560,4271733.477,-510.034
453497.560,4271633.476,-514.286
453497.560,4271533.474,-518.539
453497.560,4271433.472,-523.100
453497.560,4271333.470,-527.692
453497.560,4271233.468,-532.229
453497.560,4271133.466,-536.675
453497.560,4271033.464,-540.689
453497.560,4270933.462,-543.984
453497.560,4270833.460,-547.425
453497.560,4270733.458,-551.323
453497.560,4270633.456,-555.298
453497.560,4270533.454,-559.005
453497.560,4270433.452,-562.917
453497.560,4270333.450,-566.891
453497.560,4270233.448,-570.516
453497.560,4270133.446,-574.096
453497.560,4270033.444,-577.450
453497.560,4269933.442,-580.410
453497.560,4269833.440,-583.419
453497.560,4269733.438,-586.798
453497.560,4269633.436,-590.147
453497.560,4269533.434,-594.350
453497.560,4269433.432,-599.247
453497.560,4269333.430,-603.544
453497.560,4269233.428,-607.172
453497.560,4269133.426,-611.024
453497.560,4269033.424,-614.731
453497.560,4268933.422,-618.020
453497.560,4268833.420,-620.868
453497.560,4268733.418,-623.475
453497.560,4268633.416,-625.977
453497.560,4268533.414,-628.622
453497.560,4268433.412,-631.261
453497.560,4268333.410,-633.778
453497.560,4268233.408,-636.342
453497.560,4268133.406,-639.037
453497.560,4268033.404,-641.506
453497.560,4267933.402,-643.536
453497.560,4260233.250,-645.127
453497.560,4260133.248,-644.195
453497.560,4260033.246,-643.856
453497.560,4259933.244,-644.013
453497.560,4259833.242,-644.467
453497.560,4259733.240,-645.167
453497.560,4259633.238,-645.939
453497.560,4259533.237,-646.537
453597.565,4294033.918,-130.397
453597.565,4293933.916,-130.355
453597.565,4293833.914,-130.373
453597.565,4293733.912,-130.378
453597.565,4293633.910,-130.495
453597.565,4293533.908,-130.876
453597.565,4293433.906,-131.421
453597.565,4293333.904,-132.148
453597.565,4293233.902,-132.941
453597.565,4293133.900,-133.705
453597.565,4293033.898,-134.370
453597.565,4292933.896,-134.940
453597.565,4292833.894,-135.455
453597.565,4292733.892,-135.954
453597.565,4292633.890,-136.465
453597.565,4292533.888,-136.903
453597.565,4292433.886,-137.170
453597.565,4292333.884,-137.520
453597.565,4292233.882,-137.812
453597.565,4292133.880,-138.507
453597.565,4292033.878,-139.171
453597.565,4291933.876,-139.641
453597.565,4291833.874,-140.018
453597.565,4291733.872,-140.726
453597.565,4291633.871,-141.638
453597.565,4291533.869,-142.038
453597.565,4291433.867,-141.979
453597.565,4291333.865,-141.937
453597.565,4291233.863,-141.824
453597.565,4291133.861,-141.107
453597.565,4291033.859,-140.338
453597.565,4290933.857,-140.158
453597.565,4290833.855,-139.859
453597.565,4290733.853,-139.561
453597.565,4290633.851,-139.580
453597.565,4290533.849,-140.073
453597.565,4290433.847,-140.687
453597.565,4290333.845,-141.363
453597.565,4290233.843,-141.787
453597.565,4290133.841,-142.089
453597.565,4290033.839,-142.636
453597.565,4289933.837,-143.383
453597.565,4289833.835,-143.969
453597.565,4289733.833,-142.345
453597.565,4289633.831,-141.980
453597.565,4289533.829,-142.316
453597.565,4289433.827,-141.547
453597.565,4289333.825,-139.935
453597.565,4289233.823,-139.066
453597.565,4289133.821,-138.615
453597.565,4289033.819,-137.474
453597.565,4288933.817,-136.313
453597.565,4288833.815,-135.909
453597.565,4288733.813,-136.158
453597.565,4288633.811,-136.317
453597.565,4288533.809,-136.387
453597.565,4288433.807,-136.552
453597.565,4288333.805,-137.007
453597.565,4288233.803,-137.640
453597.565,4288133.801,-138.142
453597.565,4288033.799,-138.010
453597.565,4287933.797,-137.587
453597.565,4287833.795,-137.432
453597.565,4287733.793,-137.183
453597.565,4287633.792,-137.436
453597.565,4287533.790,-138.208
453597.565,4287433.788,-138.918
453597.565,4287333.786,-139.741
453597.565,4287233.784,-139.839
453597.565,4287133.782,-138.430
453597.565,4287033.780,-136.969
453597.565,4286933.778,-136.555
453597.565,4286833.776,-136.834
453597.565,4286733.774,-136.686
453597.565,4286633.772,-136.201
453597.565,4286533.770,-136.522
453597.565,4286433.768,-137.325
453597.565,4286333.766,-138.079
453597.565,4286233.764,-138.240
453597.565,4286133.762,-138.042
453597.565,4286033.760,-137.665
453597.565,4285933.758,-137.585
453597.565,4285833.756,-137.842
453597.565,4285733.754,-138.006
453597.565,4285633.752,-137.603
453597.565,4285533.750,-137.649
453597.565,4285433.748,-138.768
453597.565,4285333.746,-139.771
453597.565,4285233.744,-140.573
453597.565,4285133.742,-141.176
453597.565,4285033.740,-141.597
453597.565,4284933.738,-142.029
453597.565,4284833.736,-142.270
453597.565,4284733.734,-142.128
453597.565,4284633.732,-141.609
453597.565,4284533.730,-141.553
453597.565,4284433.728,-142.316
453597.565,4284333.726,-143.428
453597.565,4284233.724,-144.376
453597.565,4284133.722,-145.058
453597.565,4284033.720,-145.604
453597.565,4283933.718,-146.297
453597.565,4283833.716,-147.167
453597.565,4283733.714,-148.304
453597.565,4283633.713,-149.749
453597.565,4283533.711,-151.289
453597.565,4283433.709,-152.796
453597.565,4283333.707,-154.003
453597.565,4283233.705,-154.735
453597.565,4283133.703,-155.179
453597.565,4283033.701,-155.558
453597.565,4282933.699,-156.016
453597.565,4282833.697,-156.510
453597.565,4282733.695,-156.943
453597.565,4282633.693,-157.274
453597.565,4282533.691,-157.509
453597.565,4282433.689,-157.894
453597.565,4282333.687,-158.279
453597.565,4282233.685,-158.538
453597.565,4282133.683,-158.860
453597.565,4282033.681,-159.144
453597.565,4281933.679,-159.653
453597.565,4281833.677,-160.807
453597.565,4281733.675,-162.085
453597.565,4281633.673,-163.180
453597.565,4281533.671,-164.293
453597.565,4281433.669,-165.201
453597.565,4281333.667,-165.713
453597.565,4281233.665,-166.030
453597.565,4281133.663,-166.168
453597.565,4281033.661,-166.108
453597.565,4280933.659,-166.400
453597.565,4280833.657,-167.417
453597.565,4280733.655,-168.610
453597.565,4280633.653,-169.770
453597.565,4280533.651,-171.570
453597.565,4280433.649,-174.484
453597.565,4280333.647,-179.441
453597.565,4280233.645,-187.544
453597.565,4280133.643,-200.059
453597.565,4280033.641,-217.051
453597.565,4279933.639,-235.376
453597.565,4279833.637,-252.502
453597.565,4279733.635,-269.312
453597.565,4279633.634,-290.557
453597.565,4279533.632,-316.649
453597.565,4279433.630,-336.764
453597.565,4279333.628,-346.505
453597.565,4279233.626,-351.990
453597.565,4279133.624,-355.467
453597.565,4279033.622,-357.319
453597.565,4278933.620,-357.910
453597.565,4278833.618,-358.185
453597.565,4278733.616,-358.904
453597.565,4278633.614,-359.800
453597.565,4278533.612,-360.495
453597.565,4278433.610,-360.187
453597.565,4278333.608,-358.751
453597.565,4278233.606,-357.148
453597.565,4278133.604,-355.497
453597.565,4278033.602,-353.812
453597.565,4277933.600,-352.065
453597.565,4277833.598,-350.720
453597.565,4277733.596,-349.870
453597.565,4277633.594,-349.268
453597.565,4277533.592,-348.624
453597.565,4277433.590,-347.947
453597.565,4277333.588,-347.235
453597.565,4277233.586,-346.419
453597.565,4277133.584,-346.354
453597.565,4277033.582,-346.413
453597.565,4276933.580,-346.507
453597.565,4276833.578,-346.478
453597.565,4276733.576,-346.379
453597.565,4276633.574,-346.583
453597.565,4276533.572,-347.071
453597.565,4276433.570,-348.083
453597.565,4276333.568,-349.358
453597.565,4276233.566,-350.566
453597.565,4276133.564,-351.824
453597.565,4276033.562,-353.398
453597.565,4275933.560,-355.278
453597.565,4275833.558,-357.369
453597.565,4275733.556,-359.466
453597.565,4275633.555,-361.507
453597.565,4275533.553,-363.550
453597.565,4275433.551,-365.774
453597.565,4275333.549,-368.140
453597.565,4275233.547,-370.792
453597.565,4275133.545,-373.321
453597.565,4275033.543,-375.564
453597.565,4274933.541,-378.069
453597.565,4274833.539,-380.976
453597.565,4274733.537,-384.164
453597.565,4274633.535,-387.379
453597.565,4274533.533,-390.554
453597.565,4274433.531,-393.790
453597.565,4274333.529,-396.782
453597.565,4274233.527,-399.533
453597.565,4274133.525,-402.511
453597.565,4274033.523,-405.445
453597.565,4273933.521,-408.496
453597.565,4273833.519,-411.889
453597.565,4273733.517,-415.911
453597.565,4273633.515,-420.468
453597.565,4273533.513,-424.757
453597.565,4273433.511,-428.628
453597.565,4273333.509,-432.712
453597.565,4273233.507,-437.262
453597.565,4273133.505,-441.716
453597.565,4273033.503,-445.670
453597.565,4272933.501,-449.518
453597.565,4272833.499,-453.655
453597.565,4272733.497,-458.539
453597.565,4272633.495,-463.088
453597.565,4272533.493,-467.165
453597.565,4272433.491,-471.144
453597.565,4272333.489,-475.281
453597.565,4272233.487,-479.636
453597.565,4272133.485,-484.467
453597.565,4272033.483,-489.281
453597.565,4271933.481,-494.153
453597.565,4271833.479,-499.182
453597.565,4271733.477,-503.906
453597.565,4271633.476,-508.140
453597.565,4271533.474,-512.184
453597.565,4271433.472,-516.621
453597.565,4271333.470,-521.057
453597.565,4271233.468,-525.531
453597.565,4271133.466,-530.231
453597.565,4271033.464,-534.649
453597.565,4270933.462,-538.030
453597.565,4270833.460,-541.277
453597.565,4270733.458,-544.956
453597.565,4270633.456,-548.875
453597.565,4270533.454,-552.688
453597.565,4270433.452,-556.631
453597.565,4270333.450,-560.536
453597.565,4270233.448,-564.080
453597.565,4270133.446,-567.651
453597.565,4270033.444,-571.092
453597.565,4269933.442,-574.288
453597.565,4269833.440,-577.312
453597.565,4269733.438,-580.246
453597.565,4269633.436,-583.221
453597.565,4269533.434,-587.120
453597.565,4269433.432,-592.019
453597.565,4269333.430,-596.872
453597.565,4269233.428,-600.822
453597.565,4269133.426,-604.667
453597.565,4269033.424,-608.461
453597.565,4268933.422,-612.111
453597.565,4268833.420,-615.263
453597.565,4268733.418,-618.082
453597.565,4268633.416,-620.655
453597.565,4268533.414,-623.276
453597.565,4268433.412,-625.922
453597.565,4268333.410,-628.474
453597.565,4268233.408,-631.047
453597.565,4268133.406,-633.787
453597.565,4268033.404,-636.557
453597.565,4267933.402,-639.125
453597.565,4267833.400,-641.164
453597.565,4267733.398,-642.845
453597.565,4260233.250,-643.343
453597.565,4260133.248,-642.353
453597.565,4260033.246,-641.916
453597.565,4259933.244,-641.920
453597.565,4259833.242,-642.262
453597.565,4259733.240,-642.855
453597.565,4259633.238,-643.654
453597.565,4259533.237,-644.507
453597.565,4259433.235,-645.154
453597.565,4259333.233,-645.499
453597.565,4259233.231,-645.723
453597.565,4259133.229,-645.985
453597.565,4259033.227,-645.807
453597.565,4258933.225,-645.629
453597.565,4258833.223,-645.451
453597.565,4258733.221,-645.273
453597.565,4258633.219,-645.095
453597.565,4258533.217,-644.917
453597.565,4258433.215,-644.739
453597.565,4258333.213,-644.561
453597.565,4258233.211,-644.383
453597.565,4258133.209,-644.205
453597.565,4258033.207,-644.027
453597.565,4257933.205,-644.230
453597.565,4257833.203,-644.532
453597.565,4257733.201,-644.619
453597.565,4257633.199,-645.010
453597.565,4257533.197,-645.402
453597.565,4257433.195,-645.793
453697.570,4294033.918,-130.407
453697.570,4293933.916,-130.424
453697.570,4293833.914,-130.484
453697.570,4293733.912,-130.410
453697.570,4293633.910,-130.506
453697.570,4293533.908,-130.814
453697.570,4293433.906,-131.201
453697.570,4293333.904,-131.785
453697.570,4293233.902,-132.550
453697.570,4293133.900,-133.369
453697.570,4293033.898,-134.196
453697.570,4292933.896,-134.937
453697.570,4292833.894,-135.411
453697.570,4292733.892,-135.863
453697.570,4292633.890,-136.261
453697.570,4292533.888,-136.640
453697.570,4292433.886,-136.847
453697.570,4292333.884,-137.141
453697.570,4292233.882,-137.411
453697.570,4292133.880,-138.078
453697.570,4292033.878,-138.863
453697.570,4291933.876,-139.484
453697.570,4291833.874,-139.871
453697.570,4291733.872,-140.473
453697.570,4291633.871,-141.489
453697.570,4291533.869,-142.102
453697.570,4291433.867,-142.135
453697.570,4291333.865,-141.996
453697.570,4291233.863,-141.850
453697.570,4291133.861,-141.365
453697.570,4291033.859,-140.594
453697.570,4290933.857,-140.294
453697.570,4290833.855,-139.878
453697.570,4290733.853,-139.502
453697.570,4290633.851,-139.698
453697.570,4290533.849,-140.231
453697.570,4290433.847,-140.768
453697.570,4290333.845,-141.558
453697.570,4290233.843,-141.908
453697.570,4290133.841,-142.169
453697.570,4290033.839,-142.620
453697.570,4289933.837,-143.306
453697.570,4289833.835,-144.002
453697.570,4289733.833,-143.241
453697.570,4289633.831,-143.171
453697.570,4289533.829,-143.525
453697.570,4289433.827,-142.957
453697.570,4289333.825,-140.340
453697.570,4289233.823,-138.259
453697.570,4289133.821,-137.504
453697.570,4289033.819,-136.359
453697.570,4288933.817,-135.021
453697.570,4288833.815,-134.400
453697.570,4288733.813,-134.380
453697.570,4288633.811,-134.492
453697.570,4288533.809,-134.803
453697.570,4288433.807,-135.244
453697.570,4288333.805,-135.408
453697.570,4288233.803,-135.479
453697.570,4288133.801,-135.576
453697.570,4288033.799,-135.745
453697.570,4287933.797,-135.821
453697.570,4287833.795,-135.878
453697.570,4287733.793,-135.837
453697.570,4287633.792,-136.702
453697.570,4287533.790,-138.425
453697.570,4287433.788,-139.946
453697.570,4287333.786,-141.137
453697.570,4287233.784,-141.063
453697.570,4287133.782,-139.616
453697.570,4287033.780,-137.953
453697.570,4286933.778,-137.110
453697.570,4286833.776,-137.104
453697.570,4286733.774,-136.641
453697.570,4286633.772,-135.743
453697.570,4286533.770,-135.507
453697.570,4286433.768,-135.598
453697.570,4286333.766,-135.902
453697.570,4286233.764,-136.291
453697.570,4286133.762,-136.554
453697.570,4286033.760,-136.339
453697.570,4285933.758,-136.127
453697.570,4285833.756,-136.014
453697.570,4285733.754,-135.946
453697.570,4285633.752,-135.828
453697.570,4285533.750,-136.030
453697.570,4285433.748,-136.739
453697.570,4285333.746,-137.666
453697.570,4285233.744,-138.746
453697.570,4285133.742,-139.548
453697.570,4285033.740,-139.916
453697.570,4284933.738,-140.156
453697.570,4284833.736,-140.368
453697.570,4284733.734,-140.244
453697.570,4284633.732,-139.869
453697.570,4284533.730,-140.029
453697.570,4284433.728,-140.904
453697.570,4284333.726,-141.896
453697.570,4284233.724,-142.756
453697.570,4284133.722,-143.381
453697.570,4284033.720,-143.823
453697.570,4283933.718,-144.397
453697.570,4283833.716,-145.124
453697.570,4283733.714,-146.299
453697.570,4283633.713,-147.999
453697.570,4283533.711,-149.771
453697.570,4283433.709,-151.278
453697.570,4283333.707,-152.544
453697.570,4283233.705,-153.453
453697.570,4283133.703,-154.040
453697.570,4283033.701,-154.583
453697.570,4282933.699,-155.102
453697.570,4282833.697,-155.647
453697.570,4282733.695,-156.175
453697.570,4282633.693,-156.673
453697.570,4282533.691,-157.057
453697.570,4282433.689,-157.466
453697.570,4282333.687,-157.832
453697.570,4282233.685,-158.028
453697.570,4282133.683,-158.347
453697.570,4282033.681,-158.710
453697.570,4281933.679,-159.081
453697.570,4281833.677,-159.778
453697.570,4281733.675,-160.817
453697.570,4281633.673,-161.910
453697.570,4281533.671,-162.885
453697.570,4281433.669,-163.840
453697.570,4281333.667,-164.484
453697.570,4281233.665,-164.704
453697.570,4281133.663,-164.788
453697.570,4281033.661,-164.628
453697.570,4280933.659,-164.579
453697.570,4280833.657,-165.355
453697.570,4280733.655,-166.499
453697.570,4280633.653,-167.386
453697.570,4280533.651,-168.504
453697.570,4280433.649,-170.165
453697.570,4280333.647,-172.809
453697.570,4280233.645,-177.683
453697.570,4280133.643,-187.083
453697.570,4280033.641,-202.325
453697.570,4279933.639,-220.616
453697.570,4279833.637,-238.699
453697.570,4279733.635,-257.118
453697.570,4279633.634,-279.701
453697.570,4279533.632,-306.642
453697.570,4279433.630,-328.734
453697.570,4279333.628,-341.365
453697.570,4279233.626,-349.054
453697.570,4279133.624,-354.143
453697.570,4279033.622,-357.222
453697.570,4278933.620,-358.357
453697.570,4278833.618,-358.417
453697.570,4278733.616,-358.932
453697.570,4278633.614,-359.954
453697.570,4278533.612,-360.905
453697.570,4278433.610,-360.945
453697.570,4278333.608,-359.870
453697.570,4278233.606,-358.578
453697.570,4278133.604,-357.152
453697.570,4278033.602,-355.607
453697.570,4277933.600,-353.965
453697.570,4277833.598,-352.721
453697.570,4277733.596,-351.913
453697.570,4277633.594,-351.334
453697.570,4277533.592,-350.791
453697.570,4277433.590,-350.278
453697.570,4277333.588,-349.605
453697.570,4277233.586,-348.420
453697.570,4277133.584,-347.917
453697.570,4277033.582,-347.642
453697.570,4276933.580,-347.578
453697.570,4276833.578,-347.400
453697.570,4276733.576,-347.097
453697.570,4276633.574,-346.800
453697.570,4276533.572,-346.655
453697.570,4276433.570,-346.942
453697.570,4276333.568,-347.709
453697.570,4276233.566,-348.604
453697.570,4276133.564,-349.359
453697.570,4276033.562,-350.287
453697.570,4275933.560,-351.682
453697.570,4275833.558,-353.282
453697.570,4275733.556,-355.090
453697.570,4275633.555,-356.950
453697.570,4275533.553,-358.783
453697.570,4275433.551,-360.738
453697.570,4275333.549,-362.850
453697.570,4275233.547,-365.208
453697.570,4275133.545,-367.709
453697.570,4275033.543,-370.169
453697.570,4274933.541,-372.631
453697.570,4274833.539,-375.368
453697.570,4274733.537,-378.461
453697.570,4274633.535,-381.748
453697.570,4274533.533,-385.077
453697.570,4274433.531,-388.434
453697.570,4274333.529,-391.567
453697.570,4274233.527,-394.486
453697.570,4274133.525,-397.548
453697.570,4274033.523,-400.616
453697.570,4273933.521,-403.755
453697.570,4273833.519,-407.102
453697.570,4273733.517,-410.799
453697.570,4273633.515,-415.201
453697.570,4273533.513,-419.880
453697.570,4273433.511,-424.037
453697.570,4273333.509,-427.934
453697.570,4273233.507,-432.164
453697.570,4273133.505,-436.585
453697.570,4273033.503,-440.655
453697.570,4272933.501,-444.508
453697.570,4272833.499,-448.244
453697.570,4272733.497,-452.491
453697.570,4272633.495,-457.042
453697.570,4272533.493,-461.197
453697.570,4272433.491,-465.214
453697.570,4272333.489,-469.214
453697.570,4272233.487,-473.430
453697.570,4272133.485,-478.084
453697.570,4272033.483,-482.916
453697.570,4271933.481,-487.788
453697.570,4271833.479,-492.759
453697.570,4271733.477,-497.539
453697.570,4271633.476,-501.984
453697.570,4271533.474,-506.017
453697.570,4271433.472,-510.170
453697.570,4271333.470,-514.461
453697.570,4271233.468,-519.001
453697.570,4271133.466,-523.725
453697.570,4271033.464,-528.237
453697.570,4270933.462,-531.937
453697.570,4270833.460,-535.227
453697.570,4270733.458,-538.582
453697.570,4270633.456,-542.308
453697.570,4270533.454,-546.373
453697.570,4270433.452,-550.523
453697.570,4270333.450,-554.307
453697.570,4270233.448,-557.728
453697.570,4270133.446,-561.216
453697.570,4270033.444,-564.665
453697.570,4269933.442,-567.967
453697.570,4269833.440,-570.938
453697.570,4269733.438,-573.690
453697.570,4269633.436,-576.637
453697.570,4269533.434,-580.183
453697.570,4269433.432,-584.702
453697.570,4269333.430,-589.861
453697.570,4269233.428,-594.328
453697.570,4269133.426,-598.083
453697.570,4269033.424,-601.870
453697.570,4268933.422,-605.948
453697.570,4268833.420,-609.548
453697.570,4268733.418,-612.610
453697.570,4268633.416,-615.333
453697.570,4268533.414,-617.903
453697.570,4268433.412,-620.450
453697.570,4268333.410,-623.058
453697.570,4268233.408,-625.653
453697.570,4268133.406,-628.424
453697.570,4268033.404,-631.294
453697.570,4267933.402,-634.116
453697.570,4267833.400,-636.571
453697.570,4267733.398,-638.782
453697.570,4267633.396,-641.143
453697.570,4267533.395,-643.551
453697.570,4260333.252,-643.771
453697.570,4260233.250,-641.875
453697.570,4260133.248,-640.858
453697.570,4260033.246,-640.296
453697.570,4259933.244,-640.109
453697.570,4259833.242,-640.307
453697.570,4259733.240,-640.760
453697.570,4259633.238,-641.480
453697.570,4259533.237,-642.275
453697.570,4259433.235,-642.830
453697.570,4259333.233,-643.049
453697.570,4259233.231,-643.089
453697.570,4259133.229,-643.412
453697.570,4259033.227,-644.123
453697.570,4258933.225,-644.902
453697.570,4258833.223,-645.530
453697.570,4258733.221,-645.778
453697.570,4258633.219,-645.176
453697.570,4258533.217,-644.574
453697.570,4258433.215,-643.971
453697.570,4258333.213,-643.369
453697.570,4258233.211,-641.977
453697.570,4258133.209,-640.936
453697.570,4258033.207,-640.534
453697.570,4257933.205,-640.638
453697.570,4257833.203,-640.863
453697.570,4257733.201,-640.946
453697.570,4257633.199,-641.024
453697.570,4257533.197,-641.496
453697.570,4257433.195,-642.775
453697.570,4257333.193,-644.359
453797.575,4294033.918,-130.417
453797.575,4293933.916,-130.493
453797.575,4293833.914,-130.451
453797.575,4293733.912,-130.394
453797.575,4293633.910,-130.401
453797.575,4293533.908,-130.673
453797.575,4293433.906,-131.027
453797.575,4293333.904,-131.508
453797.575,4293233.902,-132.127
453797.575,4293133.900,-132.777
453797.575,4293033.898,-133.647
453797.575,4292933.896,-134.580
453797.575,4292833.894,-135.194
453797.575,4292733.892,-135.626
453797.575,4292633.890,-136.024
453797.575,4292533.888,-136.410
453797.575,4292433.886,-136.691
453797.575,4292333.884,-137.028
453797.575,4292233.882,-137.385
453797.575,4292133.880,-137.990
453797.575,4292033.878,-138.708
453797.575,4291933.876,-139.394
453797.575,4291833.874,-139.924
453797.575,4291733.872,-140.389
453797.575,4291633.871,-141.392
453797.575,4291533.869,-142.070
453797.575,4291433.867,-142.273
453797.575,4291333.865,-142.148
453797.575,4291233.863,-141.909
453797.575,4291133.861,-141.607
453797.575,4291033.859,-141.129
453797.575,4290933.857,-140.905
453797.575,4290833.855,-140.346
453797.575,4290733.853,-139.696
453797.575,4290633.851,-139.738
453797.575,4290533.849,-140.291
453797.575,4290433.847,-141.001
453797.575,4290333.845,-141.870
453797.575,4290233.843,-142.280
453797.575,4290133.841,-142.411
453797.575,4290033.839,-142.651
453797.575,4289933.837,-143.255
453797.575,4289833.835,-143.984
453797.575,4289733.833,-144.313
453797.575,4289633.831,-144.425
453797.575,4289533.829,-144.438
453797.575,4289433.827,-144.033
453797.575,4289333.825,-141.015
453797.575,4289233.823,-137.765
453797.575,4289133.821,-136.638
453797.575,4289033.819,-135.914
453797.575,4288933.817,-134.851
453797.575,4288833.815,-134.306
453797.575,4288733.813,-134.043
453797.575,4288633.811,-133.982
453797.575,4288533.809,-134.260
453797.575,4288433.807,-134.809
453797.575,4288333.805,-134.884
453797.575,4288233.803,-134.626
453797.575,4288133.801,-134.380
453797.575,4288033.799,-134.117
453797.575,4287933.797,-134.264
453797.575,4287833.795,-134.583
453797.575,4287733.793,-134.669
453797.575,4287633.792,-135.688
453797.575,4287533.790,-138.163
453797.575,4287433.788,-140.538
453797.575,4287333.786,-141.998
453797.575,4287233.784,-141.786
453797.575,4287133.782,-140.551
453797.575,4287033.780,-139.090
453797.575,4286933.778,-137.874
453797.575,4286833.776,-137.293
453797.575,4286733.774,-136.625
453797.575,4286633.772,-135.700
453797.575,4286533.770,-135.353
453797.575,4286433.768,-135.057
453797.575,4286333.766,-134.831
453797.575,4286233.764,-134.911
453797.575,4286133.762,-135.194
453797.575,4286033.760,-135.390
453797.575,4285933.758,-135.442
453797.575,4285833.756,-135.069
453797.575,4285733.754,-134.629
453797.575,4285633.752,-134.559
453797.575,4285533.750,-134.916
453797.575,4285433.748,-135.325
453797.575,4285333.746,-136.070
453797.575,4285233.744,-137.121
453797.575,4285133.742,-137.849
453797.575,4285033.740,-138.201
453797.575,4284933.738,-138.125
453797.575,4284833.736,-137.978
453797.575,4284733.734,-138.135
453797.575,4284633.732,-138.434
453797.575,4284533.730,-139.101
453797.575,4284433.728,-140.086
453797.575,4284333.726,-140.907
453797.575,4284233.724,-141.554
453797.575,4284133.722,-142.031
453797.575,4284033.720,-142.478
453797.575,4283933.718,-142.942
453797.575,4283833.716,-143.550
453797.575,4283733.714,-144.691
453797.575,4283633.713,-146.389
453797.575,4283533.711,-148.249
453797.575,4283433.709,-149.703
453797.575,4283333.707,-150.805
453797.575,4283233.705,-151.714
453797.575,4283133.703,-152.299
453797.575,4283033.701,-152.969
453797.575,4282933.699,-153.783
453797.575,4282833.697,-154.528
453797.575,4282733.695,-155.218
453797.575,4282633.693,-155.947
453797.575,4282533.691,-156.597
453797.575,4282433.689,-157.085
453797.575,4282333.687,-157.426
453797.575,4282233.685,-157.620
453797.575,4282133.683,-157.876
453797.575,4282033.681,-158.235
453797.575,4281933.679,-158.635
453797.575,4281833.677,-159.083
453797.575,4281733.675,-159.749
453797.575,4281633.673,-160.690
453797.575,4281533.671,-161.616
453797.575,4281433.669,-162.472
453797.575,4281333.667,-163.191
453797.575,4281233.665,-163.505
453797.575,4281133.663,-163.519
453797.575,4281033.661,-163.365
453797.575,4280933.659,-163.243
453797.575,4280833.657,-163.802
453797.575,4280733.655,-164.830
453797.575,4280633.653,-165.618
453797.575,4280533.651,-166.341
453797.575,4280433.649,-167.396
453797.575,4280333.647,-169.009
453797.575,4280233.645,-171.657
453797.575,4280133.643,-177.512
453797.575,4280033.641,-189.134
453797.575,4279933.639,-205.578
453797.575,4279833.637,-224.061
453797.575,4279733.635,-244.594
453797.575,4279633.634,-269.188
453797.575,4279533.632,-296.636
453797.575,4279433.630,-319.654
453797.575,4279333.628,-334.597
453797.575,4279233.626,-344.409
453797.575,4279133.624,-351.261
453797.575,4279033.622,-356.065
453797.575,4278933.620,-358.301
453797.575,4278833.618,-358.508
453797.575,4278733.616,-358.861
453797.575,4278633.614,-360.003
453797.575,4278533.612,-361.297
453797.575,4278433.610,-361.764
453797.575,4278333.608,-361.138
453797.575,4278233.606,-360.150
453797.575,4278133.604,-358.891
453797.575,4278033.602,-357.468
453797.575,4277933.600,-355.960
453797.575,4277833.598,-354.731
453797.575,4277733.596,-353.885
453797.575,4277633.594,-353.272
453797.575,4277533.592,-352.709
453797.575,4277433.590,-352.152
453797.575,4277333.588,-351.469
453797.575,4277233.586,-350.411
453797.575,4277133.584,-349.609
453797.575,4277033.582,-349.024
453797.575,4276933.580,-348.813
453797.575,4276833.578,-348.599
453797.575,4276733.576,-348.283
453797.575,4276633.574,-347.744
453797.575,4276533.572,-347.126
453797.575,4276433.570,-346.799
453797.575,4276333.568,-346.932
453797.575,4276233.566,-347.411
453797.575,4276133.564,-347.765
453797.575,4276033.562,-348.098
453797.575,4275933.560,-348.840
453797.575,4275833.558,-349.867
453797.575,4275733.556,-351.204
453797.575,4275633.555,-352.716
453797.575,4275533.553,-354.299
453797.575,4275433.551,-355.933
453797.575,4275333.549,-357.702
453797.575,4275233.547,-359.684
453797.575,4275133.545,-361.965
453797.575,4275033.543,-364.515
453797.575,4274933.541,-367.101
453797.575,4274833.539,-369.820
453797.575,4274733.537,-372.574
453797.575,4274633.535,-375.768
453797.575,4274533.533,-379.150
453797.575,4274433.531,-382.533
453797.575,4274333.529,-385.909
453797.575,4274233.527,-389.113
453797.575,4274133.525,-392.373
453797.575,4274033.523,-395.625
453797.575,4273933.521,-398.828
453797.575,4273833.519,-402.258
453797.575,4273733.517,-405.832
453797.575,4273633.515,-409.843
453797.575,4273533.513,-414.495
453797.575,4273433.511,-419.015
453797.575,4273333.509,-423.002
453797.575,4273233.507,-426.882
453797.575,4273133.505,-431.099
453797.575,4273033.503,-435.172
453797.575,4272933.501,-439.097
453797.575,4272833.499,-442.584
453797.575,4272733.497,-446.322
453797.575,4272633.495,-450.620
453797.575,4272533.493,-454.819
453797.575,4272433.491,-458.934
453797.575,4272333.489,-462.851
453797.575,4272233.487,-467.128
453797.575,4272133.485,-471.526
453797.575,4272033.483,-476.220
453797.575,4271933.481,-481.128
453797.575,4271833.479,-486.099
453797.575,4271733.477,-490.916
453797.575,4271633.476,-495.633
453797.575,4271533.474,-499.883
453797.575,4271433.472,-503.835
453797.575,4271333.470,-507.964
453797.575,4271233.468,-512.573
453797.575,4271133.466,-517.173
453797.575,4271033.464,-521.528
453797.575,4270933.462,-525.476
453797.575,4270833.460,-529.040
453797.575,4270733.458,-532.252
453797.575,4270633.456,-535.693
453797.575,4270533.454,-539.859
453797.575,4270433.452,-544.132
453797.575,4270333.450,-547.908
453797.575,4270233.448,-551.327
453797.575,4270133.446,-554.674
453797.575,4270033.444,-558.018
453797.575,4269933.442,-561.341
453797.575,4269833.440,-564.469
453797.575,4269733.438,-567.429
453797.575,4269633.436,-570.374
453797.575,4269533.434,-573.475
453797.575,4269433.432,-577.465
453797.575,4269333.430,-582.545
