440220.266,4284208.705,-578.803
440220.266,4284008.689,-594.686
440220.266,4283808.673,-613.869
440220.266,4283608.657,-597.573
440220.266,4283408.642,-598.633
440220.266,4283208.626,-560.672
440220.266,4283008.610,-575.378
440220.266,4282808.594,-571.363
440220.266,4282608.579,-556.155
440220.266,4282408.563,-569.591
440220.266,4282208.547,-598.524
440220.266,4282008.531,-637.073
440220.266,4281808.516,-675.599
440220.266,4281608.500,-709.639
440220.266,4281408.484,-746.587
440220.266,4281208.469,-789.139
440220.266,4281008.453,-838.660
440220.266,4280808.437,-888.634
440220.266,4280608.421,-934.275
440220.266,4280408.406,-980.976
440220.266,4280208.390,-1040.341
440220.266,4280008.374,-1120.145
440220.266,4279808.358,-1200.733
440220.266,4279608.343,-1260.247
440220.266,4279408.327,-1293.541
440220.266,4279208.311,-1286.929
440220.266,4279008.295,-1234.961
440220.266,4278808.280,-1182.840
440220.266,4278608.264,-1113.596
440220.266,4278408.248,-1035.758
440220.266,4278208.233,-1003.878
440220.266,4278008.217,-993.448
440220.266,4277808.201,-1005.903
440220.266,4277608.185,-1040.073
440220.266,4277408.170,-1085.124
440220.266,4277208.154,-1140.186
440220.266,4277008.138,-1190.701
440220.266,4276808.122,-1214.843
440220.266,4276608.107,-1215.642
440220.266,4276408.091,-1222.341
440220.266,4276208.075,-1231.696
440220.266,4276008.059,-1230.746
440220.266,4275808.044,-1238.471
440220.266,4275608.028,-1249.040
440220.266,4275408.012,-1242.886
440220.266,4275207.996,-1224.868
440220.266,4275007.981,-1214.001
440220.266,4274807.965,-1220.398
440220.266,4274607.949,-1216.149
440220.266,4274407.934,-1199.503
440220.266,4274207.918,-1184.793
440220.266,4274007.902,-1175.662
440220.266,4273807.886,-1168.442
440220.266,4273607.871,-1157.143
440220.266,4273407.855,-1138.862
440220.266,4273207.839,-1123.241
440220.266,4273007.823,-1108.883
440220.266,4272807.808,-1096.336
440220.266,4272607.792,-1089.933
440220.266,4272407.776,-1091.608
440220.266,4272207.760,-1092.275
440220.266,4272007.745,-1089.471
440220.266,4271807.729,-1083.768
440220.266,4271607.713,-1074.451
440220.266,4271407.698,-1058.505
440220.266,4271207.682,-1042.188
440220.266,4271007.666,-1029.475
440220.266,4270807.650,-1019.124
440220.266,4270607.635,-1013.145
440220.266,4270407.619,-1012.227
440220.266,4270207.603,-1002.576
440220.266,4270007.587,-982.728
440220.266,4269807.572,-963.671
440220.266,4269607.556,-948.154
440220.266,4269407.540,-938.745
440220.266,4269207.524,-933.391
440220.266,4269007.509,-930.064
440220.266,4268807.493,-920.741
440220.266,4268607.477,-897.371
440220.266,4268407.462,-871.988
440220.266,4268207.446,-863.693
440220.266,4268007.430,-869.826
440220.266,4267807.414,-878.082
440220.266,4267607.399,-882.952
440220.266,4267407.383,-892.541
440220.266,4267207.367,-914.742
440220.266,4267007.351,-945.009
440220.266,4266807.336,-976.810
440220.266,4266607.320,-1008.046
440220.266,4266407.304,-1042.356
440220.266,4266207.288,-1080.580
440220.266,4266007.273,-1117.080
440220.266,4265807.257,-1154.699
440220.266,4265607.241,-1199.120
440220.266,4265407.225,-1243.467
440220.266,4265207.210,-1281.915
440220.266,4265007.194,-1313.557
440220.266,4264807.178,-1337.159
440220.266,4264607.163,-1356.433
440220.266,4264407.147,-1381.560
440220.266,4264207.131,-1415.958
440220.266,4264007.115,-1451.342
440220.266,4263807.100,-1481.775
440220.266,4263607.084,-1511.132
440220.266,4263407.068,-1544.114
440220.266,4263207.052,-1579.433
440220.266,4263007.037,-1610.478
440220.266,4262807.021,-1634.396
440220.266,4262607.005,-1659.853
440220.266,4262406.989,-1695.003
440220.266,4262206.974,-1727.107
440220.266,4262006.958,-1733.526
440220.266,4261806.942,-1719.260
440220.266,4261606.927,-1709.442
440220.266,4261406.911,-1709.704
440220.266,4261206.895,-1711.586
440220.266,4261006.879,-1710.645
440220.266,4260806.864,-1705.653
440220.266,4260606.848,-1703.959
440220.266,4260406.832,-1713.073
440220.266,4260206.816,-1727.452
440220.266,4260006.801,-1737.344
440220.266,4259806.785,-1742.920
440220.266,4259606.769,-1749.660
440220.266,4259406.753,-1758.136
440220.266,4259206.738,-1767.053
440220.266,4259006.722,-1777.116
440220.266,4258806.706,-1786.945
440220.266,4258606.691,-1791.550
440220.266,4258406.675,-1788.274
440220.266,4258206.659,-1781.136
440220.266,4258006.643,-1777.747
440220.266,4257806.628,-1783.927
440220.266,4257606.612,-1795.240
440220.266,4257406.596,-1803.865
440220.266,4257206.580,-1817.392
440220.266,4257006.565,-1844.641
440220.266,4256806.549,-1875.586
440220.266,4256606.533,-1895.036
440220.266,4256406.517,-1898.791
440220.266,4256206.502,-1894.729
440220.266,4256006.486,-1890.942
440220.266,4255806.470,-1885.870
440220.266,4255606.454,-1880.102
440220.266,4255406.439,-1887.249
440220.266,4255206.423,-1910.875
440220.266,4255006.407,-1934.560
440220.266,4254806.392,-1951.057
440220.266,4254606.376,-1967.365
440220.266,4254406.360,-1984.691
440220.266,4254206.344,-1996.516
440220.266,4254006.329,-2001.003
440420.305,4285208.783,-579.831
440420.305,4285008.767,-604.709
440420.305,4284808.752,-591.359
440420.305,4284608.736,-579.697
440420.305,4284408.720,-581.588
440420.305,4284208.705,-579.428
440420.305,4284008.689,-595.679
440420.305,4283808.673,-614.428
440420.305,4283608.657,-597.455
440420.305,4283408.642,-600.167
440420.305,4283208.626,-560.333
440420.305,4283008.610,-577.271
440420.305,4282808.594,-574.700
440420.305,4282608.579,-582.802
440420.305,4282408.563,-598.968
440420.305,4282208.547,-621.038
440420.305,4282008.531,-653.877
440420.305,4281808.516,-691.597
440420.305,4281608.500,-729.428
440420.305,4281408.484,-769.240
440420.305,4281208.469,-808.936
440420.305,4281008.453,-849.615
440420.305,4280808.437,-890.458
440420.305,4280608.421,-932.260
440420.305,4280408.406,-977.425
440420.305,4280208.390,-1028.937
440420.305,4280008.374,-1098.947
440420.305,4279808.358,-1178.775
440420.305,4279608.343,-1244.066
440420.305,4279408.327,-1282.131
440420.305,4279208.311,-1277.385
440420.305,4279008.295,-1228.658
440420.305,4278808.280,-1170.519
440420.305,4278608.264,-1094.703
440420.305,4278408.248,-1009.578
440420.305,4278208.233,-969.905
440420.305,4278008.217,-969.260
440420.305,4277808.201,-995.905
440420.305,4277608.185,-1035.645
440420.305,4277408.170,-1079.559
440420.305,4277208.154,-1120.877
440420.305,4277008.138,-1155.117
440420.305,4276808.122,-1175.181
440420.305,4276608.107,-1186.802
440420.305,4276408.091,-1203.968
440420.305,4276208.075,-1222.986
440420.305,4276008.059,-1225.622
440420.305,4275808.044,-1226.297
440420.305,4275608.028,-1232.235
440420.305,4275408.012,-1232.398
440420.305,4275207.996,-1217.842
440420.305,4275007.981,-1203.698
440420.305,4274807.965,-1208.533
440420.305,4274607.949,-1209.140
440420.305,4274407.934,-1196.859
440420.305,4274207.918,-1182.758
440420.305,4274007.902,-1173.064
440420.305,4273807.886,-1162.448
440420.305,4273607.871,-1152.072
440420.305,4273407.855,-1136.848
440420.305,4273207.839,-1123.791
440420.305,4273007.823,-1110.926
440420.305,4272807.808,-1096.205
440420.305,4272607.792,-1083.835
440420.305,4272407.776,-1078.877
440420.305,4272207.760,-1081.047
440420.305,4272007.745,-1079.426
440420.305,4271807.729,-1075.119
440420.305,4271607.713,-1067.889
440420.305,4271407.698,-1054.606
440420.305,4271207.682,-1040.727
440420.305,4271007.666,-1030.974
440420.305,4270807.650,-1024.190
440420.305,4270607.635,-1019.169
440420.305,4270407.619,-1016.249
440420.305,4270207.603,-1005.224
440420.305,4270007.587,-986.207
440420.305,4269807.572,-967.888
440420.305,4269607.556,-952.904
440420.305,4269407.540,-942.597
440420.305,4269207.524,-933.824
440420.305,4269007.509,-928.127
440420.305,4268807.493,-919.082
440420.305,4268607.477,-896.877
440420.305,4268407.462,-873.804
440420.305,4268207.446,-870.098
440420.305,4268007.430,-880.439
440420.305,4267807.414,-888.016
440420.305,4267607.399,-888.500
440420.305,4267407.383,-892.792
440420.305,4267207.367,-909.591
440420.305,4267007.351,-933.616
440420.305,4266807.336,-960.055
440420.305,4266607.320,-989.892
440420.305,4266407.304,-1024.406
440420.305,4266207.288,-1068.917
440420.305,4266007.273,-1118.843
440420.305,4265807.257,-1163.742
440420.305,4265607.241,-1203.284
440420.305,4265407.225,-1239.812
440420.305,4265207.210,-1273.776
440420.305,4265007.194,-1305.599
440420.305,4264807.178,-1333.358
440420.305,4264607.163,-1359.351
440420.305,4264407.147,-1392.984
440420.305,4264207.131,-1433.745
440420.305,4264007.115,-1468.154
440420.305,4263807.100,-1491.299
440420.305,4263607.084,-1511.456
440420.305,4263407.068,-1536.088
440420.305,4263207.052,-1566.938
440420.305,4263007.037,-1601.597
440420.305,4262807.021,-1638.120
440420.305,4262607.005,-1674.919
440420.305,4262406.989,-1706.520
440420.305,4262206.974,-1723.760
440420.305,4262006.958,-1715.646
440420.305,4261806.942,-1689.124
440420.305,4261606.927,-1671.740
440420.305,4261406.911,-1672.829
440420.305,4261206.895,-1679.750
440420.305,4261006.879,-1683.778
440420.305,4260806.864,-1683.695
440420.305,4260606.848,-1685.958
440420.305,4260406.832,-1696.862
440420.305,4260206.816,-1710.376
440420.305,4260006.801,-1717.826
440420.305,4259806.785,-1723.248
440420.305,4259606.769,-1734.291
440420.305,4259406.753,-1746.797
440420.305,4259206.738,-1755.703
440420.305,4259006.722,-1764.220
440420.305,4258806.706,-1772.707
440420.305,4258606.691,-1775.981
440420.305,4258406.675,-1772.746
440420.305,4258206.659,-1765.614
440420.305,4258006.643,-1758.845
440420.305,4257806.628,-1759.927
440420.305,4257606.612,-1768.507
440420.305,4257406.596,-1777.858
440420.305,4257206.580,-1794.051
440420.305,4257006.565,-1823.425
440420.305,4256806.549,-1854.875
440420.305,4256606.533,-1875.282
440420.305,4256406.517,-1881.914
440420.305,4256206.502,-1880.490
440420.305,4256006.486,-1876.089
440420.305,4255806.470,-1868.488
440420.305,4255606.454,-1861.867
440420.305,4255406.439,-1870.557
440420.305,4255206.423,-1896.807
440420.305,4255006.407,-1923.793
440420.305,4254806.392,-1945.055
440420.305,4254606.376,-1964.669
440420.305,4254406.360,-1981.082
440420.305,4254206.344,-1992.636
440420.305,4254006.329,-1998.626
440620.344,4285208.783,-580.670
440620.344,4285008.767,-606.663
440620.344,4284808.752,-593.204
440620.344,4284608.736,-580.612
440620.344,4284408.720,-582.464
440620.344,4284208.705,-580.052
440620.344,4284008.689,-596.672
440620.344,4283808.673,-614.987
440620.344,4283608.657,-597.336
440620.344,4283408.642,-601.700
440620.344,4283208.626,-559.993
440620.344,4283008.610,-579.164
440620.344,4282808.594,-612.812
440620.344,4282608.579,-633.341
440620.344,4282408.563,-667.399
440620.344,4282208.547,-683.029
440620.344,4282008.531,-703.685
440620.344,4281808.516,-730.769
440620.344,4281608.500,-765.650
440620.344,4281408.484,-806.622
440620.344,4281208.469,-844.419
440620.344,4281008.453,-877.235
440620.344,4280808.437,-909.641
440620.344,4280608.421,-944.640
440620.344,4280408.406,-987.200
440620.344,4280208.390,-1039.198
440620.344,4280008.374,-1098.174
440620.344,4279808.358,-1167.949
440620.344,4279608.343,-1236.885
440620.344,4279408.327,-1271.547
440620.344,4279208.311,-1261.920
440620.344,4279008.295,-1219.646
440620.344,4278808.280,-1159.146
440620.344,4278608.264,-1082.523
440620.344,4278408.248,-996.252
440620.344,4278208.233,-945.906
440620.344,4278008.217,-952.448
440620.344,4277808.201,-988.524
440620.344,4277608.185,-1026.968
440620.344,4277408.170,-1065.092
440620.344,4277208.154,-1092.186
440620.344,4277008.138,-1116.420
440620.344,4276808.122,-1141.688
440620.344,4276608.107,-1165.918
440620.344,4276408.091,-1189.920
440620.344,4276208.075,-1212.953
440620.344,4276008.059,-1221.275
440620.344,4275808.044,-1215.856
440620.344,4275608.028,-1208.621
440620.344,4275408.012,-1207.925
440620.344,4275207.996,-1201.015
440620.344,4275007.981,-1191.909
440620.344,4274807.965,-1196.181
440620.344,4274607.949,-1201.752
440620.344,4274407.934,-1195.016
440620.344,4274207.918,-1182.529
440620.344,4274007.902,-1170.534
440620.344,4273807.886,-1157.018
440620.344,4273607.871,-1145.722
440620.344,4273407.855,-1136.191
440620.344,4273207.839,-1127.444
440620.344,4273007.823,-1113.925
440620.344,4272807.808,-1097.528
440620.344,4272607.792,-1082.061
440620.344,4272407.776,-1070.537
440620.344,4272207.760,-1068.113
440620.344,4272007.745,-1066.723
440620.344,4271807.729,-1065.192
440620.344,4271607.713,-1061.156
440620.344,4271407.698,-1051.960
440620.344,4271207.682,-1041.903
440620.344,4271007.666,-1034.557
440620.344,4270807.650,-1027.660
440620.344,4270607.635,-1020.285
440620.344,4270407.619,-1015.739
440620.344,4270207.603,-1007.981
440620.344,4270007.587,-993.379
440620.344,4269807.572,-975.609
440620.344,4269607.556,-960.199
440620.344,4269407.540,-946.858
440620.344,4269207.524,-934.425
440620.344,4269007.509,-925.975
440620.344,4268807.493,-916.482
440620.344,4268607.477,-896.856
440620.344,4268407.462,-877.829
440620.344,4268207.446,-878.043
440620.344,4268007.430,-891.732
440620.344,4267807.414,-899.025
440620.344,4267607.399,-897.646
440620.344,4267407.383,-899.746
440620.344,4267207.367,-912.377
440620.344,4267007.351,-931.051
440620.344,4266807.336,-952.844
440620.344,4266607.320,-978.396
440620.344,4266407.304,-1013.944
440620.344,4266207.288,-1064.874
440620.344,4266007.273,-1118.831
440620.344,4265807.257,-1160.483
440620.344,4265607.241,-1191.193
440620.344,4265407.225,-1219.310
440620.344,4265207.210,-1251.355
440620.344,4265007.194,-1291.241
440620.344,4264807.178,-1330.472
440620.344,4264607.163,-1361.554
440620.344,4264407.147,-1391.582
440620.344,4264207.131,-1426.216
440620.344,4264007.115,-1458.881
440620.344,4263807.100,-1486.753
440620.344,4263607.084,-1513.984
440620.344,4263407.068,-1543.370
440620.344,4263207.052,-1579.371
440620.344,4263007.037,-1620.201
440620.344,4262807.021,-1656.188
440620.344,4262607.005,-1684.380
440620.344,4262406.989,-1705.646
440620.344,4262206.974,-1713.383
440620.344,4262006.958,-1694.876
440620.344,4261806.942,-1656.471
440620.344,4261606.927,-1630.479
440620.344,4261406.911,-1631.101
440620.344,4261206.895,-1642.545
440620.344,4261006.879,-1651.373
440620.344,4260806.864,-1658.159
440620.344,4260606.848,-1668.589
440620.344,4260406.832,-1683.482
440620.344,4260206.816,-1694.435
440620.344,4260006.801,-1697.623
440620.344,4259806.785,-1701.730
440620.344,4259606.769,-1713.478
440620.344,4259406.753,-1728.591
440620.344,4259206.738,-1741.405
440620.344,4259006.722,-1750.923
440620.344,4258806.706,-1757.196
440620.344,4258606.691,-1759.489
440620.344,4258406.675,-1757.434
440620.344,4258206.659,-1750.547
440620.344,4258006.643,-1741.140
440620.344,4257806.628,-1737.674
440620.344,4257606.612,-1744.810
440620.344,4257406.596,-1759.499
440620.344,4257206.580,-1781.204
440620.344,4257006.565,-1808.042
440620.344,4256806.549,-1831.159
440620.344,4256606.533,-1846.634
440620.344,4256406.517,-1856.447
440620.344,4256206.502,-1860.268
440620.344,4256006.486,-1857.683
440620.344,4255806.470,-1851.996
440620.344,4255606.454,-1851.446
440620.344,4255406.439,-1866.719
440620.344,4255206.423,-1894.400
440620.344,4255006.407,-1920.487
440620.344,4254806.392,-1942.807
440620.344,4254606.376,-1962.709
440620.344,4254406.360,-1977.047
440620.344,4254206.344,-1987.354
440620.344,4254006.329,-1992.970
440820.382,4285208.783,-581.509
440820.382,4285008.767,-608.616
440820.382,4284808.752,-595.050
440820.382,4284608.736,-581.528
440820.382,4284408.720,-583.339
440820.382,4284208.705,-580.677
440820.382,4284008.689,-597.666
440820.382,4283808.673,-615.545
440820.382,4283608.657,-597.218
440820.382,4283408.642,-603.233
440820.382,4283208.626,-559.654
440820.382,4283008.610,-581.057
440820.382,4282808.594,-632.921
440820.382,4282608.579,-690.046
440820.382,4282408.563,-734.225
440820.382,4282208.547,-759.435
440820.382,4282008.531,-777.064
440820.382,4281808.516,-795.398
440820.382,4281608.500,-823.328
440820.382,4281408.484,-857.347
440820.382,4281208.469,-888.661
440820.382,4281008.453,-916.852
440820.382,4280808.437,-946.465
440820.382,4280608.421,-980.211
440820.382,4280408.406,-1021.426
440820.382,4280208.390,-1070.469
440820.382,4280008.374,-1121.587
440820.382,4279808.358,-1181.718
440820.382,4279608.343,-1241.434
440820.382,4279408.327,-1264.094
440820.382,4279208.311,-1245.906
440820.382,4279008.295,-1205.444
440820.382,4278808.280,-1145.284
440820.382,4278608.264,-1066.773
440820.382,4278408.248,-978.475
440820.382,4278208.233,-928.817
440820.382,4278008.217,-944.411
440820.382,4277808.201,-980.289
440820.382,4277608.185,-1013.308
440820.382,4277408.170,-1047.293
440820.382,4277208.154,-1074.385
440820.382,4277008.138,-1100.516
440820.382,4276808.122,-1126.532
440820.382,4276608.107,-1151.083
440820.382,4276408.091,-1178.350
440820.382,4276208.075,-1205.675
440820.382,4276008.059,-1218.007
440820.382,4275808.044,-1210.473
440820.382,4275608.028,-1192.734
440820.382,4275408.012,-1179.449
440820.382,4275207.996,-1179.446
440820.382,4275007.981,-1179.226
440820.382,4274807.965,-1183.548
440820.382,4274607.949,-1189.420
440820.382,4274407.934,-1186.124
440820.382,4274207.918,-1178.709
440820.382,4274007.902,-1168.064
440820.382,4273807.886,-1155.709
440820.382,4273607.871,-1144.462
440820.382,4273407.855,-1136.861
440820.382,4273207.839,-1130.528
440820.382,4273007.823,-1117.513
440820.382,4272807.808,-1099.719
440820.382,4272607.792,-1082.903
440820.382,4272407.776,-1068.075
440820.382,4272207.760,-1057.951
440820.382,4272007.745,-1053.256
440820.382,4271807.729,-1053.549
440820.382,4271607.713,-1052.963
440820.382,4271407.698,-1047.312
440820.382,4271207.682,-1039.685
440820.382,4271007.666,-1032.502
440820.382,4270807.650,-1024.176
440820.382,4270607.635,-1016.630
440820.382,4270407.619,-1011.077
440820.382,4270207.603,-1005.816
440820.382,4270007.587,-996.880
440820.382,4269807.572,-979.558
440820.382,4269607.556,-961.982
440820.382,4269407.540,-947.074
440820.382,4269207.524,-934.365
440820.382,4269007.509,-924.848
440820.382,4268807.493,-916.354
440820.382,4268607.477,-900.944
440820.382,4268407.462,-884.618
440820.382,4268207.446,-886.536
440820.382,4268007.430,-902.368
440820.382,4267807.414,-909.824
440820.382,4267607.399,-907.804
440820.382,4267407.383,-909.691
440820.382,4267207.367,-922.211
440820.382,4267007.351,-941.927
440820.382,4266807.336,-964.534
440820.382,4266607.320,-986.540
440820.382,4266407.304,-1016.213
440820.382,4266207.288,-1058.188
440820.382,4266007.273,-1101.829
440820.382,4265807.257,-1138.759
440820.382,4265607.241,-1174.445
440820.382,4265407.225,-1213.390
440820.382,4265207.210,-1253.197
440820.382,4265007.194,-1291.043
440820.382,4264807.178,-1324.997
440820.382,4264607.163,-1356.018
440820.382,4264407.147,-1386.307
440820.382,4264207.131,-1420.339
440820.382,4264007.115,-1460.266
440820.382,4263807.100,-1503.722
440820.382,4263607.084,-1544.913
440820.382,4263407.068,-1579.212
440820.382,4263207.052,-1608.105
440820.382,4263007.037,-1631.170
440820.382,4262807.021,-1646.205
440820.382,4262607.005,-1661.166
440820.382,4262406.989,-1680.994
440820.382,4262206.974,-1691.687
440820.382,4262006.958,-1674.056
440820.382,4261806.942,-1632.066
440820.382,4261606.927,-1597.760
440820.382,4261406.911,-1591.448
440820.382,4261206.895,-1601.618
440820.382,4261006.879,-1612.738
440820.382,4260806.864,-1624.650
440820.382,4260606.848,-1642.089
440820.382,4260406.832,-1661.353
440820.382,4260206.816,-1672.903
440820.382,4260006.801,-1677.369
440820.382,4259806.785,-1682.817
440820.382,4259606.769,-1692.796
440820.382,4259406.753,-1708.611
440820.382,4259206.738,-1725.731
440820.382,4259006.722,-1735.722
440820.382,4258806.706,-1739.054
440820.382,4258606.691,-1741.281
440820.382,4258406.675,-1742.359
440820.382,4258206.659,-1738.288
440820.382,4258006.643,-1728.353
440820.382,4257806.628,-1721.406
440820.382,4257606.612,-1727.396
440820.382,4257406.596,-1746.072
440820.382,4257206.580,-1770.009
440820.382,4257006.565,-1790.682
440820.382,4256806.549,-1803.762
440820.382,4256606.533,-1812.960
440820.382,4256406.517,-1822.427
440820.382,4256206.502,-1829.591
440820.382,4256006.486,-1831.912
440820.382,4255806.470,-1833.774
440820.382,4255606.454,-1844.666
440820.382,4255406.439,-1869.767
440820.382,4255206.423,-1900.129
440820.382,4255006.407,-1925.891
440820.382,4254806.392,-1946.515
440820.382,4254606.376,-1961.434
440820.382,4254406.360,-1971.981
440820.382,4254206.344,-1981.820
440820.382,4254006.329,-1986.651
441020.421,4285208.783,-582.347
441020.421,4285008.767,-610.570
441020.421,4284808.752,-596.896
441020.421,4284608.736,-582.443
441020.421,4284408.720,-584.215
441020.421,4284208.705,-581.302
441020.421,4284008.689,-598.659
441020.421,4283808.673,-616.104
441020.421,4283608.657,-597.099
441020.421,4283408.642,-604.766
441020.421,4283208.626,-559.314
441020.421,4283008.610,-582.951
441020.421,4282808.594,-652.666
441020.421,4282608.579,-723.342
441020.421,4282408.563,-774.066
441020.421,4282208.547,-811.464
441020.421,4282008.531,-835.834
441020.421,4281808.516,-856.883
441020.421,4281608.500,-881.992
441020.421,4281408.484,-907.268
441020.421,4281208.469,-932.203
441020.421,4281008.453,-960.262
441020.421,4280808.437,-996.597
441020.421,4280608.421,-1041.665
441020.421,4280408.406,-1088.369
441020.421,4280208.390,-1131.601
441020.421,4280008.374,-1169.745
441020.421,4279808.358,-1213.111
441020.421,4279608.343,-1250.153
441020.421,4279408.327,-1253.243
441020.421,4279208.311,-1229.368
441020.421,4279008.295,-1188.585
441020.421,4278808.280,-1130.758
441020.421,4278608.264,-1053.760
441020.421,4278408.248,-967.142
441020.421,4278208.233,-919.526
441020.421,4278008.217,-936.996
441020.421,4277808.201,-976.294
441020.421,4277608.185,-1010.615
441020.421,4277408.170,-1041.122
441020.421,4277208.154,-1069.835
441020.421,4277008.138,-1093.859
441020.421,4276808.122,-1115.907
441020.421,4276608.107,-1138.419
441020.421,4276408.091,-1165.919
441020.421,4276208.075,-1196.189
441020.421,4276008.059,-1210.190
441020.421,4275808.044,-1201.167
441020.421,4275608.028,-1178.090
441020.421,4275408.012,-1158.919
441020.421,4275207.996,-1160.355
441020.421,4275007.981,-1164.425
441020.421,4274807.965,-1171.080
441020.421,4274607.949,-1172.106
441020.421,4274407.934,-1166.041
441020.421,4274207.918,-1162.752
441020.421,4274007.902,-1158.412
441020.421,4273807.886,-1152.410
441020.421,4273607.871,-1144.306
441020.421,4273407.855,-1134.828
441020.421,4273207.839,-1127.672
441020.421,4273007.823,-1117.499
441020.421,4272807.808,-1099.596
441020.421,4272607.792,-1082.535
441020.421,4272407.776,-1067.126
441020.421,4272207.760,-1053.520
441020.421,4272007.745,-1045.438
441020.421,4271807.729,-1043.738
441020.421,4271607.713,-1040.328
441020.421,4271407.698,-1031.677
441020.421,4271207.682,-1028.702
441020.421,4271007.666,-1025.801
441020.421,4270807.650,-1017.321
441020.421,4270607.635,-1011.694
441020.421,4270407.619,-1005.903
441020.421,4270207.603,-1000.735
441020.421,4270007.587,-993.179
441020.421,4269807.572,-977.710
441020.421,4269607.556,-960.295
441020.421,4269407.540,-946.117
441020.421,4269207.524,-933.929
441020.421,4269007.509,-924.221
441020.421,4268807.493,-916.899
441020.421,4268607.477,-905.882
441020.421,4268407.462,-893.640
441020.421,4268207.446,-897.501
441020.421,4268007.430,-912.806
441020.421,4267807.414,-917.698
441020.421,4267607.399,-915.669
441020.421,4267407.383,-920.411
441020.421,4267207.367,-936.953
441020.421,4267007.351,-957.759
441020.421,4266807.336,-979.587
441020.421,4266607.320,-1001.911
441020.421,4266407.304,-1025.749
441020.421,4266207.288,-1054.601
441020.421,4266007.273,-1088.473
441020.421,4265807.257,-1126.459
441020.421,4265607.241,-1169.400
441020.421,4265407.225,-1211.137
441020.421,4265207.210,-1245.292
441020.421,4265007.194,-1275.794
441020.421,4264807.178,-1309.349
441020.421,4264607.163,-1346.833
441020.421,4264407.147,-1384.360
441020.421,4264207.131,-1424.464
441020.421,4264007.115,-1471.877
441020.421,4263807.100,-1523.364
441020.421,4263607.084,-1569.196
441020.421,4263407.068,-1597.914
441020.421,4263207.052,-1606.542
441020.421,4263007.037,-1604.863
441020.421,4262807.021,-1605.450
441020.421,4262607.005,-1618.330
441020.421,4262406.989,-1642.546
441020.421,4262206.974,-1660.645
441020.421,4262006.958,-1652.631
441020.421,4261806.942,-1616.268
441020.421,4261606.927,-1574.229
441020.421,4261406.911,-1552.595
441020.421,4261206.895,-1556.676
441020.421,4261006.879,-1572.908
441020.421,4260806.864,-1591.082
441020.421,4260606.848,-1612.035
441020.421,4260406.832,-1632.387
441020.421,4260206.816,-1645.984
441020.421,4260006.801,-1655.565
441020.421,4259806.785,-1664.600
441020.421,4259606.769,-1675.005
441020.421,4259406.753,-1692.551
441020.421,4259206.738,-1712.420
441020.421,4259006.722,-1722.775
441020.421,4258806.706,-1724.513
441020.421,4258606.691,-1725.251
441020.421,4258406.675,-1726.707
441020.421,4258206.659,-1724.784
441020.421,4258006.643,-1716.169
441020.421,4257806.628,-1708.201
441020.421,4257606.612,-1711.563
441020.421,4257406.596,-1726.593
441020.421,4257206.580,-1746.223
441020.421,4257006.565,-1763.031
441020.421,4256806.549,-1773.509
441020.421,4256606.533,-1780.737
441020.421,4256406.517,-1789.176
441020.421,4256206.502,-1798.177
441020.421,4256006.486,-1806.575
441020.421,4255806.470,-1818.639
441020.421,4255606.454,-1840.001
441020.421,4255406.439,-1867.472
441020.421,4255206.423,-1893.992
441020.421,4255006.407,-1920.330
441020.421,4254806.392,-1944.682
441020.421,4254606.376,-1958.658
441020.421,4254406.360,-1967.008
441020.421,4254206.344,-1977.904
441020.421,4254006.329,-1983.812
441220.460,4285208.783,-583.186
441220.460,4285008.767,-612.524
441220.460,4284808.752,-598.742
441220.460,4284608.736,-583.359
441220.460,4284408.720,-585.091
441220.460,4284208.705,-581.927
441220.460,4284008.689,-599.652
441220.460,4283808.673,-616.663
441220.460,4283608.657,-596.980
441220.460,4283408.642,-606.300
441220.460,4283208.626,-558.975
441220.460,4283008.610,-580.308
441220.460,4282808.594,-641.233
441220.460,4282608.579,-712.357
441220.460,4282408.563,-769.763
441220.460,4282208.547,-815.953
441220.460,4282008.531,-850.635
441220.460,4281808.516,-878.702
441220.460,4281608.500,-904.561
441220.460,4281408.484,-926.922
441220.460,4281208.469,-950.036
441220.460,4281008.453,-979.218
441220.460,4280808.437,-1021.228
441220.460,4280608.421,-1072.431
441220.460,4280408.406,-1125.018
441220.460,4280208.390,-1171.583
441220.460,4280008.374,-1204.552
441220.460,4279808.358,-1233.782
441220.460,4279608.343,-1248.938
441220.460,4279408.327,-1239.326
441220.460,4279208.311,-1213.693
441220.460,4279008.295,-1168.627
441220.460,4278808.280,-1110.172
441220.460,4278608.264,-1035.534
441220.460,4278408.248,-961.399
441220.460,4278208.233,-921.905
441220.460,4278008.217,-933.845
441220.460,4277808.201,-976.559
441220.460,4277608.185,-1014.758
441220.460,4277408.170,-1042.236
441220.460,4277208.154,-1065.913
441220.460,4277008.138,-1085.677
441220.460,4276808.122,-1106.429
441220.460,4276608.107,-1127.334
441220.460,4276408.091,-1150.472
441220.460,4276208.075,-1176.270
441220.460,4276008.059,-1187.075
441220.460,4275808.044,-1175.772
441220.460,4275608.028,-1153.834
441220.460,4275408.012,-1141.809
441220.460,4275207.996,-1144.774
441220.460,4275007.981,-1148.739
441220.460,4274807.965,-1157.171
441220.460,4274607.949,-1157.393
441220.460,4274407.934,-1148.375
441220.460,4274207.918,-1142.946
441220.460,4274007.902,-1143.198
441220.460,4273807.886,-1144.868
441220.460,4273607.871,-1142.120
441220.460,4273407.855,-1129.899
441220.460,4273207.839,-1120.508
441220.460,4273007.823,-1111.427
441220.460,4272807.808,-1097.324
441220.460,4272607.792,-1081.640
441220.460,4272407.776,-1066.581
441220.460,4272207.760,-1052.094
441220.460,4272007.745,-1041.160
441220.460,4271807.729,-1035.018
441220.460,4271607.713,-1028.847
441220.460,4271407.698,-1014.753
441220.460,4271207.682,-1010.025
441220.460,4271007.666,-1011.664
441220.460,4270807.650,-1007.386
441220.460,4270607.635,-1004.199
441220.460,4270407.619,-1000.007
441220.460,4270207.603,-993.354
441220.460,4270007.587,-983.152
441220.460,4269807.572,-971.133
441220.460,4269607.556,-956.239
441220.460,4269407.540,-942.836
441220.460,4269207.524,-932.200
441220.460,4269007.509,-923.139
441220.460,4268807.493,-915.102
441220.460,4268607.477,-906.500
441220.460,4268407.462,-900.889
441220.460,4268207.446,-908.743
441220.460,4268007.430,-920.369
441220.460,4267807.414,-921.237
441220.460,4267607.399,-920.867
441220.460,4267407.383,-932.038
441220.460,4267207.367,-954.416
441220.460,4267007.351,-975.593
441220.460,4266807.336,-995.386
441220.460,4266607.320,-1019.196
441220.460,4266407.304,-1045.203
441220.460,4266207.288,-1071.737
441220.460,4266007.273,-1099.727
441220.460,4265807.257,-1128.995
441220.460,4265607.241,-1158.216
441220.460,4265407.225,-1185.496
441220.460,4265207.210,-1212.671
441220.460,4265007.194,-1249.422
441220.460,4264807.178,-1296.396
441220.460,4264607.163,-1341.884
441220.460,4264407.147,-1382.288
441220.460,4264207.131,-1423.538
441220.460,4264007.115,-1469.404
441220.460,4263807.100,-1518.729
441220.460,4263607.084,-1561.332
441220.460,4263407.068,-1579.045
441220.460,4263207.052,-1572.515
441220.460,4263007.037,-1563.068
441220.460,4262807.021,-1565.539
441220.460,4262607.005,-1584.920
441220.460,4262406.989,-1614.255
441220.460,4262206.974,-1636.675
441220.460,4262006.958,-1637.868
441220.460,4261806.942,-1612.260
441220.460,4261606.927,-1569.413
441220.460,4261406.911,-1532.557
441220.460,4261206.895,-1524.366
441220.460,4261006.879,-1542.454
441220.460,4260806.864,-1568.545
441220.460,4260606.848,-1592.603
441220.460,4260406.832,-1610.506
441220.460,4260206.816,-1622.343
441220.460,4260006.801,-1632.487
441220.460,4259806.785,-1642.684
441220.460,4259606.769,-1655.713
441220.460,4259406.753,-1675.327
441220.460,4259206.738,-1695.297
441220.460,4259006.722,-1707.009
441220.460,4258806.706,-1710.417
441220.460,4258606.691,-1709.293
441220.460,4258406.675,-1707.656
441220.460,4258206.659,-1705.183
441220.460,4258006.643,-1699.041
441220.460,4257806.628,-1694.530
441220.460,4257606.612,-1698.033
441220.460,4257406.596,-1707.574
441220.460,4257206.580,-1720.413
441220.460,4257006.565,-1734.967
441220.460,4256806.549,-1745.895
441220.460,4256606.533,-1751.683
441220.460,4256406.517,-1758.255
441220.460,4256206.502,-1768.412
441220.460,4256006.486,-1782.376
441220.460,4255806.470,-1804.390
441220.460,4255606.454,-1834.827
441220.460,4255406.439,-1862.682
441220.460,4255206.423,-1883.367
441220.460,4255006.407,-1905.243
441220.460,4254806.392,-1929.232
441220.460,4254606.376,-1946.804
441220.460,4254406.360,-1959.627
441220.460,4254206.344,-1972.280
441220.460,4254006.329,-1978.222
441420.498,4285208.783,-584.024
441420.498,4285008.767,-614.477
441420.498,4284808.752,-600.587
441420.498,4284608.736,-584.274
441420.498,4284408.720,-585.966
441420.498,4284208.705,-582.551
441420.498,4284008.689,-600.645
441420.498,4283808.673,-617.221
441420.498,4283608.657,-596.862
441420.498,4283408.642,-607.833
441420.498,4283208.626,-560.200
441420.498,4283008.610,-573.601
441420.498,4282808.594,-612.288
441420.498,4282608.579,-672.694
441420.498,4282408.563,-737.051
441420.498,4282208.547,-792.653
441420.498,4282008.531,-831.679
441420.498,4281808.516,-861.191
441420.498,4281608.500,-890.028
441420.498,4281408.484,-915.415
441420.498,4281208.469,-940.279
441420.498,4281008.453,-970.669
441420.498,4280808.437,-1011.765
441420.498,4280608.421,-1061.189
441420.498,4280408.406,-1114.936
441420.498,4280208.390,-1168.131
441420.498,4280008.374,-1211.184
441420.498,4279808.358,-1235.534
441420.498,4279608.343,-1235.305
441420.498,4279408.327,-1220.194
441420.498,4279208.311,-1189.899
441420.498,4279008.295,-1143.172
441420.498,4278808.280,-1082.873
441420.498,4278608.264,-1011.263
441420.498,4278408.248,-953.106
441420.498,4278208.233,-931.895
441420.498,4278008.217,-946.390
441420.498,4277808.201,-983.211
441420.498,4277608.185,-1016.266
441420.498,4277408.170,-1040.674
441420.498,4277208.154,-1061.687
441420.498,4277008.138,-1079.970
441420.498,4276808.122,-1098.036
441420.498,4276608.107,-1115.576
441420.498,4276408.091,-1131.940
441420.498,4276208.075,-1146.761
441420.498,4276008.059,-1149.014
441420.498,4275808.044,-1136.156
441420.498,4275608.028,-1123.114
441420.498,4275408.012,-1125.917
441420.498,4275207.996,-1133.426
441420.498,4275007.981,-1138.551
441420.498,4274807.965,-1143.880
441420.498,4274607.949,-1145.341
441420.498,4274407.934,-1139.728
441420.498,4274207.918,-1133.127
441420.498,4274007.902,-1132.859
441420.498,4273807.886,-1135.879
441420.498,4273607.871,-1135.652
441420.498,4273407.855,-1126.296
441420.498,4273207.839,-1117.774
441420.498,4273007.823,-1108.526
441420.498,4272807.808,-1096.574
441420.498,4272607.792,-1082.137
441420.498,4272407.776,-1065.473
441420.498,4272207.760,-1048.258
441420.498,4272007.745,-1032.425
441420.498,4271807.729,-1020.969
441420.498,4271607.713,-1014.220
441420.498,4271407.698,-998.295
441420.498,4271207.682,-985.833
441420.498,4271007.666,-987.927
441420.498,4270807.650,-991.285
441420.498,4270607.635,-990.719
441420.498,4270407.619,-987.147
441420.498,4270207.603,-978.589
441420.498,4270007.587,-968.204
441420.498,4269807.572,-959.026
441420.498,4269607.556,-947.782
441420.498,4269407.540,-936.809
441420.498,4269207.524,-929.309
441420.498,4269007.509,-921.576
441420.498,4268807.493,-912.645
441420.498,4268607.477,-906.080
441420.498,4268407.462,-907.417
441420.498,4268207.446,-917.266
441420.498,4268007.430,-922.820
441420.498,4267807.414,-921.949
441420.498,4267607.399,-925.958
441420.498,4267407.383,-943.793
441420.498,4267207.367,-968.029
441420.498,4267007.351,-985.972
441420.498,4266807.336,-1001.192
441420.498,4266607.320,-1023.326
441420.498,4266407.304,-1050.909
441420.498,4266207.288,-1076.076
441420.498,4266007.273,-1094.583
441420.498,4265807.257,-1108.066
441420.498,4265607.241,-1124.520
441420.498,4265407.225,-1152.530
441420.498,4265207.210,-1195.154
441420.498,4265007.194,-1250.029
441420.498,4264807.178,-1304.560
441420.498,4264607.163,-1349.348
441420.498,4264407.147,-1390.192
441420.498,4264207.131,-1432.526
441420.498,4264007.115,-1476.295
441420.498,4263807.100,-1517.866
441420.498,4263607.084,-1543.193
441420.498,4263407.068,-1540.814
441420.498,4263207.052,-1526.908
441420.498,4263007.037,-1524.707
441420.498,4262807.021,-1538.342
441420.498,4262607.005,-1565.673
441420.498,4262406.989,-1597.500
441420.498,4262206.974,-1618.895
441420.498,4262006.958,-1622.140
441420.498,4261806.942,-1605.813
441420.498,4261606.927,-1573.825
441420.498,4261406.911,-1536.751
441420.498,4261206.895,-1515.571
441420.498,4261006.879,-1523.711
441420.498,4260806.864,-1549.809
441420.498,4260606.848,-1573.328
441420.498,4260406.832,-1587.051
441420.498,4260206.816,-1595.773
441420.498,4260006.801,-1605.362
441420.498,4259806.785,-1619.665
441420.498,4259606.769,-1639.484
441420.498,4259406.753,-1660.306
441420.498,4259206.738,-1676.277
441420.498,4259006.722,-1687.943
441420.498,4258806.706,-1694.888
441420.498,4258606.691,-1693.826
441420.498,4258406.675,-1688.876
441420.498,4258206.659,-1683.638
441420.498,4258006.643,-1678.522
441420.498,4257806.628,-1677.766
441420.498,4257606.612,-1682.262
441420.498,4257406.596,-1688.418
441420.498,4257206.580,-1696.411
441420.498,4257006.565,-1707.606
441420.498,4256806.549,-1717.087
441420.498,4256606.533,-1720.834
441420.498,4256406.517,-1725.996
441420.498,4256206.502,-1739.976
441420.498,4256006.486,-1761.940
441420.498,4255806.470,-1791.509
441420.498,4255606.454,-1825.610
441420.498,4255406.439,-1853.959
441420.498,4255206.423,-1873.793
441420.498,4255006.407,-1890.383
441420.498,4254806.392,-1907.124
441420.498,4254606.376,-1926.665
441420.498,4254406.360,-1947.964
441420.498,4254206.344,-1963.150
441420.498,4254006.329,-1968.026
441620.537,4285208.783,-584.863
441620.537,4285008.767,-616.431
441620.537,4284808.752,-602.433
441620.537,4284608.736,-585.190
441620.537,4284408.720,-586.842
441620.537,4284208.705,-583.176
441620.537,4284008.689,-601.639
441620.537,4283808.673,-617.780
441620.537,4283608.657,-596.743
441620.537,4283408.642,-609.366
441620.537,4283208.626,-583.851
441620.537,4283008.610,-574.335
441620.537,4282808.594,-599.889
441620.537,4282608.579,-652.456
441620.537,4282408.563,-711.448
441620.537,4282208.547,-759.375
441620.537,4282008.531,-797.093
441620.537,4281808.516,-832.342
441620.537,4281608.500,-867.785
441620.537,4281408.484,-902.904
441620.537,4281208.469,-939.316
441620.537,4281008.453,-980.456
441620.537,4280808.437,-1030.648
441620.537,4280608.421,-1085.531
441620.537,4280408.406,-1138.498
441620.537,4280208.390,-1188.005
441620.537,4280008.374,-1222.282
441620.537,4279808.358,-1227.998
441620.537,4279608.343,-1212.931
441620.537,4279408.327,-1188.540
441620.537,4279208.311,-1155.358
441620.537,4279008.295,-1111.245
441620.537,4278808.280,-1049.860
441620.537,4278608.264,-982.891
441620.537,4278408.248,-941.212
441620.537,4278208.233,-940.913
441620.537,4278008.217,-962.588
441620.537,4277808.201,-991.807
441620.537,4277608.185,-1017.066
441620.537,4277408.170,-1040.191
441620.537,4277208.154,-1060.401
441620.537,4277008.138,-1076.841
441620.537,4276808.122,-1090.315
441620.537,4276608.107,-1104.073
441620.537,4276408.091,-1114.726
441620.537,4276208.075,-1119.855
441620.537,4276008.059,-1115.591
441620.537,4275808.044,-1104.071
441620.537,4275608.028,-1100.092
441620.537,4275408.012,-1116.376
441620.537,4275207.996,-1127.024
441620.537,4275007.981,-1132.054
441620.537,4274807.965,-1132.192
441620.537,4274607.949,-1131.318
441620.537,4274407.934,-1129.865
441620.537,4274207.918,-1126.473
441620.537,4274007.902,-1125.505
441620.537,4273807.886,-1126.676
441620.537,4273607.871,-1127.545
441620.537,4273407.855,-1125.350
441620.537,4273207.839,-1119.917
441620.537,4273007.823,-1109.534
441620.537,4272807.808,-1095.249
441620.537,4272607.792,-1080.651
441620.537,4272407.776,-1063.182
441620.537,4272207.760,-1042.656
441620.537,4272007.745,-1023.867
441620.537,4271807.729,-1008.947
441620.537,4271607.713,-998.151
441620.537,4271407.698,-982.431
441620.537,4271207.682,-965.920
441620.537,4271007.666,-960.668
441620.537,4270807.650,-962.871
441620.537,4270607.635,-962.419
441620.537,4270407.619,-962.775
441620.537,4270207.603,-957.357
441620.537,4270007.587,-950.131
441620.537,4269807.572,-943.523
441620.537,4269607.556,-935.815
441620.537,4269407.540,-926.181
441620.537,4269207.524,-919.193
441620.537,4269007.509,-913.966
441620.537,4268807.493,-908.936
441620.537,4268607.477,-909.001
441620.537,4268407.462,-916.867
441620.537,4268207.446,-923.749
441620.537,4268007.430,-923.709
441620.537,4267807.414,-923.856
441620.537,4267607.399,-934.772
441620.537,4267407.383,-957.405
441620.537,4267207.367,-977.807
441620.537,4267007.351,-987.127
441620.537,4266807.336,-993.907
441620.537,4266607.320,-1009.814
441620.537,4266407.304,-1035.519
441620.537,4266207.288,-1059.080
441620.537,4266007.273,-1071.224
441620.537,4265807.257,-1077.135
441620.537,4265607.241,-1094.457
441620.537,4265407.225,-1136.943
441620.537,4265207.210,-1200.394
441620.537,4265007.194,-1266.081
441620.537,4264807.178,-1321.326
441620.537,4264607.163,-1365.794
441620.537,4264407.147,-1405.535
441620.537,4264207.131,-1445.049
441620.537,4264007.115,-1484.102
441620.537,4263807.100,-1513.380
441620.537,4263607.084,-1518.091
441620.537,4263407.068,-1503.477
441620.537,4263207.052,-1493.898
441620.537,4263007.037,-1500.569
441620.537,4262807.021,-1520.815
441620.537,4262607.005,-1550.625
441620.537,4262406.989,-1579.910
441620.537,4262206.974,-1597.295
441620.537,4262006.958,-1599.062
441620.537,4261806.942,-1588.174
441620.537,4261606.927,-1568.547
441620.537,4261406.911,-1541.761
441620.537,4261206.895,-1517.343
441620.537,4261006.879,-1512.544
441620.537,4260806.864,-1528.265
441620.537,4260606.848,-1547.654
441620.537,4260406.832,-1560.464
441620.537,4260206.816,-1568.770
441620.537,4260006.801,-1580.663
441620.537,4259806.785,-1602.814
441620.537,4259606.769,-1628.943
441620.537,4259406.753,-1647.339
441620.537,4259206.738,-1658.824
441620.537,4259006.722,-1670.972
441620.537,4258806.706,-1678.761
441620.537,4258606.691,-1676.001
441620.537,4258406.675,-1669.073
441620.537,4258206.659,-1662.143
441620.537,4258006.643,-1657.673
441620.537,4257806.628,-1659.312
441620.537,4257606.612,-1664.780
441620.537,4257406.596,-1670.612
441620.537,4257206.580,-1677.225
441620.537,4257006.565,-1684.291
441620.537,4256806.549,-1688.882
441620.537,4256606.533,-1692.264
441620.537,4256406.517,-1703.676
441620.537,4256206.502,-1727.476
441620.537,4256006.486,-1757.097
441620.537,4255806.470,-1787.785
441620.537,4255606.454,-1817.191
441620.537,4255406.439,-1842.084
441620.537,4255206.423,-1861.228
441620.537,4255006.407,-1874.566
441620.537,4254806.392,-1889.007
441620.537,4254606.376,-1913.982
441620.537,4254406.360,-1941.656
441620.537,4254206.344,-1955.747
441620.537,4254006.329,-1958.346
441820.576,4285208.783,-585.702
441820.576,4285008.767,-618.385
441820.576,4284808.752,-604.279
441820.576,4284608.736,-586.105
441820.576,4284408.720,-587.718
441820.576,4284208.705,-583.801
441820.576,4284008.689,-602.632
441820.576,4283808.673,-618.338
441820.576,4283608.657,-596.625
441820.576,4283408.642,-610.899
441820.576,4283208.626,-607.503
441820.576,4283008.610,-613.576
441820.576,4282808.594,-633.938
441820.576,4282608.579,-672.323
441820.576,4282408.563,-710.090
441820.576,4282208.547,-744.549
441820.576,4282008.531,-787.541
441820.576,4281808.516,-833.834
441820.576,4281608.500,-880.222
441820.576,4281408.484,-930.631
441820.576,4281208.469,-983.534
441820.576,4281008.453,-1035.572
441820.576,4280808.437,-1088.517
441820.576,4280608.421,-1141.430
441820.576,4280408.406,-1185.898
441820.576,4280208.390,-1213.380
441820.576,4280008.374,-1219.299
441820.576,4279808.358,-1206.402
441820.576,4279608.343,-1181.696
441820.576,4279408.327,-1148.204
441820.576,4279208.311,-1114.210
441820.576,4279008.295,-1071.225
441820.576,4278808.280,-1011.791
441820.576,4278608.264,-955.083
441820.576,4278408.248,-936.244
441820.576,4278208.233,-947.879
441820.576,4278008.217,-969.267
441820.576,4277808.201,-995.654
441820.576,4277608.185,-1019.025
441820.576,4277408.170,-1041.851
441820.576,4277208.154,-1059.391
441820.576,4277008.138,-1072.860
441820.576,4276808.122,-1083.069
441820.576,4276608.107,-1093.511
441820.576,4276408.091,-1100.145
441820.576,4276208.075,-1099.873
441820.576,4276008.059,-1095.813
441820.576,4275808.044,-1086.915
441820.576,4275608.028,-1082.429
441820.576,4275408.012,-1103.113
441820.576,4275207.996,-1120.345
441820.576,4275007.981,-1124.744
441820.576,4274807.965,-1120.990
441820.576,4274607.949,-1118.748
441820.576,4274407.934,-1117.914
441820.576,4274207.918,-1115.637
441820.576,4274007.902,-1114.678
441820.576,4273807.886,-1116.720
441820.576,4273607.871,-1118.505
441820.576,4273407.855,-1118.796
441820.576,4273207.839,-1114.578
441820.576,4273007.823,-1103.313
441820.576,4272807.808,-1090.300
441820.576,4272607.792,-1074.735
441820.576,4272407.776,-1055.833
441820.576,4272207.760,-1034.879
441820.576,4272007.745,-1018.902
441820.576,4271807.729,-1006.438
441820.576,4271607.713,-993.840
441820.576,4271407.698,-979.617
441820.576,4271207.682,-960.063
441820.576,4271007.666,-943.217
441820.576,4270807.650,-935.667
441820.576,4270607.635,-931.150
441820.576,4270407.619,-932.263
441820.576,4270207.603,-930.325
441820.576,4270007.587,-927.268
441820.576,4269807.572,-925.590
441820.576,4269607.556,-919.989
441820.576,4269407.540,-909.566
441820.576,4269207.524,-901.277
441820.576,4269007.509,-899.705
441820.576,4268807.493,-904.010
441820.576,4268607.477,-913.621
441820.576,4268407.462,-923.947
441820.576,4268207.446,-925.295
441820.576,4268007.430,-923.354
441820.576,4267807.414,-929.325
441820.576,4267607.399,-949.506
441820.576,4267407.383,-974.574
441820.576,4267207.367,-990.118
441820.576,4267007.351,-995.460
441820.576,4266807.336,-999.126
441820.576,4266607.320,-1006.586
441820.576,4266407.304,-1023.261
441820.576,4266207.288,-1045.755
441820.576,4266007.273,-1064.537
441820.576,4265807.257,-1078.145
441820.576,4265607.241,-1098.727
441820.576,4265407.225,-1143.280
441820.576,4265207.210,-1209.748
441820.576,4265007.194,-1274.586
441820.576,4264807.178,-1330.054
441820.576,4264607.163,-1380.043
441820.576,4264407.147,-1423.980
441820.576,4264207.131,-1462.058
441820.576,4264007.115,-1492.078
441820.576,4263807.100,-1502.591
441820.576,4263607.084,-1486.190
441820.576,4263407.068,-1463.396
441820.576,4263207.052,-1462.155
441820.576,4263007.037,-1482.278
441820.576,4262807.021,-1510.730
441820.576,4262607.005,-1539.223
441820.576,4262406.989,-1560.902
441820.576,4262206.974,-1571.732
441820.576,4262006.958,-1571.313
441820.576,4261806.942,-1563.709
441820.576,4261606.927,-1553.252
441820.576,4261406.911,-1537.860
441820.576,4261206.895,-1518.038
441820.576,4261006.879,-1506.685
441820.576,4260806.864,-1511.919
441820.576,4260606.848,-1525.783
441820.576,4260406.832,-1537.510
441820.576,4260206.816,-1547.733
441820.576,4260006.801,-1565.283
441820.576,4259806.785,-1592.604
441820.576,4259606.769,-1617.722
441820.576,4259406.753,-1630.467
441820.576,4259206.738,-1639.534
441820.576,4259006.722,-1653.138
441820.576,4258806.706,-1659.601
441820.576,4258606.691,-1652.763
441820.576,4258406.675,-1643.878
441820.576,4258206.659,-1639.038
441820.576,4258006.643,-1639.022
441820.576,4257806.628,-1643.174
441820.576,4257606.612,-1648.396
441820.576,4257406.596,-1654.603
441820.576,4257206.580,-1661.466
441820.576,4257006.565,-1664.582
441820.576,4256806.549,-1664.076
441820.576,4256606.533,-1669.987
441820.576,4256406.517,-1691.503
441820.576,4256206.502,-1723.131
441820.576,4256006.486,-1752.822
441820.576,4255806.470,-1777.702
441820.576,4255606.454,-1799.932
441820.576,4255406.439,-1820.971
441820.576,4255206.423,-1839.322
441820.576,4255006.407,-1855.637
441820.576,4254806.392,-1879.573
441820.576,4254606.376,-1913.426
441820.576,4254406.360,-1938.106
441820.576,4254206.344,-1942.149
441820.576,4254006.329,-1940.710
442020.614,4285208.783,-586.540
442020.614,4285008.767,-620.338
442020.614,4284808.752,-606.125
442020.614,4284608.736,-587.021
442020.614,4284408.720,-588.594
442020.614,4284208.705,-584.426
442020.614,4284008.689,-603.625
442020.614,4283808.673,-618.897
442020.614,4283608.657,-596.506
442020.614,4283408.642,-612.433
442020.614,4283208.626,-669.039
442020.614,4283008.610,-703.933
442020.614,4282808.594,-711.433
442020.614,4282608.579,-730.824
442020.614,4282408.563,-758.663
442020.614,4282208.547,-786.611
