387311.671,4212869.818,-126.987 
387311.671,4212769.818,-124.602 
387311.671,4212669.818,-122.808 
387411.671,4222969.818,-642.243 
387411.671,4222869.818,-639.307 
387411.671,4222769.818,-632.928 
387411.671,4222669.818,-631.394 
387411.671,4222569.818,-629.568 
387411.671,4222469.818,-625.148 
387411.671,4222369.818,-622.108 
387411.671,4222269.818,-619.642 
387411.671,4222169.818,-612.839 
387411.671,4222069.818,-607.861 
387411.671,4221969.818,-602.677 
387411.671,4221869.818,-596.828 
387411.671,4221769.818,-592.805 
387411.671,4221669.818,-590.611 
387411.671,4221569.818,-581.577 
387411.671,4221469.818,-576.47 
387411.671,4221369.818,-569.676 
387411.671,4221269.818,-564.623 
387411.671,4221169.818,-559.855 
387411.671,4221069.818,-556.248 
387411.671,4220969.818,-550.332 
387411.671,4220869.818,-535.917 
387411.671,4220769.818,-532.191 
387411.671,4220669.818,-528.139 
387411.671,4220569.818,-524.642 
387411.671,4220469.818,-524.731 
387411.671,4220369.818,-522.564 
387411.671,4220269.818,-520.282 
387411.671,4220169.818,-519.789 
387411.671,4220069.818,-521.383 
387411.671,4219969.818,-517.493 
387411.671,4219869.818,-517.102 
387411.671,4219769.818,-516.192 
387411.671,4219669.818,-506.173 
387411.671,4219569.818,-493.538 
387411.671,4219469.818,-488.667 
387411.671,4219369.818,-477.757 
387411.671,4219269.818,-472.885 
387411.671,4219169.818,-468.055 
387411.671,4219069.818,-461.871 
387411.671,4218969.818,-455.059 
387411.671,4218869.818,-447.395 
387411.671,4218769.818,-436.79 
387411.671,4218669.818,-427.606 
387411.671,4218569.818,-423.167 
387411.671,4218469.818,-415.931 
387411.671,4218369.818,-410.189 
387411.671,4218269.818,-405.071 
387411.671,4218169.818,-401.439 
387411.671,4218069.818,-395.353 
387411.671,4217969.818,-390.061 
387411.671,4217869.818,-385.773 
387411.671,4217769.818,-381.075 
387411.671,4217669.818,-376.186 
387411.671,4217569.818,-372.327 
387411.671,4217469.818,-368.049 
387411.671,4217369.818,-363.023 
387411.671,4217269.818,-359.827 
387411.671,4217169.818,-354.938 
387411.671,4217069.818,-350.636 
387411.671,4216969.818,-343.081 
387411.671,4216869.818,-338.76 
387411.671,4216769.818,-330.435 
387411.671,4216669.818,-322.341 
387411.671,4216569.818,-314.372 
387411.671,4216469.818,-305.961 
387411.671,4216369.818,-298.699 
387411.671,4216269.818,-290.548 
387411.671,4216169.818,-283.274 
387411.671,4216069.818,-275.832 
387411.671,4215969.818,-268.961 
387411.671,4215869.818,-262.388 
387411.671,4215769.818,-255.11 
387411.671,4215669.818,-245.884 
387411.671,4215569.818,-238.161 
387411.671,4215469.818,-230.337 
387411.671,4215369.818,-222.875 
387411.671,4215269.818,-216.455 
387411.671,4215169.818,-209.849 
387411.671,4215069.818,-203.891 
387411.671,4214969.818,-194.296 
387411.671,4214869.818,-185.484 
387411.671,4214769.818,-178.032 
387411.671,4214669.818,-169.638 
387411.671,4214569.818,-156.788 
387411.671,4214469.818,-144.771 
387411.671,4214369.818,-138.49 
387411.671,4214269.818,-135.237 
387411.671,4214169.818,-132.992 
387411.671,4214069.818,-133.372 
387411.671,4213969.818,-133.056 
387411.671,4213869.818,-133.012 
387411.671,4213769.818,-130.63 
387411.671,4213669.818,-128.334 
387411.671,4213569.818,-126.957 
387411.671,4213469.818,-125.604 
387411.671,4213369.818,-123.864 
387411.671,4213269.818,-125.105 
387411.671,4213169.818,-124.494 
387411.671,4213069.818,-124.853 
387411.671,4212969.818,-125.299 
387411.671,4212869.818,-127.01 
387411.671,4212769.818,-124.377 
387411.671,4212669.818,-122.644 
387411.671,4212569.818,-120.196 
387511.671,4222969.818,-648.669 
387511.671,4222869.818,-636.682 
387511.671,4222769.818,-637.125 
387511.671,4222669.818,-629.666 
387511.671,4222569.818,-628.719 
387511.671,4222469.818,-627.987 
387511.671,4222369.818,-625.916 
387511.671,4222269.818,-622.147 
387511.671,4222169.818,-618.141 
387511.671,4222069.818,-610.198 
387511.671,4221969.818,-603.188 
387511.671,4221869.818,-597.7 
387511.671,4221769.818,-595 
387511.671,4221669.818,-588.763 
387511.671,4221569.818,-584.955 
387511.671,4221469.818,-578.918 
387511.671,4221369.818,-569.198 
387511.671,4221269.818,-565.273 
387511.671,4221169.818,-560.725 
387511.671,4221069.818,-555.513 
387511.671,4220969.818,-550.624 
387511.671,4220869.818,-544.611 
387511.671,4220769.818,-529.108 
387511.671,4220669.818,-524.97 
387511.671,4220569.818,-520.533 
387511.671,4220469.818,-518.286 
387511.671,4220369.818,-516.005 
387511.671,4220269.818,-515.728 
387511.671,4220169.818,-510.489 
387511.671,4220069.818,-514.397 
387511.671,4219969.818,-513.594 
387511.671,4219869.818,-513.322 
387511.671,4219769.818,-511.675 
387511.671,4219669.818,-502.854 
387511.671,4219569.818,-493.466 
387511.671,4219469.818,-482.114 
387511.671,4219369.818,-475.834 
387511.671,4219269.818,-467.878 
387511.671,4219169.818,-459.316 
387511.671,4219069.818,-454.852 
387511.671,4218969.818,-450.02 
387511.671,4218869.818,-445.235 
387511.671,4218769.818,-436.866 
387511.671,4218669.818,-429.064 
387511.671,4218569.818,-421.479 
387511.671,4218469.818,-415.188 
387511.671,4218369.818,-409.823 
387511.671,4218269.818,-404.793 
387511.671,4218169.818,-399.217 
387511.671,4218069.818,-394.758 
387511.671,4217969.818,-390.023 
387511.671,4217869.818,-384.599 
387511.671,4217769.818,-379.798 
387511.671,4217669.818,-375.01 
387511.671,4217569.818,-370.503 
387511.671,4217469.818,-366.316 
387511.671,4217369.818,-361.535 
387511.671,4217269.818,-357.602 
387511.671,4217169.818,-353.776 
387511.671,4217069.818,-348.621 
387511.671,4216969.818,-344.231 
387511.671,4216869.818,-337.99 
387511.671,4216769.818,-329.045 
387511.671,4216669.818,-321.438 
387511.671,4216569.818,-312.998 
387511.671,4216469.818,-304.715 
387511.671,4216369.818,-297.406 
387511.671,4216269.818,-289.437 
387511.671,4216169.818,-281.932 
387511.671,4216069.818,-274.679 
387511.671,4215969.818,-268.046 
387511.671,4215869.818,-261.392 
387511.671,4215769.818,-254.308 
387511.671,4215669.818,-245.346 
387511.671,4215569.818,-237.033 
387511.671,4215469.818,-228.981 
387511.671,4215369.818,-222.348 
387511.671,4215269.818,-215.185 
387511.671,4215169.818,-209.602 
387511.671,4215069.818,-203.264 
387511.671,4214969.818,-194.36 
387511.671,4214869.818,-186.311 
387511.671,4214769.818,-177.228 
387511.671,4214669.818,-169.423 
387511.671,4214569.818,-154.657 
387511.671,4214469.818,-145.924 
387511.671,4214369.818,-136.051 
387511.671,4214269.818,-135.392 
387511.671,4214169.818,-132.846 
387511.671,4214069.818,-132.505 
387511.671,4213969.818,-132.498 
387511.671,4213869.818,-132.812 
387511.671,4213769.818,-131.051 
387511.671,4213669.818,-128.379 
387511.671,4213569.818,-127.402 
387511.671,4213469.818,-125.767 
387511.671,4213369.818,-125.255 
387511.671,4213269.818,-123.43 
387511.671,4213169.818,-124.335 
387511.671,4213069.818,-125.252 
387511.671,4212969.818,-124.48 
387511.671,4212869.818,-125.391 
387511.671,4212769.818,-124.473 
387511.671,4212669.818,-123.1 
387511.671,4212569.818,-121.101 
387611.671,4222969.818,-647.568 
387611.671,4222869.818,-641.726 
387611.671,4222769.818,-640.022 
387611.671,4222669.818,-629.378 
387611.671,4222569.818,-630.012 
387611.671,4222469.818,-631.626 
387611.671,4222369.818,-625.263 
387611.671,4222269.818,-622.995 
387611.671,4222169.818,-616.876 
387611.671,4222069.818,-610.844 
387611.671,4221969.818,-603.585 
387611.671,4221869.818,-596.385 
387611.671,4221769.818,-592.215 
387611.671,4221669.818,-587.542 
387611.671,4221569.818,-584.661 
387611.671,4221469.818,-577.95 
387611.671,4221369.818,-572.582 
387611.671,4221269.818,-565.822 
387611.671,4221169.818,-559.684 
387611.671,4221069.818,-554.596 
387611.671,4220969.818,-550.281 
387611.671,4220869.818,-539.569 
387611.671,4220769.818,-528.386 
387611.671,4220669.818,-523.042 
387611.671,4220569.818,-518.616 
387611.671,4220469.818,-514.823 
387611.671,4220369.818,-512.04 
387611.671,4220269.818,-509.873 
387611.671,4220169.818,-505.829 
387611.671,4220069.818,-508.023 
387611.671,4219969.818,-510.196 
387611.671,4219869.818,-512.734 
387611.671,4219769.818,-506.177 
387611.671,4219669.818,-497.475 
387611.671,4219569.818,-490.018 
387611.671,4219469.818,-480.522 
387611.671,4219369.818,-471.146 
387611.671,4219269.818,-465.266 
387611.671,4219169.818,-457.413 
387611.671,4219069.818,-448.825 
387611.671,4218969.818,-443.321 
387611.671,4218869.818,-438.75 
387611.671,4218769.818,-432.6 
387611.671,4218669.818,-426.413 
387611.671,4218569.818,-420.568 
387611.671,4218469.818,-414.08 
387611.671,4218369.818,-408.355 
387611.671,4218269.818,-403.168 
387611.671,4218169.818,-397.92 
387611.671,4218069.818,-393.47 
387611.671,4217969.818,-388.885 
387611.671,4217869.818,-383.166 
387611.671,4217769.818,-377.893 
387611.671,4217669.818,-372.587 
387611.671,4217569.818,-368.674 
387611.671,4217469.818,-363.91 
387611.671,4217369.818,-359.116 
387611.671,4217269.818,-355.389 
387611.671,4217169.818,-351.494 
387611.671,4217069.818,-347.109 
387611.671,4216969.818,-341.942 
387611.671,4216869.818,-336.021 
387611.671,4216769.818,-329.322 
387611.671,4216669.818,-321.284 
387611.671,4216569.818,-312.801 
387611.671,4216469.818,-304.56 
387611.671,4216369.818,-296.859 
387611.671,4216269.818,-288.706 
387611.671,4216169.818,-280.823 
387611.671,4216069.818,-273.448 
387611.671,4215969.818,-266.209 
387611.671,4215869.818,-259.551 
387611.671,4215769.818,-253.595 
387611.671,4215669.818,-243.549 
387611.671,4215569.818,-235.518 
387611.671,4215469.818,-227.95 
387611.671,4215369.818,-220.855 
387611.671,4215269.818,-213.583 
387611.671,4215169.818,-207.099 
387611.671,4215069.818,-201.586 
387611.671,4214969.818,-195.35 
387611.671,4214869.818,-185.937 
387611.671,4214769.818,-177.098 
387611.671,4214669.818,-169.962 
387611.671,4214569.818,-152.709 
387611.671,4214469.818,-142.892 
387611.671,4214369.818,-138.933 
387611.671,4214269.818,-135.279 
387611.671,4214169.818,-132.824 
387611.671,4214069.818,-133.278 
387611.671,4213969.818,-132.36 
387611.671,4213869.818,-132.783 
387611.671,4213769.818,-131.129 
387611.671,4213669.818,-129.036 
387611.671,4213569.818,-127.088 
387611.671,4213469.818,-126.077 
387611.671,4213369.818,-125.495 
387611.671,4213269.818,-122.976 
387611.671,4213169.818,-124.094 
387611.671,4213069.818,-123.91 
387611.671,4212969.818,-123.999 
387611.671,4212869.818,-124.787 
387611.671,4212769.818,-124.844 
387611.671,4212669.818,-123.384 
387611.671,4212569.818,-120.714 
387711.671,4222969.818,-648.164 
387711.671,4222869.818,-645.169 
387711.671,4222769.818,-639.087 
387711.671,4222669.818,-636.949 
387711.671,4222569.818,-628.267 
387711.671,4222469.818,-629.492 
387711.671,4222369.818,-625.728 
387711.671,4222269.818,-622.618 
387711.671,4222169.818,-615.853 
387711.671,4222069.818,-609.747 
387711.671,4221969.818,-603.09 
387711.671,4221869.818,-596.14 
387711.671,4221769.818,-590.889 
387711.671,4221669.818,-586.578 
387711.671,4221569.818,-581.037 
387711.671,4221469.818,-578.777 
387711.671,4221369.818,-574.04 
387711.671,4221269.818,-566.551 
387711.671,4221169.818,-560.448 
387711.671,4221069.818,-555.835 
387711.671,4220969.818,-548.64 
387711.671,4220869.818,-542.238 
387711.671,4220769.818,-528.272 
387711.671,4220669.818,-522.433 
387711.671,4220569.818,-517.342 
387711.671,4220469.818,-512.562 
387711.671,4220369.818,-508.015 
387711.671,4220269.818,-506.852 
387711.671,4220169.818,-502.997 
387711.671,4220069.818,-503.079 
387711.671,4219969.818,-507.263 
387711.671,4219869.818,-512.058 
387711.671,4219769.818,-500.45 
387711.671,4219669.818,-493.502 
387711.671,4219569.818,-485.965 
387711.671,4219469.818,-481.928 
387711.671,4219369.818,-470.113 
387711.671,4219269.818,-464.165 
387711.671,4219169.818,-458.823 
387711.671,4219069.818,-449.243 
387711.671,4218969.818,-439.707 
387711.671,4218869.818,-433.129 
387711.671,4218769.818,-429.852 
387711.671,4218669.818,-423.767 
387711.671,4218569.818,-418.308 
387711.671,4218469.818,-411.283 
387711.671,4218369.818,-405.938 
387711.671,4218269.818,-400.984 
387711.671,4218169.818,-395.657 
387711.671,4218069.818,-391.701 
387711.671,4217969.818,-387.211 
387711.671,4217869.818,-382.556 
387711.671,4217769.818,-376.864 
387711.671,4217669.818,-372.223 
387711.671,4217569.818,-367.457 
387711.671,4217469.818,-363.025 
387711.671,4217369.818,-358.51 
387711.671,4217269.818,-353.134 
387711.671,4217169.818,-348.719 
387711.671,4217069.818,-344.062 
387711.671,4216969.818,-339.254 
387711.671,4216869.818,-334.07 
387711.671,4216769.818,-328.21 
387711.671,4216669.818,-319.565 
387711.671,4216569.818,-311.32 
387711.671,4216469.818,-303.029 
387711.671,4216369.818,-294.973 
387711.671,4216269.818,-286.852 
387711.671,4216169.818,-279.538 
387711.671,4216069.818,-271.297 
387711.671,4215969.818,-264.263 
387711.671,4215869.818,-257.331 
387711.671,4215769.818,-250.182 
387711.671,4215669.818,-242.956 
387711.671,4215569.818,-233.856 
387711.671,4215469.818,-226.215 
387711.671,4215369.818,-218.552 
387711.671,4215269.818,-211.12 
387711.671,4215169.818,-204.486 
387711.671,4215069.818,-199.182 
387711.671,4214969.818,-192.902 
387711.671,4214869.818,-185.903 
387711.671,4214769.818,-177.024 
387711.671,4214669.818,-169.272 
387711.671,4214569.818,-150.878 
387711.671,4214469.818,-142.344 
387711.671,4214369.818,-138.293 
387711.671,4214269.818,-134.726 
387711.671,4214169.818,-132.839 
387711.671,4214069.818,-132.238 
387711.671,4213969.818,-131.779 
387711.671,4213869.818,-132.42 
387711.671,4213769.818,-131.538 
387711.671,4213669.818,-129.309 
387711.671,4213569.818,-127.593 
387711.671,4213469.818,-126.133 
387711.671,4213369.818,-125.527 
387711.671,4213269.818,-123.048 
387711.671,4213169.818,-124.195 
387711.671,4213069.818,-123.654 
387711.671,4212969.818,-124.023 
387711.671,4212869.818,-124.627 
387711.671,4212769.818,-125.075 
387711.671,4212669.818,-122.88 
387711.671,4212569.818,-120.763 
387811.671,4222869.818,-645.544 
387811.671,4222769.818,-641.972 
387811.671,4222669.818,-640.096 
387811.671,4222569.818,-625.802 
387811.671,4222469.818,-626.669 
387811.671,4222369.818,-625.823 
387811.671,4222269.818,-622.103 
387811.671,4222169.818,-616.43 
387811.671,4222069.818,-610.571 
387811.671,4221969.818,-602.922 
387811.671,4221869.818,-596.884 
387811.671,4221769.818,-589.904 
387811.671,4221669.818,-585 
387811.671,4221569.818,-583.496 
387811.671,4221469.818,-579.232 
387811.671,4221369.818,-572.151 
387811.671,4221269.818,-567.148 
387811.671,4221169.818,-561.354 
387811.671,4221069.818,-553.447 
387811.671,4220969.818,-548.647 
387811.671,4220869.818,-542.297 
387811.671,4220769.818,-530.643 
387811.671,4220669.818,-518.931 
387811.671,4220569.818,-514.775 
387811.671,4220469.818,-510.312 
387811.671,4220369.818,-505.943 
387811.671,4220269.818,-501.932 
387811.671,4220169.818,-500.153 
387811.671,4220069.818,-497.126 
387811.671,4219969.818,-497.385 
387811.671,4219869.818,-498.003 
387811.671,4219769.818,-493.775 
387811.671,4219669.818,-488.089 
387811.671,4219569.818,-483.148 
387811.671,4219469.818,-476.726 
387811.671,4219369.818,-470.031 
387811.671,4219269.818,-462.212 
387811.671,4219169.818,-455.975 
387811.671,4219069.818,-447.904 
387811.671,4218969.818,-439.134 
387811.671,4218869.818,-430.994 
387811.671,4218769.818,-426.179 
387811.671,4218669.818,-420.801 
387811.671,4218569.818,-414.063 
387811.671,4218469.818,-409.424 
387811.671,4218369.818,-402.916 
387811.671,4218269.818,-398.419 
387811.671,4218169.818,-392.677 
387811.671,4218069.818,-388.802 
387811.671,4217969.818,-385.632 
387811.671,4217869.818,-380.235 
387811.671,4217769.818,-374.11 
387811.671,4217669.818,-369.592 
387811.671,4217569.818,-365.161 
387811.671,4217469.818,-361.168 
387811.671,4217369.818,-356.115 
387811.671,4217269.818,-351.224 
387811.671,4217169.818,-346.349 
387811.671,4217069.818,-342.256 
387811.671,4216969.818,-337.467 
387811.671,4216869.818,-332.001 
387811.671,4216769.818,-327.934 
387811.671,4216669.818,-319.58 
387811.671,4216569.818,-310.906 
387811.671,4216469.818,-302.45 
387811.671,4216369.818,-294.363 
387811.671,4216269.818,-285.777 
387811.671,4216169.818,-278.274 
387811.671,4216069.818,-270.171 
387811.671,4215969.818,-262.438 
387811.671,4215869.818,-255.28 
387811.671,4215769.818,-248.462 
387811.671,4215669.818,-241.874 
387811.671,4215569.818,-232.749 
387811.671,4215469.818,-224.649 
387811.671,4215369.818,-217.114 
387811.671,4215269.818,-209.742 
387811.671,4215169.818,-204.203 
387811.671,4215069.818,-196.428 
387811.671,4214969.818,-192.674 
387811.671,4214869.818,-185.638 
387811.671,4214769.818,-176.807 
387811.671,4214669.818,-168.062 
387811.671,4214569.818,-149.414 
387811.671,4214469.818,-141.917 
387811.671,4214369.818,-139.08 
387811.671,4214269.818,-133.964 
387811.671,4214169.818,-132.948 
387811.671,4214069.818,-131.993 
387811.671,4213969.818,-132.106 
387811.671,4213869.818,-131.863 
387811.671,4213769.818,-131.957 
387811.671,4213669.818,-129.743 
387811.671,4213569.818,-127.83 
387811.671,4213469.818,-126.365 
387811.671,4213369.818,-125.306 
387811.671,4213269.818,-122.347 
387811.671,4213169.818,-124.197 
387811.671,4213069.818,-123.305 
387811.671,4212969.818,-123.715 
387811.671,4212869.818,-124.098 
387811.671,4212769.818,-125.12 
387811.671,4212669.818,-122.691 
387811.671,4212569.818,-120.589 
387911.671,4222869.818,-647.205 
387911.671,4222769.818,-645.215 
387911.671,4222669.818,-644.175 
387911.671,4222569.818,-640.17 
387911.671,4222469.818,-630.861 
387911.671,4222369.818,-623.755 
387911.671,4222269.818,-621.685 
387911.671,4222169.818,-617.254 
387911.671,4222069.818,-609.994 
387911.671,4221969.818,-603.643 
387911.671,4221869.818,-596.879 
387911.671,4221769.818,-589.879 
387911.671,4221669.818,-585.087 
387911.671,4221569.818,-579.333 
387911.671,4221469.818,-574.384 
387911.671,4221369.818,-571.489 
387911.671,4221269.818,-567.026 
387911.671,4221169.818,-562.364 
387911.671,4221069.818,-555.127 
387911.671,4220969.818,-549.003 
387911.671,4220869.818,-542.422 
387911.671,4220769.818,-530.508 
387911.671,4220669.818,-522.62 
387911.671,4220569.818,-513.735 
387911.671,4220469.818,-508.167 
387911.671,4220369.818,-503.471 
387911.671,4220269.818,-499.415 
387911.671,4220169.818,-496.077 
387911.671,4220069.818,-494.037 
387911.671,4219969.818,-493.079 
387911.671,4219869.818,-489.841 
387911.671,4219769.818,-488.726 
387911.671,4219669.818,-483.969 
387911.671,4219569.818,-478.686 
387911.671,4219469.818,-474.236 
387911.671,4219369.818,-464.5 
387911.671,4219269.818,-462.754 
387911.671,4219169.818,-454.394 
387911.671,4219069.818,-444.661 
387911.671,4218969.818,-435.829 
387911.671,4218869.818,-430.063 
387911.671,4218769.818,-424.697 
387911.671,4218669.818,-420.33 
387911.671,4218569.818,-412.342 
387911.671,4218469.818,-407.656 
387911.671,4218369.818,-401.804 
387911.671,4218269.818,-396.149 
387911.671,4218169.818,-391.185 
387911.671,4218069.818,-386.857 
387911.671,4217969.818,-381.528 
387911.671,4217869.818,-377.721 
387911.671,4217769.818,-373.389 
387911.671,4217669.818,-367.086 
387911.671,4217569.818,-362.472 
387911.671,4217469.818,-357.764 
387911.671,4217369.818,-353.137 
387911.671,4217269.818,-347.961 
387911.671,4217169.818,-343.372 
387911.671,4217069.818,-339.193 
387911.671,4216969.818,-333.92 
387911.671,4216869.818,-330.446 
387911.671,4216769.818,-323.915 
387911.671,4216669.818,-317.929 
387911.671,4216569.818,-309.216 
387911.671,4216469.818,-301.247 
387911.671,4216369.818,-292.806 
387911.671,4216269.818,-284.904 
387911.671,4216169.818,-275.915 
387911.671,4216069.818,-268.756 
387911.671,4215969.818,-260.957 
387911.671,4215869.818,-253.737 
387911.671,4215769.818,-246.565 
387911.671,4215669.818,-240.943 
387911.671,4215569.818,-233.654 
387911.671,4215469.818,-224.022 
387911.671,4215369.818,-215.812 
387911.671,4215269.818,-208.659 
387911.671,4215169.818,-201.369 
387911.671,4215069.818,-195.677 
387911.671,4214969.818,-191.492 
387911.671,4214869.818,-185.671 
387911.671,4214769.818,-176.397 
387911.671,4214669.818,-167.596 
387911.671,4214569.818,-148.584 
387911.671,4214469.818,-141.544 
387911.671,4214369.818,-138.005 
387911.671,4214269.818,-133.287 
387911.671,4214169.818,-132.867 
387911.671,4214069.818,-131.709 
387911.671,4213969.818,-131.613 
387911.671,4213869.818,-131.469 
387911.671,4213769.818,-131.434 
387911.671,4213669.818,-130 
387911.671,4213569.818,-127.791 
387911.671,4213469.818,-126.722 
387911.671,4213369.818,-125.263 
387911.671,4213269.818,-123.426 
387911.671,4213169.818,-123.557 
387911.671,4213069.818,-123.279 
387911.671,4212969.818,-123.104 
387911.671,4212869.818,-123.888 
387911.671,4212769.818,-123.98 
387911.671,4212669.818,-121.932 
387911.671,4212569.818,-120.715 
388011.671,4222769.818,-648.448 
388011.671,4222669.818,-645.057 
388011.671,4222569.818,-639.068 
388011.671,4222469.818,-634.19 
388011.671,4222369.818,-624.532 
388011.671,4222269.818,-626.666 
388011.671,4222169.818,-620.273 
388011.671,4222069.818,-612.113 
388011.671,4221969.818,-605.582 
388011.671,4221869.818,-597.488 
388011.671,4221769.818,-588.916 
388011.671,4221669.818,-583.873 
388011.671,4221569.818,-579.211 
388011.671,4221469.818,-576.024 
388011.671,4221369.818,-572.07 
388011.671,4221269.818,-565.953 
388011.671,4221169.818,-561.918 
388011.671,4221069.818,-555.44 
388011.671,4220969.818,-546.255 
388011.671,4220869.818,-542.045 
388011.671,4220769.818,-532.114 
388011.671,4220669.818,-517.736 
388011.671,4220569.818,-511.906 
388011.671,4220469.818,-506.626 
388011.671,4220369.818,-501.05 
388011.671,4220269.818,-497.113 
388011.671,4220169.818,-493.729 
388011.671,4220069.818,-489.346 
388011.671,4219969.818,-485.126 
388011.671,4219869.818,-484.536 
388011.671,4219769.818,-482.819 
388011.671,4219669.818,-480.036 
388011.671,4219569.818,-475.807 
388011.671,4219469.818,-470.407 
388011.671,4219369.818,-464.04 
388011.671,4219269.818,-458.602 
388011.671,4219169.818,-449.173 
388011.671,4219069.818,-442.034 
388011.671,4218969.818,-432.096 
388011.671,4218869.818,-428.419 
388011.671,4218769.818,-423.993 
388011.671,4218669.818,-416.532 
388011.671,4218569.818,-412.658 
388011.671,4218469.818,-406.799 
388011.671,4218369.818,-401.176 
388011.671,4218269.818,-396.701 
388011.671,4218169.818,-390.784 
388011.671,4218069.818,-386.069 
388011.671,4217969.818,-380.441 
388011.671,4217869.818,-376.234 
388011.671,4217769.818,-371.011 
388011.671,4217669.818,-366.085 
388011.671,4217569.818,-361.822 
388011.671,4217469.818,-356.734 
388011.671,4217369.818,-351.91 
388011.671,4217269.818,-347.119 
388011.671,4217169.818,-342.471 
388011.671,4217069.818,-335.988 
388011.671,4216969.818,-331.342 
388011.671,4216869.818,-326.831 
388011.671,4216769.818,-320.693 
388011.671,4216669.818,-316.074 
388011.671,4216569.818,-309.127 
388011.671,4216469.818,-300.811 
388011.671,4216369.818,-292.343 
388011.671,4216269.818,-284.114 
388011.671,4216169.818,-275.857 
388011.671,4216069.818,-268.002 
388011.671,4215969.818,-259.518 
388011.671,4215869.818,-252.04 
388011.671,4215769.818,-244.967 
388011.671,4215669.818,-237.328 
388011.671,4215569.818,-232.592 
388011.671,4215469.818,-223.038 
388011.671,4215369.818,-214.689 
388011.671,4215269.818,-207.052 
388011.671,4215169.818,-200.641 
388011.671,4215069.818,-194.347 
388011.671,4214969.818,-190.176 
388011.671,4214869.818,-184.402 
388011.671,4214769.818,-177.435 
388011.671,4214669.818,-167.123 
388011.671,4214569.818,-147.725 
388011.671,4214469.818,-140.967 
388011.671,4214369.818,-137.304 
388011.671,4214269.818,-134.834 
388011.671,4214169.818,-133.093 
388011.671,4214069.818,-131.829 
388011.671,4213969.818,-131.62 
388011.671,4213869.818,-130.846 
388011.671,4213769.818,-131.364 
388011.671,4213669.818,-130.108 
388011.671,4213569.818,-128.12 
388011.671,4213469.818,-126.387 
388011.671,4213369.818,-125.057 
388011.671,4213269.818,-124.151 
388011.671,4213169.818,-122.55 
388011.671,4213069.818,-123.293 
388011.671,4212969.818,-123.952 
388011.671,4212869.818,-123.816 
388011.671,4212769.818,-123.45 
388011.671,4212669.818,-122.217 
388011.671,4212569.818,-120.874 
388111.671,4222669.818,-646.103 
388111.671,4222569.818,-641.699 
388111.671,4222469.818,-640.009 
388111.671,4222369.818,-636.219 
388111.671,4222269.818,-625.142 
388111.671,4222169.818,-620.964 
388111.671,4222069.818,-614.182 
388111.671,4221969.818,-608.294 
388111.671,4221869.818,-600.391 
388111.671,4221769.818,-592.261 
388111.671,4221669.818,-583.692 
388111.671,4221569.818,-579.838 
388111.671,4221469.818,-574.643 
388111.671,4221369.818,-569.211 
388111.671,4221269.818,-566.662 
388111.671,4221169.818,-560.386 
388111.671,4221069.818,-555.593 
388111.671,4220969.818,-547.025 
388111.671,4220869.818,-542.651 
388111.671,4220769.818,-534.624 
388111.671,4220669.818,-521.344 
388111.671,4220569.818,-513.861 
388111.671,4220469.818,-503.255 
388111.671,4220369.818,-498.877 
388111.671,4220269.818,-493.654 
388111.671,4220169.818,-489.598 
388111.671,4220069.818,-486.886 
388111.671,4219969.818,-481.882 
388111.671,4219869.818,-478.082 
388111.671,4219769.818,-478.558 
388111.671,4219669.818,-476.37 
388111.671,4219569.818,-472.978 
388111.671,4219469.818,-467.789 
388111.671,4219369.818,-462.26 
388111.671,4219269.818,-455.54 
388111.671,4219169.818,-449.821 
388111.671,4219069.818,-439.963 
388111.671,4218969.818,-431.837 
388111.671,4218869.818,-427.528 
388111.671,4218769.818,-421.247 
388111.671,4218669.818,-414.439 
388111.671,4218569.818,-409.322 
388111.671,4218469.818,-403.6 
388111.671,4218369.818,-399.376 
388111.671,4218269.818,-394.093 
388111.671,4218169.818,-389.53 
388111.671,4218069.818,-384.441 
388111.671,4217969.818,-378.879 
388111.671,4217869.818,-373.229 
388111.671,4217769.818,-369.756 
388111.671,4217669.818,-364.648 
388111.671,4217569.818,-360.025 
388111.671,4217469.818,-355.66 
388111.671,4217369.818,-350.364 
388111.671,4217269.818,-345.492 
388111.671,4217169.818,-340.283 
388111.671,4217069.818,-335.138 
388111.671,4216969.818,-329.332 
388111.671,4216869.818,-324.413 
388111.671,4216769.818,-319.478 
388111.671,4216669.818,-313.944 
388111.671,4216569.818,-308.63 
388111.671,4216469.818,-301.062 
388111.671,4216369.818,-292.045 
388111.671,4216269.818,-283.767 
388111.671,4216169.818,-274.743 
388111.671,4216069.818,-266.276 
388111.671,4215969.818,-258.934 
388111.671,4215869.818,-251.208 
388111.671,4215769.818,-243.687 
388111.671,4215669.818,-236.619 
388111.671,4215569.818,-228.385 
388111.671,4215469.818,-221.851 
388111.671,4215369.818,-213.77 
388111.671,4215269.818,-206.033 
388111.671,4215169.818,-199.105 
388111.671,4215069.818,-193.026 
388111.671,4214969.818,-187.809 
388111.671,4214869.818,-182.583 
388111.671,4214769.818,-177.403 
388111.671,4214669.818,-166.821 
388111.671,4214569.818,-147.515 
388111.671,4214469.818,-140.992 
388111.671,4214369.818,-137.308 
388111.671,4214269.818,-133.166 
388111.671,4214169.818,-133.106 
388111.671,4214069.818,-131.694 
388111.671,4213969.818,-131.107 
388111.671,4213869.818,-130.474 
388111.671,4213769.818,-130.95 
388111.671,4213669.818,-130.537 
388111.671,4213569.818,-128.389 
388111.671,4213469.818,-126.863 
388111.671,4213369.818,-125.018 
388111.671,4213269.818,-124.695 
388111.671,4213169.818,-123.758 
388111.671,4213069.818,-123.589 
388111.671,4212969.818,-123.169 
388111.671,4212869.818,-123.304 
388111.671,4212769.818,-124.12 
388111.671,4212669.818,-122.258 
388111.671,4212569.818,-121.379 
388211.671,4222669.818,-649.087 
388211.671,4222569.818,-646.078 
388211.671,4222469.818,-643.503 
388211.671,4222369.818,-638.983 
388211.671,4222269.818,-629.408 
388211.671,4222169.818,-622.465 
388211.671,4222069.818,-616.501 
388211.671,4221969.818,-611.294 
388211.671,4221869.818,-602.641 
388211.671,4221769.818,-595.751 
388211.671,4221669.818,-587.426 
388211.671,4221569.818,-580.462 
388211.671,4221469.818,-575.004 
388211.671,4221369.818,-570.229 
388211.671,4221269.818,-563.817 
388211.671,4221169.818,-560.479 
388211.671,4221069.818,-552.903 
388211.671,4220969.818,-546.494 
388211.671,4220869.818,-537.532 
388211.671,4220769.818,-529.891 
388211.671,4220669.818,-526.21 
388211.671,4220569.818,-511.313 
388211.671,4220469.818,-502.885 
388211.671,4220369.818,-497.881 
388211.671,4220269.818,-492.3 
388211.671,4220169.818,-487.283 
388211.671,4220069.818,-483.832 
388211.671,4219969.818,-479.737 
388211.671,4219869.818,-475.357 
388211.671,4219769.818,-476.531 
388211.671,4219669.818,-473.065 
388211.671,4219569.818,-469.927 
388211.671,4219469.818,-465.976 
388211.671,4219369.818,-460.367 
388211.671,4219269.818,-453.425 
388211.671,4219169.818,-445.874 
388211.671,4219069.818,-438.858 
388211.671,4218969.818,-431.431 
388211.671,4218869.818,-425.969 
388211.671,4218769.818,-419.521 
388211.671,4218669.818,-414.533 
388211.671,4218569.818,-408.037 
388211.671,4218469.818,-403.06 
388211.671,4218369.818,-395.092 
388211.671,4218269.818,-393.467 
388211.671,4218169.818,-386.825 
388211.671,4218069.818,-382.065 
388211.671,4217969.818,-377.518 
388211.671,4217869.818,-373.052 
388211.671,4217769.818,-367.723 
388211.671,4217669.818,-364.745 
388211.671,4217569.818,-359.141 
388211.671,4217469.818,-354.468 
388211.671,4217369.818,-348.687 
388211.671,4217269.818,-343.036 
388211.671,4217169.818,-338.402 
388211.671,4217069.818,-332.138 
388211.671,4216969.818,-326.93 
388211.671,4216869.818,-321.354 
388211.671,4216769.818,-316.105 
388211.671,4216669.818,-310.718 
388211.671,4216569.818,-305.667 
388211.671,4216469.818,-299.023 
388211.671,4216369.818,-291.08 
388211.671,4216269.818,-282.25 
388211.671,4216169.818,-273.375 
388211.671,4216069.818,-265.221 
388211.671,4215969.818,-257.37 
388211.671,4215869.818,-249.085 
388211.671,4215769.818,-241.921 
388211.671,4215669.818,-234.779 
388211.671,4215569.818,-228.019 
388211.671,4215469.818,-220.333 
388211.671,4215369.818,-213.194 
388211.671,4215269.818,-204.709 
388211.671,4215169.818,-197.887 
388211.671,4215069.818,-191.826 
388211.671,4214969.818,-186.338 
388211.671,4214869.818,-181.451 
388211.671,4214769.818,-176.452 
388211.671,4214669.818,-166.252 
388211.671,4214569.818,-147.214 
388211.671,4214469.818,-140.888 
388211.671,4214369.818,-136.833 
388211.671,4214269.818,-135.673 
388211.671,4214169.818,-133.158 
388211.671,4214069.818,-131.943 
388211.671,4213969.818,-130.631 
388211.671,4213869.818,-130.042 
388211.671,4213769.818,-130.184 
388211.671,4213669.818,-130.396 
388211.671,4213569.818,-128.806 
388211.671,4213469.818,-126.847 
388211.671,4213369.818,-125.932 
388211.671,4213269.818,-124.698 
388211.671,4213169.818,-123.906 
388211.671,4213069.818,-123.732 
388211.671,4212969.818,-123.021 
388211.671,4212869.818,-123.109 
388211.671,4212769.818,-123.587 
388211.671,4212669.818,-123.893 
388211.671,4212569.818,-121.558 
388311.671,4222569.818,-649.716 
388311.671,4222469.818,-646.216 
388311.671,4222369.818,-640.793 
388311.671,4222269.818,-632.04 
388311.671,4222169.818,-623.153 
388311.671,4222069.818,-619.321 
388311.671,4221969.818,-611.9 
388311.671,4221869.818,-605.024 
388311.671,4221769.818,-597.671 
388311.671,4221669.818,-589.74 
388311.671,4221569.818,-581.937 
388311.671,4221469.818,-575.362 
388311.671,4221369.818,-568.734 
388311.671,4221269.818,-563.847 
388311.671,4221169.818,-559.282 
388311.671,4221069.818,-550.948 
388311.671,4220969.818,-543.276 
388311.671,4220869.818,-534.892 
388311.671,4220769.818,-529.186 
388311.671,4220669.818,-521.015 
388311.671,4220569.818,-512.266 
388311.671,4220469.818,-501.214 
388311.671,4220369.818,-494.24 
388311.671,4220269.818,-489.686 
388311.671,4220169.818,-485.14 
388311.671,4220069.818,-481.895 
388311.671,4219969.818,-477.779 
388311.671,4219869.818,-473.604 
388311.671,4219769.818,-473.667 
388311.671,4219669.818,-468.85 
388311.671,4219569.818,-466.348 
388311.671,4219469.818,-463.913 
388311.671,4219369.818,-458.764 
388311.671,4219269.818,-452.853 
388311.671,4219169.818,-444.371 
388311.671,4219069.818,-435.565 
388311.671,4218969.818,-431.358 
388311.671,4218869.818,-425.43 
388311.671,4218769.818,-420.334 
388311.671,4218669.818,-413.597 
388311.671,4218569.818,-407.401 
388311.671,4218469.818,-401.9 
388311.671,4218369.818,-394.564 
388311.671,4218269.818,-389.779 
388311.671,4218169.818,-385.085 
388311.671,4218069.818,-380.541 
388311.671,4217969.818,-375.463 
388311.671,4217869.818,-370.497 
388311.671,4217769.818,-366.783 
388311.671,4217669.818,-362.988 
388311.671,4217569.818,-358.074 
388311.671,4217469.818,-353.637 
388311.671,4217369.818,-347.177 
388311.671,4217269.818,-341.225 
388311.671,4217169.818,-335.692 
388311.671,4217069.818,-330.185 
388311.671,4216969.818,-324.334 
388311.671,4216869.818,-318.447 
388311.671,4216769.818,-313.244 
388311.671,4216669.818,-307.645 
388311.671,4216569.818,-302.193 
388311.671,4216469.818,-297.053 
388311.671,4216369.818,-289.423 
388311.671,4216269.818,-281.237 
388311.671,4216169.818,-272.416 
388311.671,4216069.818,-263.376 
388311.671,4215969.818,-255.059 
388311.671,4215869.818,-247.954 
388311.671,4215769.818,-240.066 
388311.671,4215669.818,-232.993 
388311.671,4215569.818,-225.713 
388311.671,4215469.818,-219.135 
388311.671,4215369.818,-211.018 
388311.671,4215269.818,-203.551 
388311.671,4215169.818,-196.362 
388311.671,4215069.818,-190.474 
388311.671,4214969.818,-185.23 
388311.671,4214869.818,-180.2 
388311.671,4214769.818,-175.458 
388311.671,4214669.818,-165.455 
388311.671,4214569.818,-146.977 
388311.671,4214469.818,-141.24 
388311.671,4214369.818,-136.481 
388311.671,4214269.818,-134.423 
388311.671,4214169.818,-132.931 
388311.671,4214069.818,-131.961 
388311.671,4213969.818,-130.643 
388311.671,4213869.818,-130 
388311.671,4213769.818,-130.097 
388311.671,4213669.818,-130.983 
388311.671,4213569.818,-129.485 
388311.671,4213469.818,-127.305 
388311.671,4213369.818,-127.027 
388311.671,4213269.818,-124.704 
388311.671,4213169.818,-124.005 
388311.671,4213069.818,-122.85 
388311.671,4212969.818,-123.037 
388311.671,4212869.818,-123.43 
388311.671,4212769.818,-122.876 
388311.671,4212669.818,-122.588 
388311.671,4212569.818,-120.693 
388411.671,4222469.818,-648.267 
388411.671,4222369.818,-645.528 
388411.671,4222269.818,-638.597 
388411.671,4222169.818,-636.261 
388411.671,4222069.818,-616.266 
388411.671,4221969.818,-612.108 
388411.671,4221869.818,-607.164 
388411.671,4221769.818,-599.349 
388411.671,4221669.818,-591.118 
388411.671,4221569.818,-583.873 
388411.671,4221469.818,-575.888 
388411.671,4221369.818,-569.291 
388411.671,4221269.818,-564.156 
388411.671,4221169.818,-554.114 
388411.671,4221069.818,-549.654 
388411.671,4220969.818,-541.569 
388411.671,4220869.818,-534.501 
388411.671,4220769.818,-526.165 
388411.671,4220669.818,-520.019 
388411.671,4220569.818,-513.966 
388411.671,4220469.818,-499.319 
388411.671,4220369.818,-491.471 
388411.671,4220269.818,-486.726 
388411.671,4220169.818,-483.343 
388411.671,4220069.818,-478.828 
388411.671,4219969.818,-476.061 
388411.671,4219869.818,-471.79 
388411.671,4219769.818,-468.429 
388411.671,4219669.818,-464.578 
388411.671,4219569.818,-462.519 
388411.671,4219469.818,-459.152 
388411.671,4219369.818,-455.054 
388411.671,4219269.818,-451.934 
388411.671,4219169.818,-443.308 
388411.671,4219069.818,-434.646 
388411.671,4218969.818,-430.298 
388411.671,4218869.818,-424.753 
388411.671,4218769.818,-418.671 
388411.671,4218669.818,-413.503 
388411.671,4218569.818,-407.138 
388411.671,4218469.818,-400.845 
388411.671,4218369.818,-394.837 
388411.671,4218269.818,-387.571 
388411.671,4218169.818,-384.165 
388411.671,4218069.818,-378.897 
388411.671,4217969.818,-374.684 
388411.671,4217869.818,-369.278 
388411.671,4217769.818,-364.558 
388411.671,4217669.818,-359.464 
388411.671,4217569.818,-355.665 
388411.671,4217469.818,-349.67 
388411.671,4217369.818,-344.545 
388411.671,4217269.818,-338.963 
388411.671,4217169.818,-333.496 
388411.671,4217069.818,-327.722 
388411.671,4216969.818,-321.3 
388411.671,4216869.818,-315.764 
388411.671,4216769.818,-310.171 
388411.671,4216669.818,-304.82 
388411.671,4216569.818,-298.925 
388411.671,4216469.818,-293.069 
388411.671,4216369.818,-288.217 
388411.671,4216269.818,-280.281 
388411.671,4216169.818,-271.932 
388411.671,4216069.818,-262.788 
388411.671,4215969.818,-254.373 
388411.671,4215869.818,-246.563 
388411.671,4215769.818,-239.205 
388411.671,4215669.818,-231.752 
388411.671,4215569.818,-224.368 
388411.671,4215469.818,-217.78 
388411.671,4215369.818,-210.018 
388411.671,4215269.818,-202.263 
388411.671,4215169.818,-195.018 
388411.671,4215069.818,-189.109 
388411.671,4214969.818,-183.781 
388411.671,4214869.818,-180.059 
388411.671,4214769.818,-173.995 
388411.671,4214669.818,-163.145 
388411.671,4214569.818,-146.941 
388411.671,4214469.818,-140.927 
388411.671,4214369.818,-136.453 
388411.671,4214269.818,-133.982 
388411.671,4214169.818,-132.358 
388411.671,4214069.818,-131.831 
388411.671,4213969.818,-130.683 
388411.671,4213869.818,-129.458 
388411.671,4213769.818,-129.562 
388411.671,4213669.818,-130.058 
388411.671,4213569.818,-129.542 
388411.671,4213469.818,-127.519 
388411.671,4213369.818,-127.265 
388411.671,4213269.818,-124.516 
388411.671,4213169.818,-123.351 
388411.671,4213069.818,-123.256 
388411.671,4212969.818,-122.782 
388411.671,4212869.818,-123.591 
388411.671,4212769.818,-122.498 
388411.671,4212669.818,-122.766 
388411.671,4212569.818,-120.918 
388511.671,4222469.818,-649.81 
388511.671,4222369.818,-646.939 
388511.671,4222269.818,-641.921 
388511.671,4222169.818,-633.886 
388511.671,4222069.818,-618.231 
388511.671,4221969.818,-613.356 
388511.671,4221869.818,-606.458 
388511.671,4221769.818,-599.265 
388511.671,4221669.818,-591.76 
388511.671,4221569.818,-584.438 
388511.671,4221469.818,-576.595 
388511.671,4221369.818,-569.422 
388511.671,4221269.818,-560.742 
388511.671,4221169.818,-553.407 
388511.671,4221069.818,-546.685 
388511.671,4220969.818,-538.954 
388511.671,4220869.818,-532.188 
388511.671,4220769.818,-523.792 
388511.671,4220669.818,-516.917 
388511.671,4220569.818,-511.529 
388511.671,4220469.818,-503.925 
388511.671,4220369.818,-490.2 
388511.671,4220269.818,-484.637 
388511.671,4220169.818,-480.927 
388511.671,4220069.818,-476.576 
388511.671,4219969.818,-472.53 
388511.671,4219869.818,-471.843 
388511.671,4219769.818,-464.392 
388511.671,4219669.818,-460.483 
388511.671,4219569.818,-456.724 
388511.671,4219469.818,-454.25 
388511.671,4219369.818,-450.756 
388511.671,4219269.818,-446.206 
388511.671,4219169.818,-441.525 
388511.671,4219069.818,-432.404 
388511.671,4218969.818,-424.992 
388511.671,4218869.818,-424.726 
388511.671,4218769.818,-417.165 
388511.671,4218669.818,-411.334 
388511.671,4218569.818,-405.953 
388511.671,4218469.818,-401.054 
388511.671,4218369.818,-394.067 
388511.671,4218269.818,-388.536 
388511.671,4218169.818,-382.779 
388511.671,4218069.818,-377.767 
388511.671,4217969.818,-373.511 
388511.671,4217869.818,-367.114 
388511.671,4217769.818,-362.091 
388511.671,4217669.818,-357.831 
388511.671,4217569.818,-353.415 
388511.671,4217469.818,-347.74 
388511.671,4217369.818,-342.753 
388511.671,4217269.818,-337.378 
388511.671,4217169.818,-331.561 
388511.671,4217069.818,-325.997 
388511.671,4216969.818,-319.736 
388511.671,4216869.818,-313.545 
388511.671,4216769.818,-308.118 
388511.671,4216669.818,-302.523 
388511.671,4216569.818,-295.728 
388511.671,4216469.818,-290.134 
388511.671,4216369.818,-285.066 
388511.671,4216269.818,-280.023 
388511.671,4216169.818,-270.783 
388511.671,4216069.818,-261.873 
388511.671,4215969.818,-254.13 
388511.671,4215869.818,-246.052 
388511.671,4215769.818,-239.21 
388511.671,4215669.818,-230.708 
388511.671,4215569.818,-223.416 
388511.671,4215469.818,-216.308 
388511.671,4215369.818,-209.518 
388511.671,4215269.818,-201.951 
388511.671,4215169.818,-193.916 
388511.671,4215069.818,-188.248 
388511.671,4214969.818,-182.598 
388511.671,4214869.818,-177.456 
388511.671,4214769.818,-172.343 
388511.671,4214669.818,-160.71 
388511.671,4214569.818,-146.967 
388511.671,4214469.818,-140.775 
388511.671,4214369.818,-136.26 
388511.671,4214269.818,-133.972 
388511.671,4214169.818,-131.65 
388511.671,4214069.818,-131.138 
388511.671,4213969.818,-130.374 
388511.671,4213869.818,-129.486 
388511.671,4213769.818,-129.226 
388511.671,4213669.818,-130.208 
388511.671,4213569.818,-130.211 
388511.671,4213469.818,-128.093 
388511.671,4213369.818,-127.157 
388511.671,4213269.818,-124.659 
388511.671,4213169.818,-124.166 
388511.671,4213069.818,-123.054 
388511.671,4212969.818,-122.467 
388511.671,4212869.818,-122.28 
388511.671,4212769.818,-122.195 
388511.671,4212669.818,-122.709 
388511.671,4212569.818,-121.116 
388511.671,4212469.818,-120.304 
388611.671,4222369.818,-648.82 
388611.671,4222269.818,-644.277 
388611.671,4222169.818,-635.728 
388611.671,4222069.818,-624.313 
388611.671,4221969.818,-612.139 
388611.671,4221869.818,-606.316 
388611.671,4221769.818,-598.937 
388611.671,4221669.818,-592.685 
388611.671,4221569.818,-584.739 
388611.671,4221469.818,-577.091 
388611.671,4221369.818,-568.26 
388611.671,4221269.818,-560.731 
388611.671,4221169.818,-552.211 
388611.671,4221069.818,-543.756 
388611.671,4220969.818,-538.229 
388611.671,4220869.818,-529.541 
388611.671,4220769.818,-522.653 
388611.671,4220669.818,-514.959 
388611.671,4220569.818,-508.432 
388611.671,4220469.818,-500.455 
388611.671,4220369.818,-489.916 
388611.671,4220269.818,-485.261 
388611.671,4220169.818,-477.985 
388611.671,4220069.818,-473.408 
388611.671,4219969.818,-469.381 
388611.671,4219869.818,-466.728 
388611.671,4219769.818,-462.496 
388611.671,4219669.818,-456.513 
388611.671,4219569.818,-452.767 
388611.671,4219469.818,-449.846 
388611.671,4219369.818,-446.346 
388611.671,4219269.818,-442.363 
388611.671,4219169.818,-437.202 
388611.671,4219069.818,-430.124 
388611.671,4218969.818,-422.729 
388611.671,4218869.818,-421.921 
388611.671,4218769.818,-417.214 
388611.671,4218669.818,-411.231 
388611.671,4218569.818,-405.308 
388611.671,4218469.818,-399.233 
388611.671,4218369.818,-393.949 
388611.671,4218269.818,-388.811 
388611.671,4218169.818,-382.827 
388611.671,4218069.818,-377.192 
388611.671,4217969.818,-372.235 
388611.671,4217869.818,-365.833 
388611.671,4217769.818,-361.33 
388611.671,4217669.818,-356.735 
388611.671,4217569.818,-351.944 
388611.671,4217469.818,-346.867 
388611.671,4217369.818,-341.68 
388611.671,4217269.818,-334.289 
388611.671,4217169.818,-329.776 
388611.671,4217069.818,-324.006 
388611.671,4216969.818,-317.974 
388611.671,4216869.818,-311.77 
388611.671,4216769.818,-305.459 
388611.671,4216669.818,-299.524 
388611.671,4216569.818,-293.39 
388611.671,4216469.818,-287.133 
388611.671,4216369.818,-282.371 
388611.671,4216269.818,-277.933 
388611.671,4216169.818,-270.247 
388611.671,4216069.818,-261.352 
388611.671,4215969.818,-253.308 
388611.671,4215869.818,-245.27 
388611.671,4215769.818,-237.558 
388611.671,4215669.818,-230.093 
388611.671,4215569.818,-222.302 
388611.671,4215469.818,-214.803 
388611.671,4215369.818,-207.584 
388611.671,4215269.818,-201.22 
388611.671,4215169.818,-193.179 
388611.671,4215069.818,-187.887 
388611.671,4214969.818,-183.184 
388611.671,4214869.818,-176.287 
388611.671,4214769.818,-170.253 
388611.671,4214669.818,-158.375 
388611.671,4214569.818,-147.152 
388611.671,4214469.818,-140.809 
388611.671,4214369.818,-137.404 
388611.671,4214269.818,-133.543 
388611.671,4214169.818,-133.165 
388611.671,4214069.818,-131.417 
388611.671,4213969.818,-130.428 
388611.671,4213869.818,-128.933 
388611.671,4213769.818,-128.816 
388611.671,4213669.818,-129.299 
388611.671,4213569.818,-129.797 
388611.671,4213469.818,-128.633 
388611.671,4213369.818,-126.531 
388611.671,4213269.818,-125.035 
388611.671,4213169.818,-123.91 
388611.671,4213069.818,-122.851 
388611.671,4212969.818,-122.122 
388611.671,4212869.818,-121.92 
388611.671,4212769.818,-122.131 
388611.671,4212669.818,-122.356 
388611.671,4212569.818,-122.395 
388611.671,4212469.818,-120.449 
388711.671,4222269.818,-645.714 
388711.671,4222169.818,-638.671 
388711.671,4222069.818,-627.133 
388711.671,4221969.818,-617.779 
388711.671,4221869.818,-604.174 
388711.671,4221769.818,-599.84 
388711.671,4221669.818,-592.974 
388711.671,4221569.818,-585.353 
388711.671,4221469.818,-578.42 
388711.671,4221369.818,-569.657 
388711.671,4221269.818,-560.584 
388711.671,4221169.818,-551.979 
388711.671,4221069.818,-544.046 
388711.671,4220969.818,-534.832 
388711.671,4220869.818,-529.648 
388711.671,4220769.818,-521.467 
388711.671,4220669.818,-514.626 
388711.671,4220569.818,-507.56 
388711.671,4220469.818,-501.94 
388711.671,4220369.818,-495.619 
388711.671,4220269.818,-480.507 
388711.671,4220169.818,-474.538 
388711.671,4220069.818,-469.186 
388711.671,4219969.818,-464.984 
388711.671,4219869.818,-461.914 
388711.671,4219769.818,-458.583 
388711.671,4219669.818,-454.946 
388711.671,4219569.818,-450.924 
388711.671,4219469.818,-446.98 
388711.671,4219369.818,-442.428 
388711.671,4219269.818,-438.376 
388711.671,4219169.818,-433.706 
388711.671,4219069.818,-427.77 
388711.671,4218969.818,-421.536 
388711.671,4218869.818,-420.312 
388711.671,4218769.818,-415.75 
388711.671,4218669.818,-411.097 
388711.671,4218569.818,-404.286 
388711.671,4218469.818,-398.211 
388711.671,4218369.818,-392.408 
388711.671,4218269.818,-388.276 
388711.671,4218169.818,-381.159 
388711.671,4218069.818,-376.602 
388711.671,4217969.818,-371.096 
388711.671,4217869.818,-365.754 
388711.671,4217769.818,-360.494 
388711.671,4217669.818,-354.744 
388711.671,4217569.818,-350.341 
388711.671,4217469.818,-345.4 
388711.671,4217369.818,-340.48 
388711.671,4217269.818,-333.755 
388711.671,4217169.818,-328.222 
388711.671,4217069.818,-323.371 
388711.671,4216969.818,-316.593 
388711.671,4216869.818,-309.258 
388711.671,4216769.818,-303.998 
388711.671,4216669.818,-298.111 
388711.671,4216569.818,-291.472 
388711.671,4216469.818,-284.859 
388711.671,4216369.818,-279.638 
388711.671,4216269.818,-274.685 
388711.671,4216169.818,-269.269 
388711.671,4216069.818,-261.622 
388711.671,4215969.818,-252.971 
388711.671,4215869.818,-244.453 
388711.671,4215769.818,-236.185 
388711.671,4215669.818,-228.372 
388711.671,4215569.818,-220.888 
388711.671,4215469.818,-213.407 
388711.671,4215369.818,-205.827 
388711.671,4215269.818,-199.347 
388711.671,4215169.818,-192.282 
388711.671,4215069.818,-186.436 
388711.671,4214969.818,-180.9 
388711.671,4214869.818,-175.326 
388711.671,4214769.818,-170.286 
