371717.943,4228375.240,-1041.759 
371717.943,4228175.240,-1022.242 
371717.943,4227975.240,-1006.838 
371717.943,4227775.240,-990.788 
371717.943,4227575.240,-975.84 
371717.943,4227375.240,-956.328 
371717.943,4227175.240,-935.606 
371717.943,4226975.240,-915.634 
371717.943,4226775.240,-897.006 
371717.943,4226575.240,-866.765 
371717.943,4226375.240,-822.302 
371717.943,4226175.240,-794.206 
371717.943,4225975.240,-763.251 
371717.943,4225775.240,-719.932 
371717.943,4225575.240,-673.244 
371717.943,4225375.240,-632.405 
371717.943,4225175.240,-595.472 
371717.943,4224975.240,-570.739 
371917.943,4237975.240,-1477.723 
371917.943,4237775.240,-1474.095 
371917.943,4237575.240,-1475.42 
371917.943,4237375.240,-1472.167 
371917.943,4237175.240,-1465.429 
371917.943,4236975.240,-1457.472 
371917.943,4236775.240,-1458.057 
371917.943,4236575.240,-1454.344 
371917.943,4236375.240,-1450.676 
371917.943,4236175.240,-1448.211 
371917.943,4235975.240,-1447.076 
371917.943,4235775.240,-1444.082 
371917.943,4235575.240,-1438.636 
371917.943,4235375.240,-1435.736 
371917.943,4235175.240,-1434.12 
371917.943,4234975.240,-1429.828 
371917.943,4234775.240,-1433.153 
371917.943,4234575.240,-1433.426 
371917.943,4234375.240,-1429.537 
371917.943,4234175.240,-1429.247 
371917.943,4233975.240,-1424.255 
371917.943,4233775.240,-1420.684 
371917.943,4233575.240,-1416.666 
371917.943,4233375.240,-1412.681 
371917.943,4233175.240,-1411.118 
371917.943,4232975.240,-1407.884 
371917.943,4232775.240,-1404.193 
371917.943,4232575.240,-1401.425 
371917.943,4232375.240,-1393.982 
371917.943,4232175.240,-1392.116 
371917.943,4231975.240,-1384.887 
371917.943,4231775.240,-1380.035 
371917.943,4231575.240,-1372.383 
371917.943,4231375.240,-1368.375 
371917.943,4231175.240,-1363.591 
371917.943,4230975.240,-1352.958 
371917.943,4230775.240,-1345.8 
371917.943,4230575.240,-1338.976 
371917.943,4230375.240,-1328.795 
371917.943,4230175.240,-1321.141 
371917.943,4229975.240,-1315.886 
371917.943,4229775.240,-1310.125 
371917.943,4229575.240,-1289.801 
371917.943,4229375.240,-1234.952 
371917.943,4229175.240,-1149.867 
371917.943,4228975.240,-1103.834 
371917.943,4228775.240,-1070.663 
371917.943,4228575.240,-1056.964 
371917.943,4228375.240,-1035.816 
371917.943,4228175.240,-1020.361 
371917.943,4227975.240,-1006.469 
371917.943,4227775.240,-992.559 
371917.943,4227575.240,-980.296 
371917.943,4227375.240,-962.336 
371917.943,4227175.240,-942.043 
371917.943,4226975.240,-919.925 
371917.943,4226775.240,-893.339 
371917.943,4226575.240,-857.29 
371917.943,4226375.240,-816.619 
371917.943,4226175.240,-775.799 
371917.943,4225975.240,-744.454 
371917.943,4225775.240,-716.212 
371917.943,4225575.240,-679.587 
371917.943,4225375.240,-644.981 
371917.943,4225175.240,-620.861 
371917.943,4224975.240,-594.579 
371917.943,4224775.240,-565.27 
372117.943,4237975.240,-1484.287 
372117.943,4237775.240,-1476.159 
372117.943,4237575.240,-1473.798 
372117.943,4237375.240,-1464.338 
372117.943,4237175.240,-1465.047 
372117.943,4236975.240,-1462.138 
372117.943,4236775.240,-1456.937 
372117.943,4236575.240,-1455.007 
372117.943,4236375.240,-1452.419 
372117.943,4236175.240,-1450.807 
372117.943,4235975.240,-1446.037 
372117.943,4235775.240,-1440.898 
372117.943,4235575.240,-1440.935 
372117.943,4235375.240,-1433.524 
372117.943,4235175.240,-1435.306 
372117.943,4234975.240,-1428.908 
372117.943,4234775.240,-1427.736 
372117.943,4234575.240,-1424.241 
372117.943,4234375.240,-1427.014 
372117.943,4234175.240,-1428.216 
372117.943,4233975.240,-1423.67 
372117.943,4233775.240,-1418.483 
372117.943,4233575.240,-1417.278 
372117.943,4233375.240,-1413.415 
372117.943,4233175.240,-1411.42 
372117.943,4232975.240,-1409.954 
372117.943,4232775.240,-1407.878 
372117.943,4232575.240,-1402.777 
372117.943,4232375.240,-1396.709 
372117.943,4232175.240,-1390.46 
372117.943,4231975.240,-1384.96 
372117.943,4231775.240,-1379.918 
372117.943,4231575.240,-1381.058 
372117.943,4231375.240,-1369.512 
372117.943,4231175.240,-1363.85 
372117.943,4230975.240,-1356.807 
372117.943,4230775.240,-1344.966 
372117.943,4230575.240,-1335.233 
372117.943,4230375.240,-1320.398 
372117.943,4230175.240,-1313.432 
372117.943,4229975.240,-1305.208 
372117.943,4229775.240,-1307.49 
372117.943,4229575.240,-1267.87 
372117.943,4229375.240,-1204.906 
372117.943,4229175.240,-1165.514 
372117.943,4228975.240,-1112.737 
372117.943,4228775.240,-1077.879 
372117.943,4228575.240,-1059.337 
372117.943,4228375.240,-1043.868 
372117.943,4228175.240,-1027.48 
372117.943,4227975.240,-1011.403 
372117.943,4227775.240,-994.696 
372117.943,4227575.240,-980.865 
372117.943,4227375.240,-963.39 
372117.943,4227175.240,-941.547 
372117.943,4226975.240,-911.372 
372117.943,4226775.240,-877.54 
372117.943,4226575.240,-833.172 
372117.943,4226375.240,-806.669 
372117.943,4226175.240,-781.039 
372117.943,4225975.240,-761.022 
372117.943,4225775.240,-731.775 
372117.943,4225575.240,-699.169 
372117.943,4225375.240,-674.17 
372117.943,4225175.240,-658.23 
372117.943,4224975.240,-626.282 
372117.943,4224775.240,-586.844 
372117.943,4224575.240,-564.524 
372317.943,4237975.240,-1478.331 
372317.943,4237775.240,-1479.388 
372317.943,4237575.240,-1468.955 
372317.943,4237375.240,-1467.912 
372317.943,4237175.240,-1466.143 
372317.943,4236975.240,-1461.543 
372317.943,4236775.240,-1457.509 
372317.943,4236575.240,-1455.824 
372317.943,4236375.240,-1452.022 
372317.943,4236175.240,-1448.823 
372317.943,4235975.240,-1446.729 
372317.943,4235775.240,-1440.973 
372317.943,4235575.240,-1438.072 
372317.943,4235375.240,-1437.056 
372317.943,4235175.240,-1431.055 
372317.943,4234975.240,-1427.554 
372317.943,4234775.240,-1428.739 
372317.943,4234575.240,-1427.364 
372317.943,4234375.240,-1420.855 
372317.943,4234175.240,-1423.024 
372317.943,4233975.240,-1417.458 
372317.943,4233775.240,-1416.093 
372317.943,4233575.240,-1416.558 
372317.943,4233375.240,-1414.016 
372317.943,4233175.240,-1412.186 
372317.943,4232975.240,-1415.047 
372317.943,4232775.240,-1406.852 
372317.943,4232575.240,-1404.608 
372317.943,4232375.240,-1397.119 
372317.943,4232175.240,-1401.93 
372317.943,4231975.240,-1397.514 
372317.943,4231775.240,-1390.169 
372317.943,4231575.240,-1381.616 
372317.943,4231375.240,-1373.403 
372317.943,4231175.240,-1367.726 
372317.943,4230975.240,-1355.615 
372317.943,4230775.240,-1324.883 
372317.943,4230575.240,-1331.659 
372317.943,4230375.240,-1313.243 
372317.943,4230175.240,-1300.929 
372317.943,4229975.240,-1302.417 
372317.943,4229775.240,-1300.085 
372317.943,4229575.240,-1275.487 
372317.943,4229375.240,-1200.442 
372317.943,4229175.240,-1155.746 
372317.943,4228975.240,-1112.344 
372317.943,4228775.240,-1097.967 
372317.943,4228575.240,-1077.547 
372317.943,4228375.240,-1056.461 
372317.943,4228175.240,-1035.171 
372317.943,4227975.240,-1020.422 
372317.943,4227775.240,-1000.801 
372317.943,4227575.240,-977.218 
372317.943,4227375.240,-961.358 
372317.943,4227175.240,-932.75 
372317.943,4226975.240,-893.536 
372317.943,4226775.240,-861.176 
372317.943,4226575.240,-836.983 
372317.943,4226375.240,-821.151 
372317.943,4226175.240,-799.89 
372317.943,4225975.240,-779.879 
372317.943,4225775.240,-756.213 
372317.943,4225575.240,-725.356 
372317.943,4225375.240,-719.768 
372317.943,4225175.240,-696.224 
372317.943,4224975.240,-657.403 
372317.943,4224775.240,-639.645 
372317.943,4224575.240,-605.635 
372317.943,4224375.240,-586.589 
372517.943,4237975.240,-1485.345 
372517.943,4237775.240,-1475.75 
372517.943,4237575.240,-1473.822 
372517.943,4237375.240,-1468.991 
372517.943,4237175.240,-1465.325 
372517.943,4236975.240,-1464.473 
372517.943,4236775.240,-1458.268 
372517.943,4236575.240,-1456.738 
372517.943,4236375.240,-1452.507 
372517.943,4236175.240,-1449.815 
372517.943,4235975.240,-1446.58 
372517.943,4235775.240,-1440.713 
372517.943,4235575.240,-1436.917 
372517.943,4235375.240,-1434.335 
372517.943,4235175.240,-1429.548 
372517.943,4234975.240,-1429.408 
372517.943,4234775.240,-1426.951 
372517.943,4234575.240,-1424.294 
372517.943,4234375.240,-1423.576 
372517.943,4234175.240,-1420.389 
372517.943,4233975.240,-1418.306 
372517.943,4233775.240,-1416.301 
372517.943,4233575.240,-1414.938 
372517.943,4233375.240,-1412.876 
372517.943,4233175.240,-1416.413 
372517.943,4232975.240,-1410.344 
372517.943,4232775.240,-1407.464 
372517.943,4232575.240,-1405.279 
372517.943,4232375.240,-1401.195 
372517.943,4232175.240,-1395.814 
372517.943,4231975.240,-1389.005 
372517.943,4231775.240,-1382.17 
372517.943,4231575.240,-1375.625 
372517.943,4231375.240,-1368.681 
372517.943,4231175.240,-1354.163 
372517.943,4230975.240,-1342.178 
372517.943,4230775.240,-1314.987 
372517.943,4230575.240,-1282.44 
372517.943,4230375.240,-1299.252 
372517.943,4230175.240,-1282.2 
372517.943,4229975.240,-1254.927 
372517.943,4229775.240,-1252.635 
372517.943,4229575.240,-1251.287 
372517.943,4229375.240,-1234.999 
372517.943,4229175.240,-1199.807 
372517.943,4228975.240,-1142.655 
372517.943,4228775.240,-1116.467 
372517.943,4228575.240,-1079.575 
372517.943,4228375.240,-1056.468 
372517.943,4228175.240,-1034.314 
372517.943,4227975.240,-1014.844 
372517.943,4227775.240,-989.392 
372517.943,4227575.240,-967.55 
372517.943,4227375.240,-945.918 
372517.943,4227175.240,-918.318 
372517.943,4226975.240,-882.331 
372517.943,4226775.240,-859.268 
372517.943,4226575.240,-839.112 
372517.943,4226375.240,-825.995 
372517.943,4226175.240,-813.247 
372517.943,4225975.240,-800.192 
372517.943,4225775.240,-779.095 
372517.943,4225575.240,-760.162 
372517.943,4225375.240,-752.152 
372517.943,4225175.240,-722.869 
372517.943,4224975.240,-706.43 
372517.943,4224775.240,-687.246 
372517.943,4224575.240,-648.809 
372517.943,4224375.240,-630.293 
372517.943,4224175.240,-611.737 
372517.943,4223975.240,-598.275 
372517.943,4223775.240,-600.427 
372717.943,4237975.240,-1485.625 
372717.943,4237775.240,-1480.299 
372717.943,4237575.240,-1471.984 
372717.943,4237375.240,-1473.155 
372717.943,4237175.240,-1465.419 
372717.943,4236975.240,-1462.843 
372717.943,4236775.240,-1459.276 
372717.943,4236575.240,-1457.687 
372717.943,4236375.240,-1454.783 
372717.943,4236175.240,-1449.901 
372717.943,4235975.240,-1447.436 
372717.943,4235775.240,-1439.84 
372717.943,4235575.240,-1439.512 
372717.943,4235375.240,-1435.142 
372717.943,4235175.240,-1432.936 
372717.943,4234975.240,-1430.14 
372717.943,4234775.240,-1433.506 
372717.943,4234575.240,-1425.995 
372717.943,4234375.240,-1424.643 
372717.943,4234175.240,-1421.511 
372717.943,4233975.240,-1421.24 
372717.943,4233775.240,-1422.27 
372717.943,4233575.240,-1417.654 
372717.943,4233375.240,-1419.573 
372717.943,4233175.240,-1415.977 
372717.943,4232975.240,-1415.23 
372717.943,4232775.240,-1407.187 
372717.943,4232575.240,-1406.622 
372717.943,4232375.240,-1405.541 
372717.943,4232175.240,-1388.252 
372717.943,4231975.240,-1376.16 
372717.943,4231775.240,-1357.723 
372717.943,4231575.240,-1346.005 
372717.943,4231375.240,-1343.657 
372717.943,4231175.240,-1317.74 
372717.943,4230975.240,-1303.401 
372717.943,4230775.240,-1276.654 
372717.943,4230575.240,-1242.915 
372717.943,4230375.240,-1226.87 
372717.943,4230175.240,-1198.54 
372717.943,4229975.240,-1177.359 
372717.943,4229775.240,-1172.277 
372717.943,4229575.240,-1170.866 
372717.943,4229375.240,-1160.254 
372717.943,4229175.240,-1156.565 
372717.943,4228975.240,-1178.815 
372717.943,4228775.240,-1137.526 
372717.943,4228575.240,-1094.864 
372717.943,4228375.240,-1039.596 
372717.943,4228175.240,-1010.513 
372717.943,4227975.240,-989.679 
372717.943,4227775.240,-970.337 
372717.943,4227575.240,-938.411 
372717.943,4227375.240,-919.93 
372717.943,4227175.240,-901.416 
372717.943,4226975.240,-878.918 
372717.943,4226775.240,-862.713 
372717.943,4226575.240,-848.612 
372717.943,4226375.240,-834.339 
372717.943,4226175.240,-821.82 
372717.943,4225975.240,-808.096 
372717.943,4225775.240,-793.02 
372717.943,4225575.240,-774.477 
372717.943,4225375.240,-755.459 
372717.943,4225175.240,-741.221 
372717.943,4224975.240,-732.602 
372717.943,4224775.240,-713.639 
372717.943,4224575.240,-699.237 
372717.943,4224375.240,-675.456 
372717.943,4224175.240,-656.477 
372717.943,4223975.240,-639.282 
372717.943,4223775.240,-603.176 
372917.943,4237975.240,-1484.984 
372917.943,4237775.240,-1472.93 
372917.943,4237575.240,-1473.971 
372917.943,4237375.240,-1473.853 
372917.943,4237175.240,-1466.889 
372917.943,4236975.240,-1461.245 
372917.943,4236775.240,-1461.009 
372917.943,4236575.240,-1457.862 
372917.943,4236375.240,-1453.746 
372917.943,4236175.240,-1451.315 
372917.943,4235975.240,-1448.285 
372917.943,4235775.240,-1443.771 
372917.943,4235575.240,-1439.126 
372917.943,4235375.240,-1434.633 
372917.943,4235175.240,-1436.384 
372917.943,4234975.240,-1429.568 
372917.943,4234775.240,-1428.209 
372917.943,4234575.240,-1426.429 
372917.943,4234375.240,-1422.825 
372917.943,4234175.240,-1421.636 
372917.943,4233975.240,-1421.395 
372917.943,4233775.240,-1423.396 
372917.943,4233575.240,-1420.322 
372917.943,4233375.240,-1420.826 
372917.943,4233175.240,-1417.714 
372917.943,4232975.240,-1416.917 
372917.943,4232775.240,-1415.677 
372917.943,4232575.240,-1414.385 
372917.943,4232375.240,-1386.003 
372917.943,4232175.240,-1350.413 
372917.943,4231975.240,-1335.585 
372917.943,4231775.240,-1322.779 
372917.943,4231575.240,-1307.788 
372917.943,4231375.240,-1281.229 
372917.943,4231175.240,-1258.733 
372917.943,4230975.240,-1244.711 
372917.943,4230775.240,-1214.93 
372917.943,4230575.240,-1194.031 
372917.943,4230375.240,-1178.639 
372917.943,4230175.240,-1143.602 
372917.943,4229975.240,-1134.575 
372917.943,4229775.240,-1125.387 
372917.943,4229575.240,-1112.395 
372917.943,4229375.240,-1100.887 
372917.943,4229175.240,-1103.895 
372917.943,4228975.240,-1154.868 
372917.943,4228775.240,-1152.741 
372917.943,4228575.240,-1116.43 
372917.943,4228375.240,-1057.171 
372917.943,4228175.240,-1006.711 
372917.943,4227975.240,-984.073 
372917.943,4227775.240,-959.224 
372917.943,4227575.240,-934.139 
372917.943,4227375.240,-914.255 
372917.943,4227175.240,-896.124 
372917.943,4226975.240,-881.045 
372917.943,4226775.240,-867.189 
372917.943,4226575.240,-852.569 
372917.943,4226375.240,-839.994 
372917.943,4226175.240,-826.304 
372917.943,4225975.240,-811.487 
372917.943,4225775.240,-796.85 
372917.943,4225575.240,-781.007 
372917.943,4225375.240,-768.352 
372917.943,4225175.240,-756.06 
372917.943,4224975.240,-742.255 
372917.943,4224775.240,-725.189 
372917.943,4224575.240,-708.856 
372917.943,4224375.240,-688.377 
372917.943,4224175.240,-670.293 
372917.943,4223975.240,-640.162 
372917.943,4223775.240,-591.349 
373117.943,4237975.240,-1478.016 
373117.943,4237775.240,-1473.047 
373117.943,4237575.240,-1471.235 
373117.943,4237375.240,-1462.378 
373117.943,4237175.240,-1470.256 
373117.943,4236975.240,-1462.386 
373117.943,4236775.240,-1459.159 
373117.943,4236575.240,-1457.314 
373117.943,4236375.240,-1454.787 
373117.943,4236175.240,-1452.405 
373117.943,4235975.240,-1447.607 
373117.943,4235775.240,-1444.682 
373117.943,4235575.240,-1443.669 
373117.943,4235375.240,-1438.677 
373117.943,4235175.240,-1436.868 
373117.943,4234975.240,-1431.198 
373117.943,4234775.240,-1430.499 
373117.943,4234575.240,-1430.171 
373117.943,4234375.240,-1426.73 
373117.943,4234175.240,-1427.667 
373117.943,4233975.240,-1422.371 
373117.943,4233775.240,-1423.364 
373117.943,4233575.240,-1422.581 
373117.943,4233375.240,-1422.259 
373117.943,4233175.240,-1419.871 
373117.943,4232975.240,-1419.116 
373117.943,4232775.240,-1418.149 
373117.943,4232575.240,-1416.338 
373117.943,4232375.240,-1396.592 
373117.943,4232175.240,-1379.327 
373117.943,4231975.240,-1377.87 
373117.943,4231775.240,-1362.165 
373117.943,4231575.240,-1340.115 
373117.943,4231375.240,-1311.604 
373117.943,4231175.240,-1247.536 
373117.943,4230975.240,-1213.617 
373117.943,4230775.240,-1195.072 
373117.943,4230575.240,-1179.992 
373117.943,4230375.240,-1165.351 
373117.943,4230175.240,-1135.391 
373117.943,4229975.240,-1098.541 
373117.943,4229775.240,-1085.77 
373117.943,4229575.240,-1067.223 
373117.943,4229375.240,-1046.329 
373117.943,4229175.240,-1048.561 
373117.943,4228975.240,-1094.752 
373117.943,4228775.240,-1126.358 
373117.943,4228575.240,-1132.369 
373117.943,4228375.240,-1064.743 
373117.943,4228175.240,-1021.673 
373117.943,4227975.240,-990.705 
373117.943,4227775.240,-969.338 
373117.943,4227575.240,-950.576 
373117.943,4227375.240,-926.758 
373117.943,4227175.240,-906.784 
373117.943,4226975.240,-886.252 
373117.943,4226775.240,-873.633 
373117.943,4226575.240,-859.478 
373117.943,4226375.240,-846.482 
373117.943,4226175.240,-830.677 
373117.943,4225975.240,-813.661 
373117.943,4225775.240,-795.492 
373117.943,4225575.240,-781.088 
373117.943,4225375.240,-769.914 
373117.943,4225175.240,-757.04 
373117.943,4224975.240,-746.298 
373117.943,4224775.240,-730.09 
373117.943,4224575.240,-717.082 
373117.943,4224375.240,-698.714 
373117.943,4224175.240,-670.372 
373117.943,4223975.240,-637.176 
373117.943,4223775.240,-604.189 
373117.943,4223575.240,-586.097 
373117.943,4223375.240,-582.792 
373317.943,4237975.240,-1488.482 
373317.943,4237775.240,-1482.53 
373317.943,4237575.240,-1474.319 
373317.943,4237375.240,-1468.579 
373317.943,4237175.240,-1466.942 
373317.943,4236975.240,-1461.187 
373317.943,4236775.240,-1463.027 
373317.943,4236575.240,-1457.702 
373317.943,4236375.240,-1455.591 
373317.943,4236175.240,-1452.231 
373317.943,4235975.240,-1448.448 
373317.943,4235775.240,-1445.021 
373317.943,4235575.240,-1444.272 
373317.943,4235375.240,-1437.721 
373317.943,4235175.240,-1436.33 
373317.943,4234975.240,-1431.031 
373317.943,4234775.240,-1429.032 
373317.943,4234575.240,-1428.817 
373317.943,4234375.240,-1428.231 
373317.943,4234175.240,-1424.541 
373317.943,4233975.240,-1425.744 
373317.943,4233775.240,-1423.729 
373317.943,4233575.240,-1423.122 
373317.943,4233375.240,-1424.273 
373317.943,4233175.240,-1422.282 
373317.943,4232975.240,-1421.485 
373317.943,4232775.240,-1416.692 
373317.943,4232575.240,-1417.229 
373317.943,4232375.240,-1415.736 
373317.943,4232175.240,-1418.015 
373317.943,4231975.240,-1415.402 
373317.943,4231775.240,-1390.21 
373317.943,4231575.240,-1363.511 
373317.943,4231375.240,-1329.289 
373317.943,4231175.240,-1300.8 
373317.943,4230975.240,-1252.119 
373317.943,4230775.240,-1216.979 
373317.943,4230575.240,-1180.713 
373317.943,4230375.240,-1162.817 
373317.943,4230175.240,-1140.636 
373317.943,4229975.240,-1096.049 
373317.943,4229775.240,-1065.786 
373317.943,4229575.240,-1058.981 
373317.943,4229375.240,-1040.598 
373317.943,4229175.240,-1026.549 
373317.943,4228975.240,-1038.594 
373317.943,4228775.240,-1049.469 
373317.943,4228575.240,-1041.783 
373317.943,4228375.240,-1053.489 
373317.943,4228175.240,-1063.634 
373317.943,4227975.240,-1002.479 
373317.943,4227775.240,-975.85 
373317.943,4227575.240,-958.236 
373317.943,4227375.240,-938.022 
373317.943,4227175.240,-919.094 
373317.943,4226975.240,-900.175 
373317.943,4226775.240,-882.774 
373317.943,4226575.240,-864.939 
373317.943,4226375.240,-847.466 
373317.943,4226175.240,-828.265 
373317.943,4225975.240,-812.596 
373317.943,4225775.240,-797.545 
373317.943,4225575.240,-784.946 
373317.943,4225375.240,-775.146 
373317.943,4225175.240,-764.693 
373317.943,4224975.240,-757.307 
373317.943,4224775.240,-749.145 
373317.943,4224575.240,-724.544 
373317.943,4224375.240,-706.747 
373317.943,4224175.240,-679.994 
373317.943,4223975.240,-663.668 
373317.943,4223775.240,-642.264 
373317.943,4223575.240,-596.229 
373517.943,4237975.240,-1493.779 
373517.943,4237775.240,-1491.668 
373517.943,4237575.240,-1471.41 
373517.943,4237375.240,-1477.158 
373517.943,4237175.240,-1467.009 
373517.943,4236975.240,-1466.518 
373517.943,4236775.240,-1462.888 
373517.943,4236575.240,-1458.105 
373517.943,4236375.240,-1456.659 
373517.943,4236175.240,-1453.005 
373517.943,4235975.240,-1449.355 
373517.943,4235775.240,-1445.8 
373517.943,4235575.240,-1442.321 
373517.943,4235375.240,-1440.579 
373517.943,4235175.240,-1436.502 
373517.943,4234975.240,-1434.819 
373517.943,4234775.240,-1431.868 
373517.943,4234575.240,-1429.195 
373517.943,4234375.240,-1430.008 
373517.943,4234175.240,-1425.414 
373517.943,4233975.240,-1424.327 
373517.943,4233775.240,-1425.533 
373517.943,4233575.240,-1424.09 
373517.943,4233375.240,-1423.273 
373517.943,4233175.240,-1423.895 
373517.943,4232975.240,-1418.843 
373517.943,4232775.240,-1418.841 
373517.943,4232575.240,-1417.704 
373517.943,4232375.240,-1417.244 
373517.943,4232175.240,-1415.92 
373517.943,4231975.240,-1415.246 
373517.943,4231775.240,-1414.048 
373517.943,4231575.240,-1389.432 
373517.943,4231375.240,-1353.665 
373517.943,4231175.240,-1308.913 
373517.943,4230975.240,-1277.929 
373517.943,4230775.240,-1252.656 
373517.943,4230575.240,-1233.755 
373517.943,4230375.240,-1207.153 
373517.943,4230175.240,-1171.051 
373517.943,4229975.240,-1113.22 
373517.943,4229775.240,-1080.869 
373517.943,4229575.240,-1074.475 
373517.943,4229375.240,-1058.796 
373517.943,4229175.240,-1037.583 
373517.943,4228975.240,-1015.542 
373517.943,4228775.240,-1019.677 
373517.943,4228575.240,-1021.754 
373517.943,4228375.240,-1016.178 
373517.943,4228175.240,-994.54 
373517.943,4227975.240,-978.073 
373517.943,4227775.240,-1002.171 
373517.943,4227575.240,-990.063 
373517.943,4227375.240,-976.224 
373517.943,4227175.240,-938.599 
373517.943,4226975.240,-913.148 
373517.943,4226775.240,-887.916 
373517.943,4226575.240,-870.976 
373517.943,4226375.240,-851.909 
373517.943,4226175.240,-835.078 
373517.943,4225975.240,-822.291 
373517.943,4225775.240,-814.241 
373517.943,4225575.240,-805.035 
373517.943,4225375.240,-782.809 
373517.943,4225175.240,-765.865 
373517.943,4224975.240,-752.266 
373517.943,4224775.240,-741.666 
373517.943,4224575.240,-720.712 
373517.943,4224375.240,-703.172 
373517.943,4224175.240,-681.331 
373517.943,4223975.240,-646.718 
373517.943,4223775.240,-612.221 
373517.943,4223575.240,-571.325 
373717.943,4237975.240,-1488.082 
373717.943,4237775.240,-1480.981 
373717.943,4237575.240,-1479.534 
373717.943,4237375.240,-1469.007 
373717.943,4237175.240,-1467.335 
373717.943,4236975.240,-1466.703 
373717.943,4236775.240,-1459.671 
373717.943,4236575.240,-1459.409 
373717.943,4236375.240,-1456.916 
373717.943,4236175.240,-1453.871 
373717.943,4235975.240,-1451.476 
373717.943,4235775.240,-1448.095 
373717.943,4235575.240,-1442.696 
373717.943,4235375.240,-1441.332 
373717.943,4235175.240,-1437.434 
373717.943,4234975.240,-1434.935 
373717.943,4234775.240,-1434.304 
373717.943,4234575.240,-1430.263 
373717.943,4234375.240,-1428.118 
373717.943,4234175.240,-1430.384 
373717.943,4233975.240,-1427.105 
373717.943,4233775.240,-1427.978 
373717.943,4233575.240,-1425.938 
373717.943,4233375.240,-1426.642 
373717.943,4233175.240,-1422.967 
373717.943,4232975.240,-1419.379 
373717.943,4232775.240,-1418.94 
373717.943,4232575.240,-1417.846 
373717.943,4232375.240,-1418.396 
373717.943,4232175.240,-1417.653 
373717.943,4231975.240,-1423.461 
373717.943,4231775.240,-1416.88 
373717.943,4231575.240,-1399.859 
373717.943,4231375.240,-1358.689 
373717.943,4231175.240,-1314.238 
373717.943,4230975.240,-1286.883 
373717.943,4230775.240,-1265.099 
373717.943,4230575.240,-1242.505 
373717.943,4230375.240,-1217.539 
373717.943,4230175.240,-1161.931 
373717.943,4229975.240,-1115.305 
373717.943,4229775.240,-1092.684 
373717.943,4229575.240,-1078.89 
373717.943,4229375.240,-1065.242 
373717.943,4229175.240,-1041.093 
373717.943,4228975.240,-1017.946 
373717.943,4228775.240,-1006.519 
373717.943,4228575.240,-1007.934 
373717.943,4228375.240,-1004.622 
373717.943,4228175.240,-989.133 
373717.943,4227975.240,-956.129 
373717.943,4227775.240,-947.929 
373717.943,4227575.240,-943.155 
373717.943,4227375.240,-943.237 
373717.943,4227175.240,-941.104 
373717.943,4226975.240,-925.818 
373717.943,4226775.240,-913.799 
373717.943,4226575.240,-895.792 
373717.943,4226375.240,-873.979 
373717.943,4226175.240,-856.024 
373717.943,4225975.240,-831.513 
373717.943,4225775.240,-804.341 
373717.943,4225575.240,-788.805 
373717.943,4225375.240,-772.466 
373717.943,4225175.240,-767.525 
373717.943,4224975.240,-752.396 
373717.943,4224775.240,-738.939 
373717.943,4224575.240,-721.907 
373717.943,4224375.240,-700.044 
373717.943,4224175.240,-665.403 
373717.943,4223975.240,-633.677 
373717.943,4223775.240,-598.895 
373917.943,4237975.240,-1483.703 
373917.943,4237775.240,-1475.358 
373917.943,4237575.240,-1483.03 
373917.943,4237375.240,-1475.338 
373917.943,4237175.240,-1469.663 
373917.943,4236975.240,-1466.987 
373917.943,4236775.240,-1461.882 
373917.943,4236575.240,-1459.294 
373917.943,4236375.240,-1458.049 
373917.943,4236175.240,-1454.275 
373917.943,4235975.240,-1452.969 
373917.943,4235775.240,-1447.49 
373917.943,4235575.240,-1446.56 
373917.943,4235375.240,-1442.099 
373917.943,4235175.240,-1440.095 
373917.943,4234975.240,-1436.213 
373917.943,4234775.240,-1433.811 
373917.943,4234575.240,-1430.721 
373917.943,4234375.240,-1428.23 
373917.943,4234175.240,-1427.944 
373917.943,4233975.240,-1429.159 
373917.943,4233775.240,-1428.306 
373917.943,4233575.240,-1429.847 
373917.943,4233375.240,-1428.611 
373917.943,4233175.240,-1425.118 
373917.943,4232975.240,-1420.046 
373917.943,4232775.240,-1418.316 
373917.943,4232575.240,-1415.974 
373917.943,4232375.240,-1415.594 
373917.943,4232175.240,-1417.76 
373917.943,4231975.240,-1419.693 
373917.943,4231775.240,-1414.615 
373917.943,4231575.240,-1409.277 
373917.943,4231375.240,-1354.329 
373917.943,4231175.240,-1312.805 
373917.943,4230975.240,-1285.282 
373917.943,4230775.240,-1261.387 
373917.943,4230575.240,-1242.739 
373917.943,4230375.240,-1203.566 
373917.943,4230175.240,-1160.671 
373917.943,4229975.240,-1117.309 
373917.943,4229775.240,-1097.222 
373917.943,4229575.240,-1082.6 
373917.943,4229375.240,-1065.104 
373917.943,4229175.240,-1045.537 
373917.943,4228975.240,-1022.243 
373917.943,4228775.240,-997.954 
373917.943,4228575.240,-984.638 
373917.943,4228375.240,-993.031 
373917.943,4228175.240,-969.261 
373917.943,4227975.240,-948.399 
373917.943,4227775.240,-927.108 
373917.943,4227575.240,-925.027 
373917.943,4227375.240,-921.764 
373917.943,4227175.240,-911.912 
373917.943,4226975.240,-898.174 
373917.943,4226775.240,-891.144 
373917.943,4226575.240,-896.84 
373917.943,4226375.240,-862.442 
373917.943,4226175.240,-844.12 
373917.943,4225975.240,-819.343 
373917.943,4225775.240,-804.119 
373917.943,4225575.240,-792.431 
373917.943,4225375.240,-786.152 
373917.943,4225175.240,-767.599 
373917.943,4224975.240,-753.679 
373917.943,4224775.240,-739.18 
373917.943,4224575.240,-720.861 
373917.943,4224375.240,-702.801 
373917.943,4224175.240,-681.83 
373917.943,4223975.240,-642.893 
373917.943,4223775.240,-612.146 
373917.943,4223575.240,-580.964 
373917.943,4223175.240,-563.745 
374117.943,4237975.240,-1489.818 
374117.943,4237775.240,-1482.259 
374117.943,4237575.240,-1474.788 
374117.943,4237375.240,-1473.924 
374117.943,4237175.240,-1469.112 
374117.943,4236975.240,-1464.66 
374117.943,4236775.240,-1461.714 
374117.943,4236575.240,-1460.63 
374117.943,4236375.240,-1459.915 
374117.943,4236175.240,-1456.872 
374117.943,4235975.240,-1454.498 
374117.943,4235775.240,-1452.792 
374117.943,4235575.240,-1446.028 
374117.943,4235375.240,-1445.631 
374117.943,4235175.240,-1439.715 
374117.943,4234975.240,-1436.133 
374117.943,4234775.240,-1437.851 
374117.943,4234575.240,-1430.692 
374117.943,4234375.240,-1430.806 
374117.943,4234175.240,-1429.546 
374117.943,4233975.240,-1428.762 
374117.943,4233775.240,-1429.905 
374117.943,4233575.240,-1429.861 
374117.943,4233375.240,-1426.417 
374117.943,4233175.240,-1425.365 
374117.943,4232975.240,-1420.529 
374117.943,4232775.240,-1417.529 
374117.943,4232575.240,-1416.635 
374117.943,4232375.240,-1413.305 
374117.943,4232175.240,-1414.297 
374117.943,4231975.240,-1416.06 
374117.943,4231775.240,-1407.805 
374117.943,4231575.240,-1362.512 
374117.943,4231375.240,-1323.887 
374117.943,4231175.240,-1292.169 
374117.943,4230975.240,-1279.291 
374117.943,4230775.240,-1257.911 
374117.943,4230575.240,-1235.744 
374117.943,4230375.240,-1195.41 
374117.943,4230175.240,-1144.684 
374117.943,4229975.240,-1110.982 
374117.943,4229775.240,-1091.651 
374117.943,4229575.240,-1077.483 
374117.943,4229375.240,-1058.667 
374117.943,4229175.240,-1028.381 
374117.943,4228975.240,-1016.373 
374117.943,4228775.240,-996.557 
374117.943,4228575.240,-968.489 
374117.943,4228375.240,-950.99 
374117.943,4228175.240,-945.242 
374117.943,4227975.240,-934.996 
374117.943,4227775.240,-923.848 
374117.943,4227575.240,-913.198 
374117.943,4227375.240,-905.202 
374117.943,4227175.240,-895.049 
374117.943,4226975.240,-873.836 
374117.943,4226775.240,-872.03 
374117.943,4226575.240,-866.699 
374117.943,4226375.240,-873.357 
374117.943,4226175.240,-852.798 
374117.943,4225975.240,-834.784 
374117.943,4225775.240,-819.28 
374117.943,4225575.240,-796.716 
374117.943,4225375.240,-782.243 
374117.943,4225175.240,-768.637 
374117.943,4224975.240,-756.052 
374117.943,4224775.240,-741.892 
374117.943,4224575.240,-727.331 
374117.943,4224375.240,-711.462 
374117.943,4224175.240,-690.225 
374117.943,4223975.240,-659.601 
374117.943,4223775.240,-640.168 
374117.943,4223575.240,-611.589 
374117.943,4223375.240,-590.045 
374117.943,4223175.240,-563.576 
374317.943,4237975.240,-1497.446 
374317.943,4237775.240,-1487.386 
374317.943,4237575.240,-1471.318 
374317.943,4237375.240,-1473.367 
374317.943,4237175.240,-1466.958 
374317.943,4236975.240,-1467.971 
374317.943,4236775.240,-1465.577 
374317.943,4236575.240,-1461.96 
374317.943,4236375.240,-1459.797 
374317.943,4236175.240,-1457.441 
374317.943,4235975.240,-1456.565 
374317.943,4235775.240,-1449.752 
374317.943,4235575.240,-1447.408 
374317.943,4235375.240,-1443.345 
374317.943,4235175.240,-1443.869 
374317.943,4234975.240,-1436.344 
374317.943,4234775.240,-1435.189 
374317.943,4234575.240,-1431.762 
374317.943,4234375.240,-1430.346 
374317.943,4234175.240,-1429.603 
374317.943,4233975.240,-1431.856 
374317.943,4233775.240,-1430.367 
374317.943,4233575.240,-1432.723 
374317.943,4233375.240,-1427.553 
374317.943,4233175.240,-1422.709 
374317.943,4232975.240,-1419.556 
374317.943,4232775.240,-1415.167 
374317.943,4232575.240,-1412.122 
374317.943,4232375.240,-1411.803 
374317.943,4232175.240,-1411.695 
374317.943,4231975.240,-1404.584 
374317.943,4231775.240,-1383.592 
374317.943,4231575.240,-1333.029 
374317.943,4231375.240,-1299.928 
374317.943,4231175.240,-1275.574 
374317.943,4230975.240,-1261.328 
374317.943,4230775.240,-1232.079 
374317.943,4230575.240,-1208.241 
374317.943,4230375.240,-1172.326 
374317.943,4230175.240,-1135.821 
374317.943,4229975.240,-1107.181 
374317.943,4229775.240,-1080.166 
374317.943,4229575.240,-1059.724 
374317.943,4229375.240,-1038.003 
374317.943,4229175.240,-1010.516 
374317.943,4228975.240,-982.851 
374317.943,4228775.240,-970.967 
374317.943,4228575.240,-951.165 
374317.943,4228375.240,-921.877 
374317.943,4228175.240,-915.393 
374317.943,4227975.240,-921.436 
374317.943,4227775.240,-916.114 
374317.943,4227575.240,-902.678 
374317.943,4227375.240,-892.823 
374317.943,4227175.240,-878.223 
374317.943,4226975.240,-864.44 
374317.943,4226775.240,-844.284 
374317.943,4226575.240,-842.536 
374317.943,4226375.240,-841.547 
374317.943,4226175.240,-858.053 
374317.943,4225975.240,-833.715 
374317.943,4225775.240,-814.097 
374317.943,4225575.240,-796.848 
374317.943,4225375.240,-780.682 
374317.943,4225175.240,-769.156 
374317.943,4224975.240,-756.273 
374317.943,4224775.240,-744.224 
374317.943,4224575.240,-730.519 
374317.943,4224375.240,-717.335 
374317.943,4224175.240,-701.332 
374317.943,4223975.240,-689.181 
374317.943,4223775.240,-661.183 
374317.943,4223575.240,-635.884 
374317.943,4223375.240,-612.443 
374317.943,4223175.240,-571.62 
374517.943,4237975.240,-1485.15 
374517.943,4237775.240,-1478.264 
374517.943,4237575.240,-1484.921 
374517.943,4237375.240,-1479.639 
374517.943,4237175.240,-1468.15 
374517.943,4236975.240,-1466.523 
374517.943,4236775.240,-1464.943 
374517.943,4236575.240,-1464.318 
374517.943,4236375.240,-1460.281 
374517.943,4236175.240,-1456.765 
374517.943,4235975.240,-1455.144 
374517.943,4235775.240,-1452.021 
374517.943,4235575.240,-1448.627 
374517.943,4235375.240,-1445.041 
374517.943,4235175.240,-1442.561 
374517.943,4234975.240,-1438.373 
374517.943,4234775.240,-1434.353 
374517.943,4234575.240,-1433.633 
374517.943,4234375.240,-1431.825 
374517.943,4234175.240,-1430.015 
374517.943,4233975.240,-1430.96 
374517.943,4233775.240,-1432.318 
374517.943,4233575.240,-1429.938 
374517.943,4233375.240,-1426.447 
374517.943,4233175.240,-1421.442 
374517.943,4232975.240,-1411.858 
374517.943,4232775.240,-1410.653 
374517.943,4232575.240,-1405.294 
374517.943,4232375.240,-1405.085 
374517.943,4232175.240,-1403.002 
374517.943,4231975.240,-1363.601 
374517.943,4231775.240,-1356.057 
374517.943,4231575.240,-1323.33 
374517.943,4231375.240,-1308.515 
374517.943,4231175.240,-1287.234 
374517.943,4230975.240,-1265.015 
374517.943,4230775.240,-1235.577 
374517.943,4230575.240,-1187.71 
374517.943,4230375.240,-1155.724 
374517.943,4230175.240,-1102.075 
374517.943,4229975.240,-1081.067 
374517.943,4229775.240,-1068.024 
374517.943,4229575.240,-1049.495 
374517.943,4229375.240,-1008.112 
374517.943,4229175.240,-974.907 
374517.943,4228975.240,-950.33 
374517.943,4228775.240,-946.39 
374517.943,4228575.240,-924.976 
374517.943,4228375.240,-904.938 
374517.943,4228175.240,-895.481 
374517.943,4227975.240,-895.098 
374517.943,4227775.240,-904.949 
374517.943,4227575.240,-898.217 
374517.943,4227375.240,-877.928 
374517.943,4227175.240,-865.867 
374517.943,4226975.240,-856.339 
374517.943,4226775.240,-842.499 
374517.943,4226575.240,-829.455 
374517.943,4226375.240,-825.548 
374517.943,4226175.240,-827.045 
374517.943,4225975.240,-838.717 
374517.943,4225775.240,-813.74 
374517.943,4225575.240,-799.31 
374517.943,4225375.240,-777.487 
374517.943,4225175.240,-764.814 
374517.943,4224975.240,-752.963 
374517.943,4224775.240,-743.635 
374517.943,4224575.240,-730.304 
374517.943,4224375.240,-726.31 
374517.943,4224175.240,-705.137 
374517.943,4223975.240,-685.015 
374517.943,4223775.240,-658.532 
374517.943,4223575.240,-643.197 
374517.943,4223375.240,-622.836 
374517.943,4223175.240,-581.452 
374717.943,4237975.240,-1484.172 
374717.943,4237775.240,-1485.396 
374717.943,4237575.240,-1479.207 
374717.943,4237375.240,-1471.858 
374717.943,4237175.240,-1472.212 
374717.943,4236975.240,-1468.178 
374717.943,4236775.240,-1464.643 
374717.943,4236575.240,-1463.461 
374717.943,4236375.240,-1460.783 
374717.943,4236175.240,-1458.174 
374717.943,4235975.240,-1455.657 
374717.943,4235775.240,-1453.531 
374717.943,4235575.240,-1447.963 
374717.943,4235375.240,-1443.379 
374717.943,4235175.240,-1442.112 
374717.943,4234975.240,-1439.074 
374717.943,4234775.240,-1436.514 
374717.943,4234575.240,-1437.139 
374717.943,4234375.240,-1437.432 
374717.943,4234175.240,-1433.308 
374717.943,4233975.240,-1433.752 
374717.943,4233775.240,-1429.659 
374717.943,4233575.240,-1426.836 
374717.943,4233375.240,-1419.847 
374717.943,4233175.240,-1409.887 
374717.943,4232975.240,-1383.467 
374717.943,4232775.240,-1368.565 
374717.943,4232575.240,-1358.284 
374717.943,4232375.240,-1363.766 
374717.943,4232175.240,-1358.365 
374717.943,4231975.240,-1337.389 
374717.943,4231775.240,-1328.752 
374717.943,4231575.240,-1313.977 
374717.943,4231375.240,-1301.712 
374717.943,4231175.240,-1297.354 
374717.943,4230975.240,-1274.394 
374717.943,4230775.240,-1239.836 
374717.943,4230575.240,-1189.511 
374717.943,4230375.240,-1131.364 
374717.943,4230175.240,-1089.329 
374717.943,4229975.240,-1067.416 
374717.943,4229775.240,-1048.176 
374717.943,4229575.240,-1031.785 
374717.943,4229375.240,-1003.449 
374717.943,4229175.240,-983.871 
374717.943,4228975.240,-963.885 
374717.943,4228775.240,-943.179 
374717.943,4228575.240,-928.708 
374717.943,4228375.240,-904.337 
374717.943,4228175.240,-887.357 
374717.943,4227975.240,-877.709 
374717.943,4227775.240,-873.52 
374717.943,4227575.240,-881.534 
374717.943,4227375.240,-870.409 
374717.943,4227175.240,-851.434 
374717.943,4226975.240,-840.444 
374717.943,4226775.240,-832.859 
374717.943,4226575.240,-819.641 
374717.943,4226375.240,-813.892 
374717.943,4226175.240,-815.54 
374717.943,4225975.240,-810.561 
374717.943,4225775.240,-811.779 
374717.943,4225575.240,-800.528 
374717.943,4225375.240,-783.285 
374717.943,4225175.240,-763.639 
374717.943,4224975.240,-752.125 
374717.943,4224775.240,-738.722 
374717.943,4224575.240,-724.858 
374717.943,4224375.240,-708.734 
374717.943,4224175.240,-697.734 
374717.943,4223975.240,-685.465 
374717.943,4223775.240,-675.873 
374717.943,4223575.240,-653.857 
374717.943,4223375.240,-615.776 
374717.943,4223175.240,-584.54 
374917.943,4237975.240,-1492.902 
374917.943,4237775.240,-1483.744 
374917.943,4237575.240,-1478.173 
374917.943,4237375.240,-1477.229 
374917.943,4237175.240,-1467.534 
374917.943,4236975.240,-1471.672 
374917.943,4236775.240,-1465.326 
374917.943,4236575.240,-1465.084 
374917.943,4236375.240,-1461.85 
374917.943,4236175.240,-1458.31 
374917.943,4235975.240,-1456.884 
374917.943,4235775.240,-1454.582 
374917.943,4235575.240,-1451.105 
374917.943,4235375.240,-1445.966 
374917.943,4235175.240,-1444.754 
374917.943,4234975.240,-1441.751 
374917.943,4234775.240,-1437.454 
374917.943,4234575.240,-1440.279 
374917.943,4234375.240,-1440.383 
374917.943,4234175.240,-1435.742 
374917.943,4233975.240,-1428.524 
374917.943,4233775.240,-1426.627 
374917.943,4233575.240,-1424.681 
374917.943,4233375.240,-1417.528 
374917.943,4233175.240,-1403.516 
374917.943,4232975.240,-1366.238 
374917.943,4232775.240,-1316.614 
374917.943,4232575.240,-1305.142 
374917.943,4232375.240,-1301.628 
374917.943,4232175.240,-1301.327 
374917.943,4231975.240,-1310.463 
374917.943,4231775.240,-1309.659 
374917.943,4231575.240,-1298.876 
374917.943,4231375.240,-1265.834 
374917.943,4231175.240,-1257.919 
374917.943,4230975.240,-1241.985 
374917.943,4230775.240,-1215.639 
374917.943,4230575.240,-1184.578 
374917.943,4230375.240,-1128.865 
374917.943,4230175.240,-1102.794 
374917.943,4229975.240,-1086.538 
374917.943,4229775.240,-1053.742 
374917.943,4229575.240,-1035.385 
374917.943,4229375.240,-1029.864 
374917.943,4229175.240,-1022.446 
374917.943,4228975.240,-1002.512 
374917.943,4228775.240,-966.044 
374917.943,4228575.240,-949.018 
374917.943,4228375.240,-913.408 
374917.943,4228175.240,-880.82 
374917.943,4227975.240,-866.964 
374917.943,4227775.240,-856.951 
374917.943,4227575.240,-857.843 
374917.943,4227375.240,-854.367 
374917.943,4227175.240,-837.691 
374917.943,4226975.240,-820.328 
374917.943,4226775.240,-813.331 
374917.943,4226575.240,-791.174 
374917.943,4226375.240,-794.812 
374917.943,4226175.240,-801.403 
374917.943,4225975.240,-798.403 
374917.943,4225775.240,-794.53 
374917.943,4225575.240,-780.662 
374917.943,4225375.240,-778.867 
374917.943,4225175.240,-766.109 
374917.943,4224975.240,-748.94 
374917.943,4224775.240,-743.377 
374917.943,4224575.240,-736.423 
374917.943,4224375.240,-719.76 
374917.943,4224175.240,-700.337 
374917.943,4223975.240,-683.03 
374917.943,4223775.240,-648.495 
374917.943,4223575.240,-612.671 
374917.943,4223375.240,-586.1 
375117.943,4237975.240,-1499.014 
375117.943,4237775.240,-1485.133 
375117.943,4237575.240,-1480.634 
375117.943,4237375.240,-1479.78 
375117.943,4237175.240,-1474.331 
375117.943,4236975.240,-1469.397 
375117.943,4236775.240,-1465.753 
375117.943,4236575.240,-1463.714 
375117.943,4236375.240,-1462.209 
375117.943,4236175.240,-1458.106 
375117.943,4235975.240,-1456.953 
375117.943,4235775.240,-1455.19 
375117.943,4235575.240,-1451.78 
375117.943,4235375.240,-1446.634 
375117.943,4235175.240,-1443.671 
375117.943,4234975.240,-1439.185 
375117.943,4234775.240,-1434.682 
375117.943,4234575.240,-1439.336 
375117.943,4234375.240,-1438.187 
375117.943,4234175.240,-1435.158 
375117.943,4233975.240,-1429.361 
375117.943,4233775.240,-1423.175 
375117.943,4233575.240,-1417.055 
375117.943,4233375.240,-1418.659 
375117.943,4233175.240,-1411.54 
375117.943,4232975.240,-1360.238 
375117.943,4232775.240,-1293.061 
375117.943,4232575.240,-1251.242 
375117.943,4232375.240,-1258.247 
375117.943,4232175.240,-1256.934 
375117.943,4231975.240,-1271.284 
375117.943,4231775.240,-1283.581 
375117.943,4231575.240,-1279.359 
375117.943,4231375.240,-1269.104 
375117.943,4231175.240,-1236.016 
375117.943,4230975.240,-1210.679 
375117.943,4230775.240,-1192.934 
375117.943,4230575.240,-1158.223 
375117.943,4230375.240,-1145.494 
375117.943,4230175.240,-1140.493 
375117.943,4229975.240,-1132.006 
375117.943,4229775.240,-1115.422 
375117.943,4229575.240,-1100.953 
375117.943,4229375.240,-1080.4 
375117.943,4229175.240,-1053.127 
375117.943,4228975.240,-1024.846 
375117.943,4228775.240,-982.58 
375117.943,4228575.240,-961.436 
375117.943,4228375.240,-922.68 
375117.943,4228175.240,-878.918 
375117.943,4227975.240,-854.682 
375117.943,4227775.240,-843.009 
375117.943,4227575.240,-835.904 
375117.943,4227375.240,-837.823 
375117.943,4227175.240,-815.195 
375117.943,4226975.240,-800.205 
375117.943,4226775.240,-766.044 
375117.943,4226575.240,-727.716 
375117.943,4226375.240,-763.08 
375117.943,4226175.240,-786.117 
375117.943,4225975.240,-787.018 
375117.943,4225775.240,-781.231 
375117.943,4225575.240,-769.665 
375117.943,4225375.240,-761.26 
375117.943,4225175.240,-754.096 
375117.943,4224975.240,-745.034 
375117.943,4224775.240,-734.083 
375117.943,4224575.240,-717.844 
375117.943,4224375.240,-702.626 
375117.943,4224175.240,-682.295 
375117.943,4223975.240,-658.067 
375117.943,4223775.240,-627.783 
375117.943,4223575.240,-602.074 
375117.943,4223375.240,-577.31 
375317.943,4237975.240,-1492.85 
375317.943,4237775.240,-1489.087 
375317.943,4237575.240,-1489.532 
375317.943,4237375.240,-1472.762 
375317.943,4237175.240,-1474.742 
375317.943,4236975.240,-1471.051 
375317.943,4236775.240,-1466.401 
375317.943,4236575.240,-1462.349 
375317.943,4236375.240,-1464.01 
375317.943,4236175.240,-1459.847 
375317.943,4235975.240,-1457.712 
375317.943,4235775.240,-1455.133 
375317.943,4235575.240,-1452.32 
375317.943,4235375.240,-1446.382 
375317.943,4235175.240,-1445.474 
375317.943,4234975.240,-1442.784 
375317.943,4234775.240,-1439.296 
375317.943,4234575.240,-1442.284 
375317.943,4234375.240,-1439.819 
375317.943,4234175.240,-1436.693 
375317.943,4233975.240,-1430.784 
375317.943,4233775.240,-1425.66 
375317.943,4233575.240,-1419.329 
375317.943,4233375.240,-1415.629 
375317.943,4233175.240,-1403.259 
375317.943,4232975.240,-1342.394 
375317.943,4232775.240,-1285.445 
375317.943,4232575.240,-1234.812 
375317.943,4232375.240,-1223.433 
375317.943,4232175.240,-1229.862 
375317.943,4231975.240,-1247.007 
375317.943,4231775.240,-1249.879 
375317.943,4231575.240,-1262.585 
375317.943,4231375.240,-1259.736 
375317.943,4231175.240,-1225.483 
375317.943,4230975.240,-1200.557 
375317.943,4230775.240,-1188.897 
375317.943,4230575.240,-1189.817 
375317.943,4230375.240,-1189.098 
375317.943,4230175.240,-1190.159 
375317.943,4229975.240,-1173.271 
375317.943,4229775.240,-1162.79 
375317.943,4229575.240,-1152.628 
375317.943,4229375.240,-1117.753 
375317.943,4229175.240,-1089.792 
375317.943,4228975.240,-1051.166 
375317.943,4228775.240,-1001.366 
375317.943,4228575.240,-966.48 
375317.943,4228375.240,-920.155 
375317.943,4228175.240,-884.126 
375317.943,4227975.240,-852.23 
375317.943,4227775.240,-831.784 
375317.943,4227575.240,-816.104 
375317.943,4227375.240,-822.519 
375317.943,4227175.240,-801.829 
375317.943,4226975.240,-754.498 
375317.943,4226775.240,-712.26 
375317.943,4226575.240,-733.573 
375317.943,4226375.240,-763.276 
375317.943,4226175.240,-773.805 
375317.943,4225975.240,-777.155 
375317.943,4225775.240,-765.493 
375317.943,4225575.240,-757.419 
375317.943,4225375.240,-753.13 
375317.943,4225175.240,-745.362 
375317.943,4224975.240,-732.878 
375317.943,4224775.240,-721.827 
375317.943,4224575.240,-710.699 
375317.943,4224375.240,-697.292 
375317.943,4224175.240,-674.203 
375317.943,4223975.240,-655.201 
375317.943,4223775.240,-635.66 
375317.943,4223575.240,-617.719 
375317.943,4223375.240,-596.084 
375317.943,4223175.240,-561.585 
375517.943,4237975.240,-1496.536 
375517.943,4237775.240,-1483.749 
375517.943,4237575.240,-1485.53 
375517.943,4237375.240,-1484.745 
375517.943,4237175.240,-1475.432 
375517.943,4236975.240,-1469.648 
375517.943,4236775.240,-1464.086 
375517.943,4236575.240,-1465.876 
375517.943,4236375.240,-1463.393 
375517.943,4236175.240,-1459.91 
375517.943,4235975.240,-1457.916 
375517.943,4235775.240,-1455.344 
375517.943,4235575.240,-1453.921 
375517.943,4235375.240,-1447.74 
375517.943,4235175.240,-1443.994 
375517.943,4234975.240,-1446.677 
375517.943,4234775.240,-1437.358 
375517.943,4234575.240,-1441.769 
375517.943,4234375.240,-1437.655 
375517.943,4234175.240,-1428.134 
375517.943,4233975.240,-1428.878 
375517.943,4233775.240,-1421.857 
375517.943,4233575.240,-1419.06 
375517.943,4233375.240,-1397.532 
375517.943,4233175.240,-1363.765 
375517.943,4232975.240,-1317.598 
375517.943,4232775.240,-1268.19 
375517.943,4232575.240,-1244.926 
375517.943,4232375.240,-1248.509 
375517.943,4232175.240,-1240.791 
375517.943,4231975.240,-1229.982 
375517.943,4231775.240,-1231.383 
375517.943,4231575.240,-1233.029 
375517.943,4231375.240,-1235.522 
375517.943,4231175.240,-1219.387 
375517.943,4230975.240,-1219.602 
375517.943,4230775.240,-1236.431 
375517.943,4230575.240,-1236.899 
375517.943,4230375.240,-1216.438 
375517.943,4230175.240,-1205.376 
375517.943,4229975.240,-1184.714 
375517.943,4229775.240,-1178.768 
375517.943,4229575.240,-1173.085 
375517.943,4229375.240,-1159.033 
375517.943,4229175.240,-1109.508 
375517.943,4228975.240,-1055.838 
375517.943,4228775.240,-1012.525 
375517.943,4228575.240,-961.144 
375517.943,4228375.240,-913.686 
375517.943,4228175.240,-877.509 
375517.943,4227975.240,-841.954 
375517.943,4227775.240,-815.153 
375517.943,4227575.240,-799.268 
375517.943,4227375.240,-782.658 
375517.943,4227175.240,-779.495 
375517.943,4226975.240,-724.435 
375517.943,4226775.240,-685.71 
375517.943,4226575.240,-718.199 
375517.943,4226375.240,-742.149 
375517.943,4226175.240,-744.611 
375517.943,4225975.240,-744.715 
