382145.631,4214817.528,-141.057 
382145.631,4214767.528,-136.656 
382145.631,4214717.528,-134.086 
382145.631,4214667.528,-131.266 
382145.631,4214617.528,-129.106 
382145.631,4214567.528,-127.705 
382145.631,4214517.528,-125.225 
382145.631,4214467.528,-123.672 
382145.631,4214417.528,-122.112 
382145.631,4214367.528,-122.73 
382145.631,4214317.528,-122.557 
382145.631,4214267.528,-122.352 
382145.631,4214217.528,-121.729 
382145.631,4214167.528,-121.329 
382145.631,4214117.528,-121.117 
382145.631,4214067.528,-120.793 
382145.631,4214017.528,-120.653 
382145.631,4213967.528,-120.318 
382145.631,4213917.528,-121.027 
382145.631,4213867.528,-120.184 
382145.631,4213817.528,-118.893 
382145.631,4213767.528,-118.008 
382145.631,4213717.528,-117.484 
382145.631,4213667.528,-116.559 
382145.631,4213617.528,-115.828 
382145.631,4213567.528,-115.195 
382145.631,4213517.528,-114.644 
382145.631,4213467.528,-114.072 
382145.631,4213417.528,-113.736 
382145.631,4213367.528,-113.102 
382145.631,4213317.528,-111.883 
382145.631,4213267.528,-110.888 
382145.631,4213217.528,-109.687 
382145.631,4213167.528,-108.589 
382145.631,4213117.528,-108.043 
382145.631,4213067.528,-107.863 
382145.631,4213017.528,-107.036 
382145.631,4212967.528,-105.869 
382145.631,4212917.528,-105.379 
382145.631,4212867.528,-97.303 
382145.631,4212817.528,-95.804 
382145.631,4212767.528,-94.576 
382145.631,4212717.528,-95.203 
382145.631,4212667.528,-94.58 
382145.631,4212617.528,-93.961 
382145.631,4212567.528,-93.759 
382145.631,4212517.528,-93.637 
382145.631,4212467.528,-93.748 
382145.631,4212417.528,-93.802 
382145.631,4212367.528,-92.846 
382145.631,4212317.528,-90.825 
382145.631,4212267.528,-89.009 
382145.631,4212217.528,-87.625 
382145.631,4212167.528,-86.033 
382145.631,4212117.528,-85.056 
382145.631,4212067.528,-84.255 
382145.631,4212017.528,-83.006 
382145.631,4211967.528,-81.848 
382145.631,4211917.528,-80.912 
382145.631,4211867.528,-80.729 
382145.631,4211817.528,-79.979 
382145.631,4211767.528,-79.64 
382145.631,4211717.528,-78.656 
382145.631,4211667.528,-77.726 
382145.631,4211617.528,-76.243 
382145.631,4211567.528,-74.909 
382145.631,4211517.528,-73.847 
382145.631,4211467.528,-72.652 
382145.631,4211417.528,-72.126 
382145.631,4211367.528,-71.242 
382145.631,4211317.528,-70.68 
382145.631,4211267.528,-70.513 
382145.631,4211217.528,-70.153 
382145.631,4211167.528,-70.132 
382145.631,4211117.528,-70.039 
382145.631,4211067.528,-68.267 
382145.631,4211017.528,-66.792 
382145.631,4210967.528,-65.511 
382145.631,4210917.528,-64.403 
382145.631,4210867.528,-63.735 
382145.631,4210817.528,-62.933 
382145.631,4210767.528,-61.924 
382145.631,4210717.528,-61.588 
382145.631,4210667.528,-61.051 
382145.631,4210617.528,-60.91 
382145.631,4210317.528,-54.392 
382145.631,4210267.528,-53.648 
382145.631,4210217.528,-52.485 
382145.631,4210167.528,-51.485 
382145.631,4210117.528,-50.599 
382145.631,4210067.528,-49.77 
382145.631,4210017.528,-49.037 
382145.631,4209967.528,-48.349 
382145.631,4209917.528,-47.883 
382145.631,4209867.528,-46.966 
382145.631,4209817.528,-45.913 
382145.631,4209767.528,-45.183 
382145.631,4209717.528,-44.296 
382145.631,4209667.528,-43.586 
382145.631,4209617.528,-43.108 
382145.631,4209567.528,-42.119 
382145.631,4209517.528,-41.416 
382145.631,4209467.528,-40.757 
382145.631,4209417.528,-39.849 
382145.631,4209367.528,-39.126 
382145.631,4209317.528,-38.303 
382145.631,4209267.528,-37.506 
382145.631,4209217.528,-36.915 
382145.631,4209167.528,-36.615 
382145.631,4209117.528,-35.533 
382145.631,4209067.528,-34.695 
382145.631,4209017.528,-33.985 
382145.631,4208967.528,-33.423 
382145.631,4208917.528,-32.779 
382145.631,4208867.528,-32.332 
382145.631,4208817.528,-31.83 
382145.631,4208767.528,-31.427 
382145.631,4208717.528,-30.574 
382145.631,4208667.528,-30.16 
382145.631,4208617.528,-29.768 
382145.631,4208567.528,-29.483 
382145.631,4208517.528,-29.262 
382145.631,4208467.528,-28.824 
382145.631,4208417.528,-28.473 
382145.631,4208367.528,-27.713 
382195.631,4215117.528,-179.075 
382195.631,4215067.528,-175.049 
382195.631,4215017.528,-170.473 
382195.631,4214967.528,-166.532 
382195.631,4214917.528,-163.799 
382195.631,4214867.528,-154.663 
382195.631,4214817.528,-145.595 
382195.631,4214767.528,-139.266 
382195.631,4214717.528,-134.832 
382195.631,4214667.528,-131.823 
382195.631,4214617.528,-130.162 
382195.631,4214567.528,-128.52 
382195.631,4214517.528,-126.578 
382195.631,4214467.528,-124.82 
382195.631,4214417.528,-122.756 
382195.631,4214367.528,-122.648 
382195.631,4214317.528,-123.171 
382195.631,4214267.528,-122.746 
382195.631,4214217.528,-122.095 
382195.631,4214167.528,-121.329 
382195.631,4214117.528,-121.457 
382195.631,4214067.528,-120.951 
382195.631,4214017.528,-120.629 
382195.631,4213967.528,-120.489 
382195.631,4213917.528,-120.86 
382195.631,4213867.528,-120.727 
382195.631,4213817.528,-119.321 
382195.631,4213767.528,-118.245 
382195.631,4213717.528,-117.438 
382195.631,4213667.528,-117.137 
382195.631,4213617.528,-116.313 
382195.631,4213567.528,-115.348 
382195.631,4213517.528,-115.078 
382195.631,4213467.528,-114.564 
382195.631,4213417.528,-114.075 
382195.631,4213367.528,-113.471 
382195.631,4213317.528,-112.321 
382195.631,4213267.528,-111.321 
382195.631,4213217.528,-110.275 
382195.631,4213167.528,-109.34 
382195.631,4213117.528,-108.513 
382195.631,4213067.528,-108.222 
382195.631,4213017.528,-107.615 
382195.631,4212967.528,-106.572 
382195.631,4212917.528,-106.169 
382195.631,4212867.528,-97.755 
382195.631,4212817.528,-95.621 
382195.631,4212767.528,-94.543 
382195.631,4212717.528,-95.528 
382195.631,4212667.528,-94.783 
382195.631,4212617.528,-94.326 
382195.631,4212567.528,-94.004 
382195.631,4212517.528,-93.828 
382195.631,4212467.528,-93.737 
382195.631,4212417.528,-93.671 
382195.631,4212367.528,-93.241 
382195.631,4212317.528,-91.415 
382195.631,4212267.528,-89.384 
382195.631,4212217.528,-87.816 
382195.631,4212167.528,-86.299 
382195.631,4212117.528,-85.187 
382195.631,4212067.528,-84.382 
382195.631,4212017.528,-83.436 
382195.631,4211967.528,-82.385 
382195.631,4211917.528,-81.188 
382195.631,4211867.528,-80.785 
382195.631,4211817.528,-80.162 
382195.631,4211767.528,-79.985 
382195.631,4211717.528,-78.5 
382195.631,4211667.528,-77.854 
382195.631,4211617.528,-76.373 
382195.631,4211567.528,-75.092 
382195.631,4211517.528,-74.142 
382195.631,4211467.528,-72.873 
382195.631,4211417.528,-72.203 
382195.631,4211367.528,-71.39 
382195.631,4211317.528,-70.652 
382195.631,4211267.528,-70.523 
382195.631,4211217.528,-70.112 
382195.631,4211167.528,-70.131 
382195.631,4211117.528,-69.872 
382195.631,4211067.528,-68.558 
382195.631,4211017.528,-67.003 
382195.631,4210967.528,-65.863 
382195.631,4210917.528,-64.687 
382195.631,4210867.528,-63.814 
382195.631,4210817.528,-62.971 
382195.631,4210767.528,-62.013 
382195.631,4210717.528,-61.684 
382195.631,4210667.528,-61.15 
382195.631,4210617.528,-60.834 
382195.631,4210567.528,-60.747 
382195.631,4210217.528,-52.87 
382195.631,4210167.528,-51.809 
382195.631,4210117.528,-50.765 
382195.631,4210067.528,-49.818 
382195.631,4210017.528,-49.073 
382195.631,4209967.528,-48.474 
382195.631,4209917.528,-47.732 
382195.631,4209867.528,-46.938 
382195.631,4209817.528,-46.307 
382195.631,4209767.528,-45.166 
382195.631,4209717.528,-44.293 
382195.631,4209667.528,-43.544 
382195.631,4209617.528,-42.955 
382195.631,4209567.528,-42.533 
382195.631,4209517.528,-41.563 
382195.631,4209467.528,-40.636 
382195.631,4209417.528,-39.698 
382195.631,4209367.528,-38.8 
382195.631,4209317.528,-38.254 
382195.631,4209267.528,-37.479 
382195.631,4209217.528,-36.771 
382195.631,4209167.528,-36.089 
382195.631,4209117.528,-35.428 
382195.631,4209067.528,-34.667 
382195.631,4209017.528,-33.894 
382195.631,4208967.528,-33.286 
382195.631,4208917.528,-32.679 
382195.631,4208867.528,-32.205 
382195.631,4208817.528,-31.715 
382195.631,4208767.528,-30.859 
382195.631,4208717.528,-30.33 
382195.631,4208667.528,-30.088 
382195.631,4208617.528,-29.698 
382195.631,4208567.528,-29.257 
382195.631,4208517.528,-29.025 
382195.631,4208467.528,-28.77 
382195.631,4208417.528,-28.342 
382195.631,4208367.528,-27.94 
382195.631,4208317.528,-27.558 
382245.631,4215067.528,-176.525 
382245.631,4215017.528,-172.227 
382245.631,4214967.528,-168.167 
382245.631,4214917.528,-164.244 
382245.631,4214867.528,-158.14 
382245.631,4214817.528,-147.048 
382245.631,4214767.528,-140.867 
382245.631,4214717.528,-136.556 
382245.631,4214667.528,-133.567 
382245.631,4214617.528,-131.292 
382245.631,4214567.528,-129.007 
382245.631,4214517.528,-127.465 
382245.631,4214467.528,-125.799 
382245.631,4214417.528,-124.709 
382245.631,4214367.528,-123.803 
382245.631,4214317.528,-123.564 
382245.631,4214267.528,-122.883 
382245.631,4214217.528,-121.983 
382245.631,4214167.528,-121.259 
382245.631,4214117.528,-121.381 
382245.631,4214067.528,-121.3 
382245.631,4214017.528,-120.749 
382245.631,4213967.528,-120.659 
382245.631,4213917.528,-121.093 
382245.631,4213867.528,-120.829 
382245.631,4213817.528,-118.866 
382245.631,4213767.528,-118.561 
382245.631,4213717.528,-117.748 
382245.631,4213667.528,-117.417 
382245.631,4213617.528,-116.806 
382245.631,4213567.528,-115.651 
382245.631,4213517.528,-115.271 
382245.631,4213467.528,-115.081 
382245.631,4213417.528,-114.534 
382245.631,4213367.528,-113.493 
382245.631,4213317.528,-112.87 
382245.631,4213267.528,-111.905 
382245.631,4213217.528,-110.992 
382245.631,4213167.528,-109.904 
382245.631,4213117.528,-109.026 
382245.631,4213067.528,-108.556 
382245.631,4213017.528,-108.418 
382245.631,4212967.528,-107.373 
382245.631,4212917.528,-106.219 
382245.631,4212867.528,-97.519 
382245.631,4212817.528,-94.597 
382245.631,4212767.528,-94.651 
382245.631,4212717.528,-95.935 
382245.631,4212667.528,-95.124 
382245.631,4212617.528,-94.489 
382245.631,4212567.528,-94.073 
382245.631,4212517.528,-93.906 
382245.631,4212467.528,-93.569 
382245.631,4212417.528,-94.032 
382245.631,4212367.528,-93.467 
382245.631,4212317.528,-91.71 
382245.631,4212267.528,-89.946 
382245.631,4212217.528,-88.175 
382245.631,4212167.528,-86.834 
382245.631,4212117.528,-85.589 
382245.631,4212067.528,-84.757 
382245.631,4212017.528,-83.857 
382245.631,4211967.528,-82.732 
382245.631,4211917.528,-81.68 
382245.631,4211867.528,-81.028 
382245.631,4211817.528,-80.31 
382245.631,4211767.528,-80.253 
382245.631,4211717.528,-78.374 
382245.631,4211667.528,-77.915 
382245.631,4211617.528,-76.647 
382245.631,4211567.528,-75.275 
382245.631,4211517.528,-74.4 
382245.631,4211467.528,-72.922 
382245.631,4211417.528,-72.118 
382245.631,4211367.528,-71.636 
382245.631,4211317.528,-70.672 
382245.631,4211267.528,-70.503 
382245.631,4211217.528,-70.186 
382245.631,4211167.528,-70.064 
382245.631,4211117.528,-69.976 
382245.631,4211067.528,-68.852 
382245.631,4211017.528,-67.426 
382245.631,4210967.528,-66.039 
382245.631,4210917.528,-64.866 
382245.631,4210867.528,-63.957 
382245.631,4210817.528,-63.39 
382245.631,4210767.528,-62.245 
382245.631,4210717.528,-61.52 
382245.631,4210667.528,-61.146 
382245.631,4210617.528,-60.778 
382245.631,4210567.528,-60.549 
382245.631,4210117.528,-51.208 
382245.631,4210067.528,-50.124 
382245.631,4210017.528,-49.171 
382245.631,4209967.528,-48.513 
382245.631,4209917.528,-47.797 
382245.631,4209867.528,-46.852 
382245.631,4209817.528,-46.149 
382245.631,4209767.528,-45.445 
382245.631,4209717.528,-44.523 
382245.631,4209667.528,-43.432 
382245.631,4209617.528,-42.708 
382245.631,4209567.528,-42.024 
382245.631,4209517.528,-41.619 
382245.631,4209467.528,-40.79 
382245.631,4209417.528,-39.796 
382245.631,4209367.528,-38.891 
382245.631,4209317.528,-38.13 
382245.631,4209267.528,-37.594 
382245.631,4209217.528,-36.773 
382245.631,4209167.528,-35.981 
382245.631,4209117.528,-35.26 
382245.631,4209067.528,-34.676 
382245.631,4209017.528,-33.953 
382245.631,4208967.528,-33.192 
382245.631,4208917.528,-32.53 
382245.631,4208867.528,-31.903 
382245.631,4208817.528,-31.292 
382245.631,4208767.528,-30.787 
382245.631,4208717.528,-30.242 
382245.631,4208667.528,-29.915 
382245.631,4208617.528,-29.622 
382245.631,4208567.528,-29.273 
382245.631,4208517.528,-28.895 
382245.631,4208467.528,-28.583 
382245.631,4208417.528,-28.252 
382245.631,4208367.528,-27.845 
382245.631,4208317.528,-27.437 
382245.631,4208267.528,-27.26 
382295.631,4215067.528,-177.711 
382295.631,4215017.528,-173.454 
382295.631,4214967.528,-168.093 
382295.631,4214917.528,-165.145 
382295.631,4214867.528,-160.678 
382295.631,4214817.528,-148.624 
382295.631,4214767.528,-141.033 
382295.631,4214717.528,-137.173 
382295.631,4214667.528,-134.251 
382295.631,4214617.528,-131.755 
382295.631,4214567.528,-129.298 
382295.631,4214517.528,-127.944 
382295.631,4214467.528,-126.252 
382295.631,4214417.528,-125.101 
382295.631,4214367.528,-124.067 
382295.631,4214317.528,-123.891 
382295.631,4214267.528,-123.372 
382295.631,4214217.528,-122.019 
382295.631,4214167.528,-121.666 
382295.631,4214117.528,-121.681 
382295.631,4214067.528,-121.247 
382295.631,4214017.528,-120.876 
382295.631,4213967.528,-120.786 
382295.631,4213917.528,-120.876 
382295.631,4213867.528,-121.276 
382295.631,4213817.528,-119.408 
382295.631,4213767.528,-119.052 
382295.631,4213717.528,-118.072 
382295.631,4213667.528,-117.751 
382295.631,4213617.528,-117.449 
382295.631,4213567.528,-115.964 
382295.631,4213517.528,-115.5 
382295.631,4213467.528,-115.082 
382295.631,4213417.528,-114.714 
382295.631,4213367.528,-113.829 
382295.631,4213317.528,-113.121 
382295.631,4213267.528,-112.173 
382295.631,4213217.528,-111.624 
382295.631,4213167.528,-110.618 
382295.631,4213117.528,-109.626 
382295.631,4213067.528,-109.162 
382295.631,4213017.528,-109.067 
382295.631,4212967.528,-107.755 
382295.631,4212917.528,-106.123 
382295.631,4212867.528,-97.254 
382295.631,4212817.528,-95.215 
382295.631,4212767.528,-93.626 
382295.631,4212717.528,-96.593 
382295.631,4212667.528,-95.277 
382295.631,4212617.528,-94.86 
382295.631,4212567.528,-94.437 
382295.631,4212517.528,-94.084 
382295.631,4212467.528,-93.995 
382295.631,4212417.528,-94.667 
382295.631,4212367.528,-93.968 
382295.631,4212317.528,-92.217 
382295.631,4212267.528,-90.079 
382295.631,4212217.528,-88.784 
382295.631,4212167.528,-87.282 
382295.631,4212117.528,-85.913 
382295.631,4212067.528,-85.038 
382295.631,4212017.528,-84.237 
382295.631,4211967.528,-83.24 
382295.631,4211917.528,-82.05 
382295.631,4211867.528,-81.092 
382295.631,4211817.528,-80.695 
382295.631,4211767.528,-80.172 
382295.631,4211717.528,-78.649 
382295.631,4211667.528,-78.021 
382295.631,4211617.528,-77.087 
382295.631,4211567.528,-75.586 
382295.631,4211517.528,-74.432 
382295.631,4211467.528,-73.145 
382295.631,4211417.528,-72.185 
382295.631,4211367.528,-71.796 
382295.631,4211317.528,-70.786 
382295.631,4211267.528,-70.356 
382295.631,4211217.528,-70.173 
382295.631,4211167.528,-69.916 
382295.631,4211117.528,-69.778 
382295.631,4211067.528,-69.376 
382295.631,4211017.528,-67.671 
382295.631,4210967.528,-66.222 
382295.631,4210917.528,-65.115 
382295.631,4210867.528,-63.998 
382295.631,4210817.528,-63.297 
382295.631,4210767.528,-62.342 
382295.631,4210717.528,-61.555 
382295.631,4210667.528,-61.093 
382295.631,4210617.528,-60.801 
382295.631,4210567.528,-60.577 
382295.631,4210067.528,-50.62 
382295.631,4210017.528,-49.483 
382295.631,4209967.528,-48.548 
382295.631,4209917.528,-47.849 
382295.631,4209867.528,-46.939 
382295.631,4209817.528,-46.13 
382295.631,4209767.528,-45.404 
382295.631,4209717.528,-44.591 
382295.631,4209667.528,-43.479 
382295.631,4209617.528,-42.554 
382295.631,4209567.528,-41.799 
382295.631,4209517.528,-41.204 
382295.631,4209467.528,-41.037 
382295.631,4209417.528,-39.999 
382295.631,4209367.528,-38.884 
382295.631,4209317.528,-38.161 
382295.631,4209267.528,-37.44 
382295.631,4209217.528,-36.78 
382295.631,4209167.528,-35.941 
382295.631,4209117.528,-35.195 
382295.631,4209067.528,-34.505 
382295.631,4209017.528,-33.94 
382295.631,4208967.528,-33.257 
382295.631,4208917.528,-32.492 
382295.631,4208867.528,-31.765 
382295.631,4208817.528,-31.16 
382295.631,4208767.528,-30.702 
382295.631,4208717.528,-30.219 
382295.631,4208667.528,-29.827 
382295.631,4208617.528,-29.467 
382295.631,4208567.528,-29.198 
382295.631,4208517.528,-28.781 
382295.631,4208467.528,-28.407 
382295.631,4208417.528,-28.143 
382295.631,4208367.528,-27.718 
382295.631,4208317.528,-27.312 
382295.631,4208267.528,-26.991 
382345.631,4215067.528,-179.004 
382345.631,4215017.528,-174 
382345.631,4214967.528,-170.184 
382345.631,4214917.528,-166.188 
382345.631,4214867.528,-161.779 
382345.631,4214817.528,-152.065 
382345.631,4214767.528,-142.17 
382345.631,4214717.528,-137.851 
382345.631,4214667.528,-134.82 
382345.631,4214617.528,-131.811 
382345.631,4214567.528,-130.105 
382345.631,4214517.528,-128.476 
382345.631,4214467.528,-126.751 
382345.631,4214417.528,-125.668 
382345.631,4214367.528,-124.321 
382345.631,4214317.528,-124.178 
382345.631,4214267.528,-123.465 
382345.631,4214217.528,-122.321 
382345.631,4214167.528,-121.829 
382345.631,4214117.528,-121.543 
382345.631,4214067.528,-121.45 
382345.631,4214017.528,-121.07 
382345.631,4213967.528,-121.142 
382345.631,4213917.528,-120.1 
382345.631,4213867.528,-121.52 
382345.631,4213817.528,-120.416 
382345.631,4213767.528,-119.441 
382345.631,4213717.528,-118.479 
382345.631,4213667.528,-117.914 
382345.631,4213617.528,-117.562 
382345.631,4213567.528,-116.43 
382345.631,4213517.528,-115.905 
382345.631,4213467.528,-115.582 
382345.631,4213417.528,-114.903 
382345.631,4213367.528,-114.069 
382345.631,4213317.528,-113.401 
382345.631,4213267.528,-112.79 
382345.631,4213217.528,-112.216 
382345.631,4213167.528,-111.181 
382345.631,4213117.528,-110.504 
382345.631,4213067.528,-109.891 
382345.631,4213017.528,-110.208 
382345.631,4212967.528,-108.869 
382345.631,4212917.528,-104.125 
382345.631,4212867.528,-98.281 
382345.631,4212817.528,-96.279 
382345.631,4212767.528,-92.804 
382345.631,4212717.528,-97.017 
382345.631,4212667.528,-95.709 
382345.631,4212617.528,-95.086 
382345.631,4212567.528,-94.049 
382345.631,4212517.528,-94.738 
382345.631,4212467.528,-94.076 
382345.631,4212417.528,-94.192 
382345.631,4212367.528,-94.351 
382345.631,4212317.528,-92.537 
382345.631,4212267.528,-90.83 
382345.631,4212217.528,-89.134 
382345.631,4212167.528,-87.881 
382345.631,4212117.528,-86.301 
382345.631,4212067.528,-85.352 
382345.631,4212017.528,-84.638 
382345.631,4211967.528,-83.587 
382345.631,4211917.528,-82.284 
382345.631,4211867.528,-81.315 
382345.631,4211817.528,-80.881 
382345.631,4211767.528,-80.169 
382345.631,4211717.528,-79.706 
382345.631,4211667.528,-78.192 
382345.631,4211617.528,-77.557 
382345.631,4211567.528,-75.961 
382345.631,4211517.528,-74.526 
382345.631,4211467.528,-73.593 
382345.631,4211417.528,-72.284 
382345.631,4211367.528,-71.767 
382345.631,4211317.528,-70.905 
382345.631,4211267.528,-70.324 
382345.631,4211217.528,-70.267 
382345.631,4211167.528,-69.824 
382345.631,4211117.528,-69.881 
382345.631,4211067.528,-69.712 
382345.631,4211017.528,-68.013 
382345.631,4210967.528,-66.527 
382345.631,4210917.528,-65.38 
382345.631,4210867.528,-64.205 
382345.631,4210817.528,-63.573 
382345.631,4210767.528,-62.461 
382345.631,4210717.528,-61.549 
382345.631,4210667.528,-61.133 
382345.631,4210617.528,-60.757 
382345.631,4210567.528,-60.617 
382345.631,4210517.528,-60.667 
382345.631,4210017.528,-49.654 
382345.631,4209967.528,-48.956 
382345.631,4209917.528,-47.986 
382345.631,4209867.528,-47.097 
382345.631,4209817.528,-46.113 
382345.631,4209767.528,-45.108 
382345.631,4209717.528,-44.374 
382345.631,4209667.528,-43.705 
382345.631,4209617.528,-42.654 
382345.631,4209567.528,-41.804 
382345.631,4209517.528,-41.112 
382345.631,4209467.528,-40.499 
382345.631,4209417.528,-39.987 
382345.631,4209367.528,-39.103 
382345.631,4209317.528,-38.169 
382345.631,4209267.528,-37.418 
382345.631,4209217.528,-36.634 
382345.631,4209167.528,-35.998 
382345.631,4209117.528,-35.194 
382345.631,4209067.528,-34.443 
382345.631,4209017.528,-33.75 
382345.631,4208967.528,-33.194 
382345.631,4208917.528,-32.525 
382345.631,4208867.528,-31.789 
382345.631,4208817.528,-31.131 
382345.631,4208767.528,-30.603 
382345.631,4208717.528,-30.163 
382345.631,4208667.528,-29.782 
382345.631,4208617.528,-29.376 
382345.631,4208567.528,-29.051 
382345.631,4208517.528,-28.78 
382345.631,4208467.528,-28.273 
382345.631,4208417.528,-27.927 
382345.631,4208367.528,-27.624 
382345.631,4208317.528,-27.174 
382345.631,4208267.528,-26.682 
382395.631,4215067.528,-179.292 
382395.631,4215017.528,-174.961 
382395.631,4214967.528,-170.861 
382395.631,4214917.528,-166.983 
382395.631,4214867.528,-164.106 
382395.631,4214817.528,-154.673 
382395.631,4214767.528,-143.531 
382395.631,4214717.528,-138.582 
382395.631,4214667.528,-135.37 
382395.631,4214617.528,-131.964 
382395.631,4214567.528,-130.59 
382395.631,4214517.528,-128.637 
382395.631,4214467.528,-127.18 
382395.631,4214417.528,-126.203 
382395.631,4214367.528,-124.967 
382395.631,4214317.528,-124.471 
382395.631,4214267.528,-123.156 
382395.631,4214217.528,-122.747 
382395.631,4214167.528,-122.266 
382395.631,4214117.528,-121.819 
382395.631,4214067.528,-121.761 
382395.631,4214017.528,-121.413 
382395.631,4213967.528,-121.4 
382395.631,4213917.528,-120.258 
382395.631,4213867.528,-121.805 
382395.631,4213817.528,-120.341 
382395.631,4213767.528,-119.684 
382395.631,4213717.528,-119.007 
382395.631,4213667.528,-118.076 
382395.631,4213617.528,-117.727 
382395.631,4213567.528,-116.635 
382395.631,4213517.528,-115.821 
382395.631,4213467.528,-115.668 
382395.631,4213417.528,-115.395 
382395.631,4213367.528,-114.263 
382395.631,4213317.528,-113.85 
382395.631,4213267.528,-113.259 
382395.631,4213217.528,-112.729 
382395.631,4213167.528,-111.874 
382395.631,4213117.528,-111.504 
382395.631,4213067.528,-110.96 
382395.631,4213017.528,-111.395 
382395.631,4212967.528,-110.17 
382395.631,4212917.528,-98.819 
382395.631,4212867.528,-98.502 
382395.631,4212817.528,-97.761 
382395.631,4212767.528,-93.392 
382395.631,4212717.528,-97.524 
382395.631,4212667.528,-96.343 
382395.631,4212617.528,-95.484 
382395.631,4212567.528,-94.556 
382395.631,4212517.528,-94.396 
382395.631,4212467.528,-93.882 
382395.631,4212417.528,-93.873 
382395.631,4212367.528,-94.305 
382395.631,4212317.528,-93.046 
382395.631,4212267.528,-91.23 
382395.631,4212217.528,-89.604 
382395.631,4212167.528,-87.991 
382395.631,4212117.528,-86.787 
382395.631,4212067.528,-85.651 
382395.631,4212017.528,-84.925 
382395.631,4211967.528,-84.028 
382395.631,4211917.528,-82.683 
382395.631,4211867.528,-81.592 
382395.631,4211817.528,-81.022 
382395.631,4211767.528,-80.396 
382395.631,4211717.528,-80.11 
382395.631,4211667.528,-78.841 
382395.631,4211617.528,-77.794 
382395.631,4211567.528,-76.225 
382395.631,4211517.528,-74.7 
382395.631,4211467.528,-73.801 
382395.631,4211417.528,-72.45 
382395.631,4211367.528,-71.938 
382395.631,4211317.528,-70.963 
382395.631,4211267.528,-70.372 
382395.631,4211217.528,-70.247 
382395.631,4211167.528,-69.964 
382395.631,4211117.528,-69.732 
382395.631,4211067.528,-69.67 
382395.631,4211017.528,-68.235 
382395.631,4210967.528,-66.735 
382395.631,4210917.528,-65.602 
382395.631,4210867.528,-64.435 
382395.631,4210817.528,-63.514 
382395.631,4210767.528,-62.556 
382395.631,4210717.528,-61.725 
382395.631,4210667.528,-61.231 
382395.631,4210617.528,-60.716 
382395.631,4210567.528,-60.578 
382395.631,4209917.528,-48.229 
382395.631,4209867.528,-47.363 
382395.631,4209817.528,-46.09 
382395.631,4209767.528,-45.072 
382395.631,4209717.528,-44.294 
382395.631,4209667.528,-43.565 
382395.631,4209617.528,-42.957 
382395.631,4209567.528,-41.942 
382395.631,4209517.528,-41.156 
382395.631,4209467.528,-40.389 
382395.631,4209417.528,-39.73 
382395.631,4209367.528,-39.232 
382395.631,4209317.528,-38.407 
382395.631,4209267.528,-37.358 
382395.631,4209217.528,-36.593 
382395.631,4209167.528,-35.861 
382395.631,4209117.528,-35.174 
382395.631,4209067.528,-34.496 
382395.631,4209017.528,-33.683 
382395.631,4208967.528,-33.031 
382395.631,4208917.528,-32.495 
382395.631,4208867.528,-31.784 
382395.631,4208817.528,-31.134 
382395.631,4208767.528,-30.517 
382395.631,4208717.528,-30.069 
382395.631,4208667.528,-29.66 
382395.631,4208617.528,-29.241 
382395.631,4208567.528,-28.907 
382395.631,4208517.528,-28.579 
382395.631,4208467.528,-28.266 
382395.631,4208417.528,-27.746 
382395.631,4208367.528,-27.41 
382395.631,4208317.528,-27.049 
382395.631,4208267.528,-26.589 
382395.631,4208217.528,-26.289 
382445.631,4215017.528,-176.693 
382445.631,4214967.528,-172.288 
382445.631,4214917.528,-167.766 
382445.631,4214867.528,-164.463 
382445.631,4214817.528,-157.394 
382445.631,4214767.528,-145.107 
382445.631,4214717.528,-139.276 
382445.631,4214667.528,-135.599 
382445.631,4214617.528,-132.844 
382445.631,4214567.528,-130.884 
382445.631,4214517.528,-128.992 
382445.631,4214467.528,-127.583 
382445.631,4214417.528,-126.738 
382445.631,4214367.528,-125.402 
382445.631,4214317.528,-124.75 
382445.631,4214267.528,-123.928 
382445.631,4214217.528,-123.144 
382445.631,4214167.528,-122.431 
382445.631,4214117.528,-122.121 
382445.631,4214067.528,-122.061 
382445.631,4214017.528,-121.612 
382445.631,4213967.528,-121.488 
382445.631,4213917.528,-121.256 
382445.631,4213867.528,-121.609 
382445.631,4213817.528,-120.637 
382445.631,4213767.528,-119.202 
382445.631,4213717.528,-119.243 
382445.631,4213667.528,-118.592 
382445.631,4213617.528,-117.994 
382445.631,4213567.528,-116.913 
382445.631,4213517.528,-116.146 
382445.631,4213467.528,-115.5 
382445.631,4213417.528,-115.177 
382445.631,4213367.528,-114.902 
382445.631,4213317.528,-114.229 
382445.631,4213267.528,-113.612 
382445.631,4213217.528,-113.178 
382445.631,4213167.528,-112.164 
382445.631,4213117.528,-112.081 
382445.631,4213067.528,-111.647 
382445.631,4213017.528,-112.187 
382445.631,4212967.528,-110.579 
382445.631,4212917.528,-97.983 
382445.631,4212867.528,-99.558 
382445.631,4212817.528,-98.563 
382445.631,4212767.528,-93.755 
382445.631,4212717.528,-96.528 
382445.631,4212667.528,-96.974 
382445.631,4212617.528,-95.668 
382445.631,4212567.528,-94.816 
382445.631,4212517.528,-94.503 
382445.631,4212467.528,-94.215 
382445.631,4212417.528,-93.719 
382445.631,4212367.528,-93.9 
382445.631,4212317.528,-93.262 
382445.631,4212267.528,-91.887 
382445.631,4212217.528,-89.967 
382445.631,4212167.528,-88.571 
382445.631,4212117.528,-87.15 
382445.631,4212067.528,-85.873 
382445.631,4212017.528,-85.081 
382445.631,4211967.528,-84.184 
382445.631,4211917.528,-83.041 
382445.631,4211867.528,-81.853 
382445.631,4211817.528,-81.23 
382445.631,4211767.528,-80.569 
382445.631,4211717.528,-79.953 
382445.631,4211667.528,-78.983 
382445.631,4211617.528,-78.197 
382445.631,4211567.528,-76.665 
382445.631,4211517.528,-75.044 
382445.631,4211467.528,-74.013 
382445.631,4211417.528,-72.72 
382445.631,4211367.528,-71.923 
382445.631,4211317.528,-71.289 
382445.631,4211267.528,-70.377 
382445.631,4211217.528,-70.281 
382445.631,4211167.528,-69.877 
382445.631,4211117.528,-69.672 
382445.631,4211067.528,-69.667 
382445.631,4211017.528,-68.551 
382445.631,4210967.528,-67.019 
382445.631,4210917.528,-65.933 
382445.631,4210867.528,-64.581 
382445.631,4210817.528,-63.622 
382445.631,4210767.528,-62.699 
382445.631,4210717.528,-61.791 
382445.631,4210667.528,-61.077 
382445.631,4210617.528,-60.755 
382445.631,4210567.528,-60.496 
382445.631,4210517.528,-60.326 
382445.631,4209867.528,-47.453 
382445.631,4209817.528,-46.425 
382445.631,4209767.528,-45.183 
382445.631,4209717.528,-44.284 
382445.631,4209667.528,-43.545 
382445.631,4209617.528,-42.946 
382445.631,4209567.528,-42.249 
382445.631,4209517.528,-41.408 
382445.631,4209467.528,-40.428 
382445.631,4209417.528,-39.661 
382445.631,4209367.528,-39.034 
382445.631,4209317.528,-38.376 
382445.631,4209267.528,-37.6 
382445.631,4209217.528,-36.632 
382445.631,4209167.528,-35.83 
382445.631,4209117.528,-35.109 
382445.631,4209067.528,-34.437 
382445.631,4209017.528,-33.746 
382445.631,4208967.528,-33.019 
382445.631,4208917.528,-32.287 
382445.631,4208867.528,-31.769 
382445.631,4208817.528,-31.201 
382445.631,4208767.528,-30.52 
382445.631,4208717.528,-29.999 
382445.631,4208667.528,-29.535 
382445.631,4208617.528,-29.187 
382445.631,4208567.528,-28.806 
382445.631,4208517.528,-28.351 
382445.631,4208467.528,-28.146 
382445.631,4208417.528,-27.665 
382445.631,4208367.528,-27.213 
382445.631,4208317.528,-26.84 
382445.631,4208267.528,-26.371 
382445.631,4208217.528,-26.001 
382445.631,4208167.528,-25.548 
382495.631,4215017.528,-177.948 
382495.631,4214967.528,-173.248 
382495.631,4214917.528,-168.731 
382495.631,4214867.528,-166.762 
382495.631,4214817.528,-159.523 
382495.631,4214767.528,-147.025 
382495.631,4214717.528,-140.22 
382495.631,4214667.528,-135.789 
382495.631,4214617.528,-133.422 
382495.631,4214567.528,-131.158 
382495.631,4214517.528,-129.409 
382495.631,4214467.528,-128.105 
382495.631,4214417.528,-127.058 
382495.631,4214367.528,-125.613 
382495.631,4214317.528,-124.035 
382495.631,4214267.528,-123.354 
382495.631,4214217.528,-123.56 
382495.631,4214167.528,-122.774 
382495.631,4214117.528,-122.386 
382495.631,4214067.528,-122.551 
382495.631,4214017.528,-121.868 
382495.631,4213967.528,-121.824 
382495.631,4213917.528,-121.469 
382495.631,4213867.528,-121.231 
382495.631,4213817.528,-120.576 
382495.631,4213767.528,-119.631 
382495.631,4213717.528,-119.393 
382495.631,4213667.528,-118.646 
382495.631,4213617.528,-118.326 
382495.631,4213567.528,-117.045 
382495.631,4213517.528,-116.23 
382495.631,4213467.528,-115.505 
382495.631,4213417.528,-115.381 
382495.631,4213367.528,-114.876 
382495.631,4213317.528,-114.38 
382495.631,4213267.528,-114.003 
382495.631,4213217.528,-113.461 
382495.631,4213167.528,-112.537 
382495.631,4213117.528,-112.403 
382495.631,4213067.528,-112.292 
382495.631,4213017.528,-112.115 
382495.631,4212967.528,-112.252 
382495.631,4212917.528,-102.304 
382495.631,4212867.528,-101.95 
382495.631,4212817.528,-99.492 
382495.631,4212767.528,-94.31 
382495.631,4212717.528,-95.607 
382495.631,4212667.528,-98.026 
382495.631,4212617.528,-96.422 
382495.631,4212567.528,-95.534 
382495.631,4212517.528,-94.777 
382495.631,4212467.528,-94.65 
382495.631,4212417.528,-93.948 
382495.631,4212367.528,-93.79 
382495.631,4212317.528,-93.881 
382495.631,4212267.528,-92.381 
382495.631,4212217.528,-90.603 
382495.631,4212167.528,-89.019 
382495.631,4212117.528,-87.747 
382495.631,4212067.528,-86.267 
382495.631,4212017.528,-85.385 
382495.631,4211967.528,-84.461 
382495.631,4211917.528,-83.142 
382495.631,4211867.528,-81.969 
382495.631,4211817.528,-81.317 
382495.631,4211767.528,-80.554 
382495.631,4211717.528,-80.015 
382495.631,4211667.528,-78.795 
382495.631,4211617.528,-78.112 
382495.631,4211567.528,-76.92 
382495.631,4211517.528,-75.276 
382495.631,4211467.528,-74.187 
382495.631,4211417.528,-72.924 
382495.631,4211367.528,-71.869 
382495.631,4211317.528,-71.271 
382495.631,4211267.528,-70.554 
382495.631,4211217.528,-70.139 
382495.631,4211167.528,-69.955 
382495.631,4211117.528,-69.604 
382495.631,4211067.528,-69.714 
382495.631,4211017.528,-68.799 
382495.631,4210967.528,-67.302 
382495.631,4210917.528,-66.019 
382495.631,4210867.528,-64.725 
382495.631,4210817.528,-63.59 
382495.631,4210767.528,-63.045 
382495.631,4210717.528,-61.921 
382495.631,4210667.528,-61.227 
382495.631,4210617.528,-60.684 
382495.631,4210567.528,-60.437 
382495.631,4210517.528,-60.223 
382495.631,4209867.528,-47.486 
382495.631,4209817.528,-46.591 
382495.631,4209767.528,-45.368 
382495.631,4209717.528,-44.343 
382495.631,4209667.528,-43.531 
382495.631,4209617.528,-42.765 
382495.631,4209567.528,-42.212 
382495.631,4209517.528,-41.646 
382495.631,4209467.528,-40.71 
382495.631,4209417.528,-39.759 
382495.631,4209367.528,-38.951 
382495.631,4209317.528,-38.19 
382495.631,4209267.528,-37.509 
382495.631,4209217.528,-36.909 
382495.631,4209167.528,-35.968 
382495.631,4209117.528,-35.105 
382495.631,4209067.528,-34.359 
382495.631,4209017.528,-33.66 
382495.631,4208967.528,-33.016 
382495.631,4208917.528,-32.26 
382495.631,4208867.528,-31.598 
382495.631,4208817.528,-30.954 
382495.631,4208767.528,-30.46 
382495.631,4208717.528,-30.02 
382495.631,4208667.528,-29.466 
382495.631,4208617.528,-29.052 
382495.631,4208567.528,-28.666 
382495.631,4208517.528,-28.31 
382495.631,4208467.528,-27.904 
382495.631,4208417.528,-27.586 
382495.631,4208367.528,-27.112 
382495.631,4208317.528,-26.617 
382495.631,4208267.528,-26.228 
382495.631,4208217.528,-25.767 
382495.631,4208167.528,-25.339 
382495.631,4208117.528,-25.102 
382545.631,4215017.528,-178.415 
382545.631,4214967.528,-174.567 
382545.631,4214917.528,-169.857 
382545.631,4214867.528,-167.803 
382545.631,4214817.528,-161.856 
382545.631,4214767.528,-149.239 
382545.631,4214717.528,-140.849 
382545.631,4214667.528,-136.817 
382545.631,4214617.528,-133.803 
382545.631,4214567.528,-131.6 
382545.631,4214517.528,-129.766 
382545.631,4214467.528,-128.561 
382545.631,4214417.528,-127.364 
382545.631,4214367.528,-126.183 
382545.631,4214317.528,-123.647 
382545.631,4214267.528,-124.298 
382545.631,4214217.528,-123.838 
382545.631,4214167.528,-123.166 
382545.631,4214117.528,-122.742 
382545.631,4214067.528,-122.681 
382545.631,4214017.528,-122.124 
382545.631,4213967.528,-121.997 
382545.631,4213917.528,-121.547 
382545.631,4213867.528,-121.977 
382545.631,4213817.528,-120.985 
382545.631,4213767.528,-119.547 
382545.631,4213717.528,-119.771 
382545.631,4213667.528,-118.784 
382545.631,4213617.528,-118.398 
382545.631,4213567.528,-117.282 
382545.631,4213517.528,-116.445 
382545.631,4213467.528,-115.656 
382545.631,4213417.528,-115.302 
382545.631,4213367.528,-115.263 
382545.631,4213317.528,-114.651 
382545.631,4213267.528,-114.12 
382545.631,4213217.528,-113.665 
382545.631,4213167.528,-112.946 
382545.631,4213117.528,-112.791 
382545.631,4213067.528,-112.552 
382545.631,4213017.528,-112.402 
382545.631,4212967.528,-112.773 
382545.631,4212917.528,-104.459 
382545.631,4212867.528,-102.529 
382545.631,4212817.528,-100.627 
382545.631,4212767.528,-94.655 
382545.631,4212717.528,-94.926 
382545.631,4212667.528,-99.26 
382545.631,4212617.528,-97.076 
382545.631,4212567.528,-95.96 
382545.631,4212517.528,-94.598 
382545.631,4212467.528,-94.692 
382545.631,4212417.528,-94.039 
382545.631,4212367.528,-93.678 
382545.631,4212317.528,-94.065 
382545.631,4212267.528,-92.915 
382545.631,4212217.528,-91.116 
382545.631,4212167.528,-89.508 
382545.631,4212117.528,-88.235 
382545.631,4212067.528,-86.521 
382545.631,4212017.528,-85.531 
382545.631,4211967.528,-84.706 
382545.631,4211917.528,-83.685 
382545.631,4211867.528,-82.421 
382545.631,4211817.528,-81.472 
382545.631,4211767.528,-80.79 
382545.631,4211717.528,-80.276 
382545.631,4211667.528,-79.121 
382545.631,4211617.528,-78.283 
382545.631,4211567.528,-77.17 
382545.631,4211517.528,-75.643 
382545.631,4211467.528,-74.217 
382545.631,4211417.528,-73.143 
382545.631,4211367.528,-71.96 
382545.631,4211317.528,-71.553 
382545.631,4211267.528,-70.532 
382545.631,4211217.528,-69.998 
382545.631,4211167.528,-69.739 
382545.631,4211117.528,-69.548 
382545.631,4211067.528,-69.556 
382545.631,4211017.528,-68.966 
382545.631,4210967.528,-67.455 
382545.631,4210917.528,-66.121 
382545.631,4210867.528,-64.925 
382545.631,4210817.528,-63.769 
382545.631,4210767.528,-63.121 
382545.631,4210717.528,-62.06 
382545.631,4210667.528,-61.165 
382545.631,4210617.528,-60.783 
382545.631,4210567.528,-60.246 
382545.631,4210517.528,-60.108 
382545.631,4209817.528,-46.743 
382545.631,4209767.528,-45.646 
382545.631,4209717.528,-44.484 
382545.631,4209667.528,-43.57 
382545.631,4209617.528,-42.794 
382545.631,4209567.528,-42.023 
382545.631,4209517.528,-41.532 
382545.631,4209467.528,-40.959 
382545.631,4209417.528,-40.097 
382545.631,4209367.528,-39.036 
382545.631,4209317.528,-38.132 
382545.631,4209267.528,-37.355 
382545.631,4209217.528,-36.747 
382545.631,4209167.528,-36.232 
382545.631,4209117.528,-35.317 
382545.631,4209067.528,-34.453 
382545.631,4209017.528,-33.585 
382545.631,4208967.528,-32.908 
382545.631,4208917.528,-32.253 
382545.631,4208867.528,-31.631 
382545.631,4208817.528,-30.954 
382545.631,4208767.528,-30.318 
382545.631,4208717.528,-29.866 
382545.631,4208667.528,-29.487 
382545.631,4208617.528,-28.979 
382545.631,4208567.528,-28.574 
382545.631,4208517.528,-28.276 
382545.631,4208467.528,-27.824 
382545.631,4208417.528,-27.423 
382545.631,4208367.528,-27.108 
382545.631,4208317.528,-26.527 
382545.631,4208267.528,-26.062 
382545.631,4208217.528,-25.688 
382545.631,4208167.528,-25.19 
382545.631,4208117.528,-24.823 
382545.631,4208067.528,-24.47 
382595.631,4215017.528,-179.81 
382595.631,4214967.528,-176.126 
382595.631,4214917.528,-170.596 
382595.631,4214867.528,-167.436 
382595.631,4214817.528,-164.883 
382595.631,4214767.528,-151.949 
382595.631,4214717.528,-141.289 
382595.631,4214667.528,-137.422 
382595.631,4214617.528,-134.277 
382595.631,4214567.528,-132.027 
382595.631,4214517.528,-130.292 
382595.631,4214467.528,-128.875 
382595.631,4214417.528,-127.743 
382595.631,4214367.528,-126.451 
382595.631,4214317.528,-124.306 
382595.631,4214267.528,-124.747 
382595.631,4214217.528,-124.072 
382595.631,4214167.528,-123.396 
382595.631,4214117.528,-122.9 
382595.631,4214067.528,-123.39 
382595.631,4214017.528,-122.426 
382595.631,4213967.528,-122.104 
382595.631,4213917.528,-121.935 
382595.631,4213867.528,-122.091 
382595.631,4213817.528,-121.47 
382595.631,4213767.528,-119.271 
382595.631,4213717.528,-119.845 
382595.631,4213667.528,-119.091 
382595.631,4213617.528,-118.708 
382595.631,4213567.528,-117.462 
382595.631,4213517.528,-116.561 
382595.631,4213467.528,-116.057 
382595.631,4213417.528,-115.587 
382595.631,4213367.528,-115.107 
382595.631,4213317.528,-114.798 
382595.631,4213267.528,-114.202 
382595.631,4213217.528,-113.988 
382595.631,4213167.528,-113.298 
382595.631,4213117.528,-112.782 
382595.631,4213067.528,-112.701 
382595.631,4213017.528,-112.544 
382595.631,4212967.528,-112.758 
382595.631,4212917.528,-108.27 
382595.631,4212867.528,-103.42 
382595.631,4212817.528,-101.702 
382595.631,4212767.528,-95.451 
382595.631,4212717.528,-95.558 
382595.631,4212667.528,-100.285 
382595.631,4212617.528,-97.821 
382595.631,4212567.528,-96.832 
382595.631,4212517.528,-95.258 
382595.631,4212467.528,-94.982 
382595.631,4212417.528,-94.322 
382595.631,4212367.528,-93.645 
382595.631,4212317.528,-94.127 
382595.631,4212267.528,-93.539 
382595.631,4212217.528,-91.709 
382595.631,4212167.528,-89.849 
382595.631,4212117.528,-88.568 
382595.631,4212067.528,-86.956 
382595.631,4212017.528,-85.781 
382595.631,4211967.528,-84.956 
382595.631,4211917.528,-84.022 
382595.631,4211867.528,-82.639 
382595.631,4211817.528,-81.616 
382595.631,4211767.528,-80.923 
382595.631,4211717.528,-80.086 
382595.631,4211667.528,-79.523 
382595.631,4211617.528,-78.347 
382595.631,4211567.528,-77.152 
382595.631,4211517.528,-75.736 
382595.631,4211467.528,-74.37 
382595.631,4211417.528,-73.245 
382595.631,4211367.528,-72.102 
382595.631,4211317.528,-71.612 
382595.631,4211267.528,-70.83 
382595.631,4211217.528,-70.052 
382595.631,4211167.528,-70.154 
382595.631,4211117.528,-69.519 
382595.631,4211067.528,-69.531 
382595.631,4211017.528,-69.104 
382595.631,4210967.528,-67.746 
382595.631,4210917.528,-66.359 
382595.631,4210867.528,-65.111 
382595.631,4210817.528,-63.923 
382595.631,4210767.528,-63.226 
382595.631,4210717.528,-62.288 
382595.631,4210667.528,-61.245 
382595.631,4210617.528,-60.813 
382595.631,4210567.528,-60.348 
382595.631,4210517.528,-60.196 
382595.631,4209717.528,-44.745 
382595.631,4209667.528,-43.618 
382595.631,4209617.528,-42.842 
382595.631,4209567.528,-42.044 
382595.631,4209517.528,-41.482 
382595.631,4209467.528,-40.642 
382595.631,4209417.528,-40.011 
382595.631,4209367.528,-39.356 
382595.631,4209317.528,-38.278 
382595.631,4209267.528,-37.393 
382595.631,4209217.528,-36.613 
382595.631,4209167.528,-35.962 
382595.631,4209117.528,-35.416 
382595.631,4209067.528,-34.669 
382595.631,4209017.528,-33.714 
382595.631,4208967.528,-32.942 
382595.631,4208917.528,-32.196 
382595.631,4208867.528,-31.553 
382595.631,4208817.528,-30.986 
382595.631,4208767.528,-30.385 
382595.631,4208717.528,-29.799 
382595.631,4208667.528,-29.372 
382595.631,4208617.528,-29.005 
382595.631,4208567.528,-28.509 
382595.631,4208517.528,-28.143 
382595.631,4208467.528,-27.795 
382595.631,4208417.528,-27.333 
382595.631,4208367.528,-26.925 
382595.631,4208317.528,-26.545 
382595.631,4208267.528,-25.959 
382595.631,4208217.528,-25.502 
382595.631,4208167.528,-25.088 
382595.631,4208117.528,-24.602 
382595.631,4208067.528,-24.248 
382645.631,4214967.528,-176.767 
382645.631,4214917.528,-171.832 
382645.631,4214867.528,-169.579 
382645.631,4214817.528,-166.284 
382645.631,4214767.528,-155.187 
382645.631,4214717.528,-142.416 
382645.631,4214667.528,-137.905 
382645.631,4214617.528,-134.782 
382645.631,4214567.528,-132.676 
382645.631,4214517.528,-130.901 
382645.631,4214467.528,-129.219 
382645.631,4214417.528,-127.963 
382645.631,4214367.528,-125.823 
382645.631,4214317.528,-124.36 
382645.631,4214267.528,-124.954 
382645.631,4214217.528,-124.347 
382645.631,4214167.528,-123.752 
382645.631,4214117.528,-123.179 
382645.631,4214067.528,-123.558 
382645.631,4214017.528,-122.84 
382645.631,4213967.528,-122.488 
382645.631,4213917.528,-122.244 
382645.631,4213867.528,-122.358 
382645.631,4213817.528,-121.883 
382645.631,4213767.528,-119.334 
382645.631,4213717.528,-119.934 
382645.631,4213667.528,-119.183 
382645.631,4213617.528,-118.75 
382645.631,4213567.528,-117.489 
382645.631,4213517.528,-116.66 
382645.631,4213467.528,-116.304 
382645.631,4213417.528,-115.871 
382645.631,4213367.528,-115.296 
382645.631,4213317.528,-114.938 
382645.631,4213267.528,-114.394 
382645.631,4213217.528,-114.121 
382645.631,4213167.528,-113.492 
382645.631,4213117.528,-112.945 
382645.631,4213067.528,-112.755 
382645.631,4213017.528,-112.247 
382645.631,4212967.528,-112.934 
382645.631,4212917.528,-111.367 
382645.631,4212867.528,-104.509 
382645.631,4212817.528,-102.514 
382645.631,4212767.528,-96.472 
382645.631,4212717.528,-96.499 
382645.631,4212667.528,-101.411 
382645.631,4212617.528,-98.8 
382645.631,4212567.528,-97.41 
382645.631,4212517.528,-95.989 
382645.631,4212467.528,-95.076 
382645.631,4212417.528,-94.418 
382645.631,4212367.528,-93.901 
382645.631,4212317.528,-93.961 
382645.631,4212267.528,-93.755 
382645.631,4212217.528,-92.189 
382645.631,4212167.528,-90.5 
382645.631,4212117.528,-89.042 
382645.631,4212067.528,-87.627 
382645.631,4212017.528,-86.077 
382645.631,4211967.528,-85.16 
382645.631,4211917.528,-84.303 
382645.631,4211867.528,-83.082 
382645.631,4211817.528,-81.799 
382645.631,4211767.528,-81.267 
382645.631,4211717.528,-80.595 
382645.631,4211667.528,-79.407 
382645.631,4211617.528,-78.217 
382645.631,4211567.528,-77.424 
382645.631,4211517.528,-76.045 
382645.631,4211467.528,-74.677 
382645.631,4211417.528,-73.604 
382645.631,4211367.528,-72.286 
382645.631,4211317.528,-71.627 
382645.631,4211267.528,-70.907 
382645.631,4211217.528,-70.09 
382645.631,4211167.528,-69.923 
382645.631,4211117.528,-69.511 
382645.631,4211067.528,-69.393 
382645.631,4211017.528,-69.338 
382645.631,4210967.528,-68.027 
382645.631,4210917.528,-66.59 
382645.631,4210867.528,-65.35 
382645.631,4210817.528,-64.064 
382645.631,4210767.528,-63.302 
382645.631,4210717.528,-62.652 
382645.631,4210667.528,-61.419 
382645.631,4210617.528,-60.912 
382645.631,4210567.528,-60.347 
382645.631,4210517.528,-60.087 
382645.631,4210467.528,-59.89 
382645.631,4209717.528,-44.985 
382645.631,4209667.528,-44.075 
382645.631,4209617.528,-42.912 
382645.631,4209567.528,-42.03 
382645.631,4209517.528,-41.384 
382645.631,4209467.528,-40.503 
382645.631,4209417.528,-39.944 
382645.631,4209367.528,-39.19 
382645.631,4209317.528,-38.546 
382645.631,4209267.528,-37.623 
382645.631,4209217.528,-36.667 
382645.631,4209167.528,-35.847 
382645.631,4209117.528,-35.172 
382645.631,4209067.528,-34.613 
382645.631,4209017.528,-34.037 
382645.631,4208967.528,-33.131 
382645.631,4208917.528,-32.316 
382645.631,4208867.528,-31.557 
382645.631,4208817.528,-30.883 
382645.631,4208767.528,-30.342 
382645.631,4208717.528,-29.884 
382645.631,4208667.528,-29.288 
382645.631,4208617.528,-28.888 
382645.631,4208567.528,-28.517 
382645.631,4208517.528,-28.038 
382645.631,4208467.528,-27.673 
382645.631,4208417.528,-27.308 
382645.631,4208367.528,-26.823 
382645.631,4208317.528,-26.432 
382645.631,4208267.528,-25.998 
382645.631,4208217.528,-25.386 
382645.631,4208167.528,-24.973 
382645.631,4208117.528,-24.491 
382645.631,4208067.528,-24.072 
382645.631,4208017.528,-23.814 
382695.631,4214967.528,-177.416 
382695.631,4214917.528,-173.251 
382695.631,4214867.528,-170.164 
382695.631,4214817.528,-167.435 
382695.631,4214767.528,-157.453 
382695.631,4214717.528,-144.008 
382695.631,4214667.528,-138.365 
382695.631,4214617.528,-135.425 
382695.631,4214567.528,-133.45 
382695.631,4214517.528,-131.441 
382695.631,4214467.528,-129.595 
382695.631,4214417.528,-128.304 
382695.631,4214367.528,-126.299 
382695.631,4214317.528,-124.425 
382695.631,4214267.528,-124.994 
382695.631,4214217.528,-124.685 
382695.631,4214167.528,-123.936 
382695.631,4214117.528,-123.582 
382695.631,4214067.528,-123.497 
382695.631,4214017.528,-123.019 
382695.631,4213967.528,-122.899 
382695.631,4213917.528,-122.628 
382695.631,4213867.528,-122.668 
382695.631,4213817.528,-122.235 
382695.631,4213767.528,-119.231 
382695.631,4213717.528,-120.23 
382695.631,4213667.528,-119.386 
382695.631,4213617.528,-119.012 
382695.631,4213567.528,-117.658 
382695.631,4213517.528,-116.862 
382695.631,4213467.528,-116.533 
382695.631,4213417.528,-116.235 
382695.631,4213367.528,-115.402 
382695.631,4213317.528,-114.996 
382695.631,4213267.528,-114.451 
382695.631,4213217.528,-114.257 
382695.631,4213167.528,-113.603 
382695.631,4213117.528,-112.924 
382695.631,4213067.528,-112.765 
382695.631,4213017.528,-112.211 
382695.631,4212967.528,-112.52 
382695.631,4212917.528,-111.268 
382695.631,4212867.528,-106.429 
382695.631,4212817.528,-102.636 
382695.631,4212767.528,-97.449 
