539344.434,4375637.980,-501.100
539344.434,4375537.411,-484.400
539344.434,4375436.842,-460.800
539344.434,4375336.273,-437.500
539344.434,4375235.704,-413.900
539344.434,4375135.135,-394.200
539344.434,4375034.566,-377.800
539344.434,4374933.997,-361.700
539344.434,4374833.428,-348.700
539344.434,4374732.859,-338.100
539344.434,4374632.290,-328.900
539344.434,4374531.721,-322.700
539344.434,4374431.152,-317.800
539344.434,4374330.583,-313.800
539344.434,4374230.014,-310.900
539344.434,4374129.445,-308.000
539344.434,4374028.876,-304.700
539344.434,4373928.307,-300.100
539344.434,4373827.738,-293.700
539344.434,4373727.169,-289.700
539344.434,4373626.600,-289.800
539344.434,4373526.031,-289.700
539344.434,4373425.462,-288.800
539344.434,4373324.893,-287.000
539344.434,4373224.324,-284.700
539344.434,4373123.755,-282.400
539344.434,4373023.186,-279.800
539344.434,4372922.618,-276.200
539344.434,4372822.049,-269.300
539344.434,4372721.480,-259.500
539344.434,4372620.911,-249.500
539344.434,4372520.342,-242.400
539344.434,4372419.773,-239.900
539344.434,4372319.204,-238.900
539344.434,4372218.635,-238.400
539344.434,4372118.066,-240.200
539344.434,4372017.497,-243.500
539344.434,4371916.928,-246.200
539344.434,4371816.359,-248.500
539344.434,4371715.790,-251.200
539344.434,4371615.221,-254.700
539344.434,4371514.652,-259.000
539344.434,4371414.083,-264.200
539344.434,4371313.514,-269.600
539344.434,4371212.945,-273.300
539344.434,4371112.376,-275.400
539344.434,4371011.807,-277.300
539344.434,4370911.238,-279.300
539344.434,4370810.669,-281.700
539344.434,4370710.100,-286.100
539344.434,4370609.531,-295.700
539344.434,4370508.962,-310.200
539344.434,4370408.393,-324.900
539344.434,4370307.824,-339.800
539344.434,4370207.255,-359.500
539344.434,4370106.686,-382.500
539344.434,4370006.117,-405.300
539344.434,4369905.548,-428.500
539344.434,4369804.979,-453.600
539344.434,4369704.410,-477.500
539344.434,4369603.841,-498.000
539344.434,4369503.272,-513.600
539344.434,4369402.703,-521.800
539344.434,4369302.134,-523.600
539344.434,4369201.565,-523.100
539344.434,4369100.996,-520.400
539344.434,4369000.427,-518.900
539444.802,4402087.624,-695.018
539444.802,4401987.055,-691.632
539444.802,4401886.486,-689.275
539444.802,4401785.917,-694.907
539444.802,4401685.348,-688.183
539444.802,4401182.503,-696.700
539444.802,4401081.934,-696.100
539444.802,4400981.365,-694.600
539444.802,4400880.796,-689.100
539444.802,4400780.227,-678.600
539444.802,4400679.658,-665.300
539444.802,4400579.089,-652.400
539444.802,4400478.520,-642.400
539444.802,4400377.951,-635.800
539444.802,4400277.382,-631.200
539444.802,4400176.814,-628.500
539444.802,4400076.245,-627.900
539444.802,4399975.676,-631.500
539444.802,4399875.107,-642.300
539444.802,4399774.538,-661.400
539444.802,4399673.969,-680.200
539444.802,4399573.400,-694.600
539444.802,4399472.831,-695.170
539444.802,4399372.262,-697.413
539444.802,4399271.693,-697.003
539444.802,4399171.124,-696.122
539444.802,4399070.555,-699.347
539444.802,4397461.451,-694.682
539444.802,4397360.882,-694.686
539444.802,4397260.313,-694.690
539444.802,4397159.744,-694.694
539444.802,4397059.175,-694.698
539444.802,4396958.606,-694.702
539444.802,4396858.037,-694.706
539444.802,4396757.468,-694.710
539444.802,4396656.899,-694.714
539444.802,4396556.330,-694.718
539444.802,4394444.381,-694.800
539444.802,4394343.812,-685.400
539444.802,4394243.243,-675.600
539444.802,4394142.674,-668.000
539444.802,4394042.105,-665.200
539444.802,4393941.536,-664.400
539444.802,4393840.967,-663.900
539444.802,4393740.398,-662.800
539444.802,4393639.829,-660.500
539444.802,4393539.260,-655.300
539444.802,4393438.691,-652.300
539444.802,4393338.122,-651.400
539444.802,4393237.553,-651.200
539444.802,4393136.984,-650.600
539444.802,4393036.415,-649.900
539444.802,4392935.846,-649.800
539444.802,4392835.277,-645.200
539444.802,4392734.708,-645.900
539444.802,4392634.139,-653.500
539444.802,4392533.570,-655.000
539444.802,4392433.001,-656.900
539444.802,4392332.432,-661.400
539444.802,4392231.863,-667.800
539444.802,4392131.294,-674.600
539444.802,4392030.725,-678.400
539444.802,4391930.156,-677.200
539444.802,4391829.587,-671.000
539444.802,4391729.018,-665.100
539444.802,4391628.449,-662.100
539444.802,4391527.880,-661.100
539444.802,4391427.311,-656.900
539444.802,4391326.742,-650.800
539444.802,4391226.173,-643.700
539444.802,4391125.605,-634.800
539444.802,4391025.036,-629.300
539444.802,4390924.467,-628.400
539444.802,4390823.898,-629.400
539444.802,4390723.329,-632.800
539444.802,4390622.760,-637.300
539444.802,4390522.191,-640.500
539444.802,4390421.622,-643.400
539444.802,4390321.053,-646.800
539444.802,4390220.484,-650.700
539444.802,4390119.915,-653.700
539444.802,4390019.346,-658.100
539444.802,4389918.777,-662.400
539444.802,4389818.208,-666.600
539444.802,4389717.639,-671.300
539444.802,4389617.070,-678.300
539444.802,4389516.501,-687.200
539444.802,4389415.932,-694.600
539444.802,4389315.363,-697.993
539444.802,4389214.794,-694.378
539444.802,4389114.225,-695.294
539444.802,4389013.656,-690.214
539444.802,4388913.087,-692.925
539444.802,4388812.518,-694.619
539444.802,4388711.949,-693.505
539444.802,4388611.380,-699.079
539444.802,4388510.811,-696.000
539444.802,4388410.242,-695.915
539444.802,4388309.673,-697.017
539444.802,4387303.983,-682.618
539444.802,4387203.414,-682.047
539444.802,4387102.845,-681.477
539444.802,4387002.276,-680.906
539444.802,4386901.707,-680.335
539444.802,4386801.138,-679.765
539444.802,4386700.569,-679.194
539444.802,4386600.000,-678.624
539444.802,4386499.431,-678.053
539444.802,4386398.862,-677.482
539444.802,4384286.913,-665.500
539444.802,4384186.344,-617.400
539444.802,4384085.775,-588.000
539444.802,4383985.206,-582.100
539444.802,4383884.637,-609.000
539444.802,4383784.068,-649.400
539444.802,4383683.499,-670.900
539444.802,4383582.930,-698.800
539444.802,4383482.361,-698.000
539444.802,4383381.792,-697.200
539444.802,4383281.223,-696.400
539444.802,4383180.654,-695.000
539444.802,4383080.085,-685.800
539444.802,4382979.516,-673.500
539444.802,4382878.947,-651.700
539444.802,4382778.378,-628.400
539444.802,4382677.809,-611.600
539444.802,4382577.240,-587.000
539444.802,4382476.671,-570.400
539444.802,4382376.102,-555.000
539444.802,4382275.533,-529.600
539444.802,4382174.964,-492.700
539444.802,4382074.395,-465.800
539444.802,4381973.827,-460.600
539444.802,4381873.258,-458.400
539444.802,4381772.689,-445.400
539444.802,4381672.120,-436.200
539444.802,4381571.551,-429.600
539444.802,4381470.982,-427.200
539444.802,4381370.413,-427.400
539444.802,4381269.844,-425.500
539444.802,4381169.275,-422.900
539444.802,4381068.706,-422.200
539444.802,4380968.137,-423.200
539444.802,4380867.568,-424.600
539444.802,4380766.999,-427.300
539444.802,4380666.430,-429.600
539444.802,4380565.861,-428.100
539444.802,4380465.292,-423.800
539444.802,4380364.723,-420.900
539444.802,4380264.154,-417.400
539444.802,4380163.585,-411.100
539444.802,4380063.016,-401.000
539444.802,4379962.447,-390.300
539444.802,4379861.878,-380.700
539444.802,4379761.309,-371.300
539444.802,4379660.740,-363.400
539444.802,4379560.171,-357.200
539444.802,4379459.602,-350.200
539444.802,4379359.033,-341.100
539444.802,4379258.464,-329.400
539444.802,4379157.895,-316.700
539444.802,4379057.326,-302.900
539444.802,4378956.757,-289.000
539444.802,4378856.188,-278.000
539444.802,4378755.619,-268.700
539444.802,4378655.050,-260.100
539444.802,4378554.481,-252.800
539444.802,4378453.912,-251.800
539444.802,4378353.343,-255.900
539444.802,4378252.774,-263.300
539444.802,4378152.205,-270.000
539444.802,4378051.636,-275.800
539444.802,4377951.067,-281.900
539444.802,4377850.498,-286.800
539444.802,4377749.929,-293.100
539444.802,4377649.360,-304.500
539444.802,4377548.791,-320.400
539444.802,4377448.222,-338.500
539444.802,4377347.653,-359.500
539444.802,4377247.084,-385.300
539444.802,4377146.515,-415.100
539444.802,4377045.946,-442.600
539444.802,4376945.377,-460.000
539444.802,4376844.808,-470.100
539444.802,4376744.239,-477.900
539444.802,4376643.670,-485.500
539444.802,4376543.101,-491.800
539444.802,4376442.532,-496.600
539444.802,4376341.963,-499.800
539444.802,4376241.394,-502.900
539444.802,4376140.825,-505.900
539444.802,4376040.256,-508.100
539444.802,4375939.687,-509.100
539444.802,4375839.118,-509.300
539444.802,4375738.549,-508.300
539444.802,4375637.980,-504.400
539444.802,4375537.411,-493.900
539444.802,4375436.842,-476.500
539444.802,4375336.273,-453.800
539444.802,4375235.704,-425.700
539444.802,4375135.135,-399.500
539444.802,4375034.566,-378.700
539444.802,4374933.997,-362.200
539444.802,4374833.428,-350.500
539444.802,4374732.859,-340.100
539444.802,4374632.290,-330.900
539444.802,4374531.721,-323.500
539444.802,4374431.152,-317.500
539444.802,4374330.583,-312.100
539444.802,4374230.014,-307.500
539444.802,4374129.445,-304.100
539444.802,4374028.876,-301.100
539444.802,4373928.307,-296.600
539444.802,4373827.738,-290.400
539444.802,4373727.169,-285.000
539444.802,4373626.600,-282.900
539444.802,4373526.031,-282.500
539444.802,4373425.462,-281.500
539444.802,4373324.893,-280.100
539444.802,4373224.324,-278.600
539444.802,4373123.755,-277.200
539444.802,4373023.186,-275.600
539444.802,4372922.618,-272.300
539444.802,4372822.049,-265.500
539444.802,4372721.480,-255.800
539444.802,4372620.911,-244.900
539444.802,4372520.342,-236.000
539444.802,4372419.773,-232.000
539444.802,4372319.204,-231.600
539444.802,4372218.635,-233.200
539444.802,4372118.066,-236.200
539444.802,4372017.497,-239.500
539444.802,4371916.928,-242.700
539444.802,4371816.359,-245.800
539444.802,4371715.790,-249.200
539444.802,4371615.221,-252.900
539444.802,4371514.652,-257.000
539444.802,4371414.083,-261.900
539444.802,4371313.514,-267.100
539444.802,4371212.945,-271.000
539444.802,4371112.376,-273.400
539444.802,4371011.807,-275.300
539444.802,4370911.238,-277.200
539444.802,4370810.669,-279.400
539444.802,4370710.100,-283.100
539444.802,4370609.531,-291.800
539444.802,4370508.962,-307.900
539444.802,4370408.393,-326.700
539444.802,4370307.824,-345.000
539444.802,4370207.255,-365.500
539444.802,4370106.686,-387.800
539444.802,4370006.117,-410.100
539444.802,4369905.548,-433.700
539444.802,4369804.979,-458.900
539444.802,4369704.410,-482.400
539444.802,4369603.841,-501.600
539444.802,4369503.272,-515.500
539444.802,4369402.703,-522.300
539444.802,4369302.134,-523.500
539444.802,4369201.565,-522.500
539444.802,4369100.996,-518.500
539444.802,4369000.427,-516.200
539545.170,4402288.762,-694.828
539545.170,4402188.193,-690.278
539545.170,4402087.624,-694.911
539545.170,4401987.055,-691.900
539545.170,4401886.486,-689.325
539545.170,4401785.917,-695.021
539545.170,4401283.072,-697.800
539545.170,4401182.503,-696.300
539545.170,4401081.934,-696.000
539545.170,4400981.365,-693.900
539545.170,4400880.796,-687.200
539545.170,4400780.227,-675.500
539545.170,4400679.658,-661.600
539545.170,4400579.089,-649.100
539545.170,4400478.520,-640.300
539545.170,4400377.951,-634.800
539545.170,4400277.382,-631.100
539545.170,4400176.814,-629.800
539545.170,4400076.245,-632.300
539545.170,4399975.676,-641.100
539545.170,4399875.107,-656.800
539545.170,4399774.538,-676.000
539545.170,4399673.969,-691.900
539545.170,4399573.400,-694.321
539545.170,4399472.831,-694.856
539545.170,4399372.262,-697.035
539545.170,4399271.693,-697.061
539545.170,4399171.124,-696.150
539545.170,4399070.555,-699.266
539545.170,4398969.986,-697.290
539545.170,4397562.020,-693.177
539545.170,4397461.451,-693.237
539545.170,4397360.882,-693.298
539545.170,4397260.313,-693.359
539545.170,4397159.744,-693.420
539545.170,4397059.175,-693.480
539545.170,4396958.606,-693.541
539545.170,4396858.037,-693.602
539545.170,4396757.468,-693.663
539545.170,4396656.899,-693.724
539545.170,4394544.950,-695.000
539545.170,4394444.381,-686.400
539545.170,4394343.812,-677.700
539545.170,4394243.243,-670.300
539545.170,4394142.674,-664.200
539545.170,4394042.105,-661.500
539545.170,4393941.536,-659.900
539545.170,4393840.967,-657.700
539545.170,4393740.398,-654.900
539545.170,4393639.829,-650.400
539545.170,4393539.260,-645.900
539545.170,4393438.691,-645.300
539545.170,4393338.122,-646.300
539545.170,4393237.553,-647.200
539545.170,4393136.984,-647.600
539545.170,4393036.415,-646.300
539545.170,4392935.846,-645.100
539545.170,4392835.277,-640.100
539545.170,4392734.708,-636.800
539545.170,4392634.139,-638.000
539545.170,4392533.570,-636.100
539545.170,4392433.001,-636.800
539545.170,4392332.432,-640.700
539545.170,4392231.863,-644.900
539545.170,4392131.294,-647.900
539545.170,4392030.725,-648.200
539545.170,4391930.156,-645.100
539545.170,4391829.587,-638.200
539545.170,4391729.018,-636.700
539545.170,4391628.449,-637.100
539545.170,4391527.880,-637.100
539545.170,4391427.311,-635.300
539545.170,4391326.742,-634.000
539545.170,4391226.173,-631.600
539545.170,4391125.605,-627.900
539545.170,4391025.036,-625.900
539545.170,4390924.467,-626.200
539545.170,4390823.898,-627.600
539545.170,4390723.329,-631.200
539545.170,4390622.760,-635.300
539545.170,4390522.191,-637.700
539545.170,4390421.622,-640.800
539545.170,4390321.053,-644.200
539545.170,4390220.484,-648.000
539545.170,4390119.915,-651.100
539545.170,4390019.346,-656.100
539545.170,4389918.777,-661.200
539545.170,4389818.208,-666.300
539545.170,4389717.639,-673.100
539545.170,4389617.070,-680.700
539545.170,4389516.501,-688.700
539545.170,4389415.932,-696.000
539545.170,4389315.363,-697.540
539545.170,4389214.794,-693.022
539545.170,4389114.225,-695.151
539545.170,4389013.656,-689.860
539545.170,4388913.087,-692.917
539545.170,4388812.518,-694.824
539545.170,4388711.949,-693.524
539545.170,4388611.380,-699.055
539545.170,4388510.811,-696.100
539545.170,4388410.242,-695.933
539545.170,4388309.673,-697.033
539545.170,4388209.104,-698.182
539545.170,4387303.983,-671.376
539545.170,4387203.414,-670.204
539545.170,4387102.845,-669.031
539545.170,4387002.276,-667.859
539545.170,4386901.707,-666.686
539545.170,4386801.138,-665.514
539545.170,4386700.569,-664.341
539545.170,4386600.000,-663.169
539545.170,4386499.431,-661.996
539545.170,4386398.862,-660.824
539545.170,4384286.913,-636.200
539545.170,4384186.344,-579.900
539545.170,4384085.775,-555.700
539545.170,4383985.206,-552.200
539545.170,4383884.637,-575.600
539545.170,4383784.068,-597.200
539545.170,4383683.499,-618.700
539545.170,4383582.930,-649.200
539545.170,4383482.361,-672.200
539545.170,4383381.792,-655.200
539545.170,4383281.223,-645.000
539545.170,4383180.654,-645.600
539545.170,4383080.085,-640.400
539545.170,4382979.516,-630.600
539545.170,4382878.947,-613.100
539545.170,4382778.378,-594.800
539545.170,4382677.809,-579.100
539545.170,4382577.240,-561.700
539545.170,4382476.671,-534.300
539545.170,4382376.102,-510.500
539545.170,4382275.533,-492.000
539545.170,4382174.964,-467.800
539545.170,4382074.395,-449.400
539545.170,4381973.827,-441.500
539545.170,4381873.258,-438.600
539545.170,4381772.689,-430.700
539545.170,4381672.120,-424.400
539545.170,4381571.551,-419.800
539545.170,4381470.982,-418.600
539545.170,4381370.413,-418.100
539545.170,4381269.844,-416.200
539545.170,4381169.275,-415.100
539545.170,4381068.706,-415.100
539545.170,4380968.137,-416.100
539545.170,4380867.568,-417.800
539545.170,4380766.999,-420.800
539545.170,4380666.430,-423.600
539545.170,4380565.861,-423.600
539545.170,4380465.292,-421.400
539545.170,4380364.723,-419.500
539545.170,4380264.154,-416.100
539545.170,4380163.585,-409.100
539545.170,4380063.016,-397.600
539545.170,4379962.447,-385.900
539545.170,4379861.878,-376.000
539545.170,4379761.309,-366.900
539545.170,4379660.740,-357.900
539545.170,4379560.171,-349.000
539545.170,4379459.602,-340.200
539545.170,4379359.033,-329.600
539545.170,4379258.464,-318.500
539545.170,4379157.895,-307.200
539545.170,4379057.326,-295.100
539545.170,4378956.757,-283.200
539545.170,4378856.188,-273.300
539545.170,4378755.619,-265.200
539545.170,4378655.050,-258.200
539545.170,4378554.481,-251.600
539545.170,4378453.912,-250.400
539545.170,4378353.343,-254.500
539545.170,4378252.774,-259.900
539545.170,4378152.205,-265.700
539545.170,4378051.636,-272.700
539545.170,4377951.067,-280.100
539545.170,4377850.498,-285.600
539545.170,4377749.929,-292.000
539545.170,4377649.360,-302.900
539545.170,4377548.791,-319.000
539545.170,4377448.222,-337.900
539545.170,4377347.653,-359.300
539545.170,4377247.084,-385.500
539545.170,4377146.515,-415.900
539545.170,4377045.946,-444.400
539545.170,4376945.377,-463.500
539545.170,4376844.808,-474.100
539545.170,4376744.239,-480.400
539545.170,4376643.670,-486.400
539545.170,4376543.101,-492.500
539545.170,4376442.532,-496.500
539545.170,4376341.963,-499.400
539545.170,4376241.394,-502.200
539545.170,4376140.825,-504.800
539545.170,4376040.256,-506.500
539545.170,4375939.687,-507.300
539545.170,4375839.118,-507.900
539545.170,4375738.549,-507.800
539545.170,4375637.980,-506.100
539545.170,4375537.411,-500.400
539545.170,4375436.842,-488.300
539545.170,4375336.273,-468.100
539545.170,4375235.704,-439.000
539545.170,4375135.135,-407.500
539545.170,4375034.566,-381.800
539545.170,4374933.997,-365.100
539545.170,4374833.428,-354.400
539545.170,4374732.859,-344.900
539545.170,4374632.290,-336.200
539545.170,4374531.721,-328.700
539545.170,4374431.152,-321.400
539545.170,4374330.583,-314.000
539545.170,4374230.014,-307.900
539545.170,4374129.445,-303.300
539545.170,4374028.876,-299.800
539545.170,4373928.307,-295.500
539545.170,4373827.738,-289.900
539545.170,4373727.169,-283.400
539545.170,4373626.600,-279.200
539545.170,4373526.031,-277.700
539545.170,4373425.462,-275.300
539545.170,4373324.893,-272.500
539545.170,4373224.324,-271.100
539545.170,4373123.755,-271.200
539545.170,4373023.186,-271.400
539545.170,4372922.618,-269.500
539545.170,4372822.049,-263.000
539545.170,4372721.480,-254.000
539545.170,4372620.911,-244.800
539545.170,4372520.342,-235.200
539545.170,4372419.773,-229.300
539545.170,4372319.204,-228.700
539545.170,4372218.635,-231.400
539545.170,4372118.066,-235.100
539545.170,4372017.497,-237.900
539545.170,4371916.928,-241.200
539545.170,4371816.359,-244.600
539545.170,4371715.790,-248.000
539545.170,4371615.221,-251.600
539545.170,4371514.652,-255.500
539545.170,4371414.083,-260.100
539545.170,4371313.514,-264.800
539545.170,4371212.945,-268.300
539545.170,4371112.376,-270.800
539545.170,4371011.807,-273.000
539545.170,4370911.238,-275.400
539545.170,4370810.669,-278.300
539545.170,4370710.100,-282.800
539545.170,4370609.531,-291.600
539545.170,4370508.962,-307.700
539545.170,4370408.393,-328.900
539545.170,4370307.824,-350.600
539545.170,4370207.255,-371.700
539545.170,4370106.686,-393.100
539545.170,4370006.117,-415.200
539545.170,4369905.548,-439.200
539545.170,4369804.979,-464.200
539545.170,4369704.410,-486.800
539545.170,4369603.841,-504.800
539545.170,4369503.272,-517.000
539545.170,4369402.703,-522.400
539545.170,4369302.134,-523.000
539545.170,4369201.565,-521.300
539545.170,4369100.996,-515.500
539545.170,4369000.427,-512.700
539645.538,4402590.469,-690.872
539645.538,4402489.900,-688.843
539645.538,4402389.331,-689.383
539645.538,4402288.762,-694.877
539645.538,4402188.193,-690.135
539645.538,4402087.624,-694.804
539645.538,4401987.055,-692.168
539645.538,4401886.486,-689.374
539645.538,4401383.641,-698.800
539645.538,4401283.072,-696.400
539645.538,4401182.503,-696.200
539645.538,4401081.934,-695.000
539645.538,4400981.365,-691.600
539645.538,4400880.796,-684.300
539645.538,4400780.227,-672.400
539645.538,4400679.658,-658.700
539645.538,4400579.089,-647.300
539645.538,4400478.520,-640.000
539645.538,4400377.951,-635.800
539645.538,4400277.382,-633.900
539645.538,4400176.814,-635.000
539645.538,4400076.245,-641.500
539645.538,4399975.676,-654.600
539645.538,4399875.107,-671.200
539645.538,4399774.538,-688.200
539645.538,4399673.969,-692.005
539645.538,4399573.400,-694.042
539645.538,4399472.831,-694.541
539645.538,4399372.262,-696.658
539645.538,4399271.693,-697.118
539645.538,4399171.124,-696.178
539645.538,4399070.555,-699.184
539645.538,4398969.986,-697.244
539645.538,4398869.417,-699.064
539645.538,4397763.158,-692.240
539645.538,4397662.589,-692.442
539645.538,4397562.020,-692.644
539645.538,4397461.451,-692.846
539645.538,4397360.882,-693.048
539645.538,4397260.313,-693.250
539645.538,4397159.744,-693.452
539645.538,4397059.175,-693.654
539645.538,4396958.606,-693.856
539645.538,4396858.037,-694.058
539645.538,4396757.468,-694.260
539645.538,4394746.088,-698.300
539645.538,4394645.519,-692.000
539645.538,4394544.950,-685.200
539645.538,4394444.381,-677.800
539645.538,4394343.812,-670.200
539645.538,4394243.243,-663.900
539645.538,4394142.674,-658.000
539645.538,4394042.105,-653.700
539645.538,4393941.536,-650.500
539645.538,4393840.967,-646.200
539645.538,4393740.398,-643.400
539645.538,4393639.829,-642.000
539645.538,4393539.260,-641.600
539645.538,4393438.691,-642.800
539645.538,4393338.122,-643.000
539645.538,4393237.553,-641.400
539645.538,4393136.984,-638.900
539645.538,4393036.415,-635.600
539645.538,4392935.846,-632.300
539645.538,4392835.277,-627.000
539645.538,4392734.708,-622.000
539645.538,4392634.139,-620.900
539645.538,4392533.570,-620.700
539645.538,4392433.001,-620.100
539645.538,4392332.432,-621.100
539645.538,4392231.863,-621.400
539645.538,4392131.294,-620.700
539645.538,4392030.725,-618.300
539645.538,4391930.156,-616.400
539645.538,4391829.587,-614.000
539645.538,4391729.018,-616.900
539645.538,4391628.449,-619.600
539645.538,4391527.880,-621.200
539645.538,4391427.311,-622.900
539645.538,4391326.742,-625.200
539645.538,4391226.173,-627.200
539645.538,4391125.605,-627.900
539645.538,4391025.036,-627.000
539645.538,4390924.467,-625.900
539645.538,4390823.898,-626.900
539645.538,4390723.329,-630.000
539645.538,4390622.760,-634.100
539645.538,4390522.191,-636.400
539645.538,4390421.622,-639.600
539645.538,4390321.053,-642.900
539645.538,4390220.484,-646.500
539645.538,4390119.915,-650.500
539645.538,4390019.346,-655.500
539645.538,4389918.777,-661.400
539645.538,4389818.208,-667.400
539645.538,4389717.639,-674.400
539645.538,4389617.070,-680.800
539645.538,4389516.501,-689.300
539645.538,4389415.932,-700.000
539645.538,4389315.363,-697.087
539645.538,4389214.794,-691.667
539645.538,4389114.225,-695.009
539645.538,4389013.656,-689.506
539645.538,4388913.087,-692.908
539645.538,4388812.518,-695.030
539645.538,4388711.949,-693.542
539645.538,4388611.380,-699.032
539645.538,4388510.811,-696.200
539645.538,4388410.242,-695.950
539645.538,4388309.673,-697.050
539645.538,4388209.104,-698.116
539645.538,4387404.552,-692.680
539645.538,4387303.983,-692.314
539645.538,4387203.414,-691.948
539645.538,4387102.845,-691.582
539645.538,4387002.276,-691.216
539645.538,4386901.707,-690.850
539645.538,4386801.138,-690.484
539645.538,4386700.569,-690.118
539645.538,4386600.000,-689.752
539645.538,4386499.431,-689.386
539645.538,4386398.862,-689.020
539645.538,4384387.482,-681.700
539645.538,4384286.913,-621.000
539645.538,4384186.344,-567.200
539645.538,4384085.775,-544.300
539645.538,4383985.206,-542.000
539645.538,4383884.637,-550.500
539645.538,4383784.068,-562.500
539645.538,4383683.499,-582.700
539645.538,4383582.930,-610.300
539645.538,4383482.361,-627.500
539645.538,4383381.792,-617.300
539645.538,4383281.223,-609.400
539645.538,4383180.654,-612.000
539645.538,4383080.085,-607.800
539645.538,4382979.516,-596.100
539645.538,4382878.947,-583.000
539645.538,4382778.378,-559.100
539645.538,4382677.809,-536.800
539645.538,4382577.240,-528.400
539645.538,4382476.671,-498.900
539645.538,4382376.102,-468.300
539645.538,4382275.533,-453.000
539645.538,4382174.964,-442.000
539645.538,4382074.395,-434.200
539645.538,4381973.827,-428.400
539645.538,4381873.258,-424.500
539645.538,4381772.689,-419.600
539645.538,4381672.120,-415.100
539645.538,4381571.551,-411.900
539645.538,4381470.982,-411.200
539645.538,4381370.413,-410.500
539645.538,4381269.844,-409.100
539645.538,4381169.275,-408.900
539645.538,4381068.706,-409.700
539645.538,4380968.137,-409.900
539645.538,4380867.568,-410.200
539645.538,4380766.999,-414.000
539645.538,4380666.430,-417.800
539645.538,4380565.861,-420.200
539645.538,4380465.292,-419.900
539645.538,4380364.723,-418.600
539645.538,4380264.154,-414.500
539645.538,4380163.585,-408.200
539645.538,4380063.016,-395.600
539645.538,4379962.447,-382.600
539645.538,4379861.878,-372.200
539645.538,4379761.309,-363.700
539645.538,4379660.740,-353.700
539645.538,4379560.171,-341.800
539645.538,4379459.602,-330.000
539645.538,4379359.033,-317.600
539645.538,4379258.464,-306.800
539645.538,4379157.895,-297.500
539645.538,4379057.326,-287.100
539645.538,4378956.757,-277.200
539645.538,4378856.188,-268.800
539645.538,4378755.619,-261.700
539645.538,4378655.050,-255.700
539645.538,4378554.481,-250.800
539645.538,4378453.912,-249.800
539645.538,4378353.343,-253.000
539645.538,4378252.774,-257.000
539645.538,4378152.205,-263.300
539645.538,4378051.636,-271.200
539645.538,4377951.067,-278.400
539645.538,4377850.498,-284.000
539645.538,4377749.929,-291.000
539645.538,4377649.360,-302.100
539645.538,4377548.791,-318.500
539645.538,4377448.222,-337.200
539645.538,4377347.653,-358.600
539645.538,4377247.084,-384.200
539645.538,4377146.515,-413.700
539645.538,4377045.946,-442.300
539645.538,4376945.377,-464.100
539645.538,4376844.808,-477.700
539645.538,4376744.239,-485.400
539645.538,4376643.670,-490.800
539645.538,4376543.101,-495.900
539645.538,4376442.532,-498.400
539645.538,4376341.963,-499.800
539645.538,4376241.394,-501.700
539645.538,4376140.825,-504.000
539645.538,4376040.256,-505.700
539645.538,4375939.687,-506.500
539645.538,4375839.118,-507.300
539645.538,4375738.549,-507.900
539645.538,4375637.980,-507.200
539645.538,4375537.411,-503.400
539645.538,4375436.842,-494.700
539645.538,4375336.273,-478.500
539645.538,4375235.704,-451.900
539645.538,4375135.135,-419.200
539645.538,4375034.566,-389.800
539645.538,4374933.997,-370.000
539645.538,4374833.428,-359.000
539645.538,4374732.859,-351.200
539645.538,4374632.290,-344.000
539645.538,4374531.721,-336.900
539645.538,4374431.152,-328.700
539645.538,4374330.583,-319.800
539645.538,4374230.014,-312.100
539645.538,4374129.445,-306.400
539645.538,4374028.876,-302.000
539645.538,4373928.307,-297.500
539645.538,4373827.738,-292.400
539645.538,4373727.169,-285.500
539645.538,4373626.600,-278.600
539645.538,4373526.031,-274.000
539645.538,4373425.462,-269.100
539645.538,4373324.893,-264.400
539645.538,4373224.324,-264.000
539645.538,4373123.755,-266.300
539645.538,4373023.186,-268.400
539645.538,4372922.618,-268.300
539645.538,4372822.049,-262.700
539645.538,4372721.480,-255.200
539645.538,4372620.911,-248.600
539645.538,4372520.342,-239.900
539645.538,4372419.773,-233.300
539645.538,4372319.204,-232.300
539645.538,4372218.635,-234.900
539645.538,4372118.066,-237.900
539645.538,4372017.497,-239.600
539645.538,4371916.928,-241.400
539645.538,4371816.359,-244.000
539645.538,4371715.790,-247.300
539645.538,4371615.221,-250.900
539645.538,4371514.652,-254.500
539645.538,4371414.083,-258.700
539645.538,4371313.514,-262.800
539645.538,4371212.945,-265.900
539645.538,4371112.376,-268.400
539645.538,4371011.807,-271.000
539645.538,4370911.238,-274.000
539645.538,4370810.669,-278.300
539645.538,4370710.100,-284.400
539645.538,4370609.531,-292.800
539645.538,4370508.962,-306.100
539645.538,4370408.393,-326.600
539645.538,4370307.824,-352.400
539645.538,4370207.255,-377.900
539645.538,4370106.686,-400.400
539645.538,4370006.117,-422.300
539645.538,4369905.548,-445.500
539645.538,4369804.979,-468.800
539645.538,4369704.410,-489.700
539645.538,4369603.841,-506.300
539645.538,4369503.272,-517.200
539645.538,4369402.703,-521.600
539645.538,4369302.134,-521.900
539645.538,4369201.565,-519.100
539645.538,4369100.996,-511.000
539645.538,4369000.427,-507.600
539745.906,4402892.176,-696.523
539745.906,4402791.607,-693.435
539745.906,4402691.038,-688.855
539745.906,4402590.469,-690.823
539745.906,4402489.900,-688.645
539745.906,4402389.331,-689.074
539745.906,4402288.762,-694.926
539745.906,4402188.193,-689.993
539745.906,4402087.624,-694.696
539745.906,4401987.055,-692.436
539745.906,4401383.641,-696.500
539745.906,4401283.072,-695.900
539745.906,4401182.503,-695.900
539745.906,4401081.934,-693.700
539745.906,4400981.365,-688.500
539745.906,4400880.796,-680.500
539745.906,4400780.227,-669.500
539745.906,4400679.658,-657.300
539745.906,4400579.089,-647.900
539745.906,4400478.520,-642.700
539745.906,4400377.951,-640.600
539745.906,4400277.382,-641.500
539745.906,4400176.814,-646.700
539745.906,4400076.245,-656.300
539745.906,4399975.676,-669.800
539745.906,4399875.107,-684.100
539745.906,4399774.538,-698.100
539745.906,4399673.969,-692.109
539745.906,4399573.400,-693.763
539745.906,4399472.831,-694.226
539745.906,4399372.262,-696.281
539745.906,4399271.693,-697.176
539745.906,4399171.124,-696.206
539745.906,4399070.555,-699.103
539745.906,4398969.986,-697.198
539745.906,4398869.417,-699.018
539745.906,4398768.848,-697.825
539745.906,4397964.296,-698.138
539745.906,4397863.727,-698.140
539745.906,4397763.158,-698.142
539745.906,4397662.589,-698.144
539745.906,4397562.020,-698.146
539745.906,4397461.451,-698.148
539745.906,4397360.882,-698.150
539745.906,4397260.313,-698.152
539745.906,4397159.744,-698.154
539745.906,4397059.175,-698.156
539745.906,4396958.606,-698.158
539745.906,4396858.037,-698.160
539745.906,4396757.468,-698.163
539745.906,4394947.226,-698.200
539745.906,4394846.657,-691.700
539745.906,4394746.088,-685.200
539745.906,4394645.519,-679.900
539745.906,4394544.950,-674.600
539745.906,4394444.381,-669.100
539745.906,4394343.812,-663.200
539745.906,4394243.243,-655.200
539745.906,4394142.674,-649.200
539745.906,4394042.105,-644.700
539745.906,4393941.536,-641.200
539745.906,4393840.967,-638.100
539745.906,4393740.398,-637.400
539745.906,4393639.829,-638.500
539745.906,4393539.260,-638.400
539745.906,4393438.691,-636.900
539745.906,4393338.122,-633.100
539745.906,4393237.553,-628.000
539745.906,4393136.984,-624.100
539745.906,4393036.415,-621.100
539745.906,4392935.846,-617.900
539745.906,4392835.277,-613.900
539745.906,4392734.708,-610.200
539745.906,4392634.139,-609.900
539745.906,4392533.570,-609.100
539745.906,4392433.001,-606.800
539745.906,4392332.432,-605.200
539745.906,4392231.863,-604.200
539745.906,4392131.294,-602.900
539745.906,4392030.725,-601.000
539745.906,4391930.156,-601.700
539745.906,4391829.587,-603.200
539745.906,4391729.018,-607.100
539745.906,4391628.449,-610.500
539745.906,4391527.880,-613.900
539745.906,4391427.311,-617.900
539745.906,4391326.742,-622.800
539745.906,4391226.173,-627.400
539745.906,4391125.605,-630.400
539745.906,4391025.036,-630.300
539745.906,4390924.467,-628.600
539745.906,4390823.898,-628.600
539745.906,4390723.329,-630.600
539745.906,4390622.760,-634.400
539745.906,4390522.191,-637.100
539745.906,4390421.622,-639.800
539745.906,4390321.053,-642.700
539745.906,4390220.484,-646.200
539745.906,4390119.915,-650.600
539745.906,4390019.346,-656.400
539745.906,4389918.777,-662.000
539745.906,4389818.208,-668.400
539745.906,4389717.639,-674.000
539745.906,4389617.070,-682.600
539745.906,4389516.501,-694.400
539745.906,4389415.932,-698.382
539745.906,4389315.363,-696.633
539745.906,4389214.794,-690.311
539745.906,4389114.225,-694.867
539745.906,4389013.656,-689.151
539745.906,4388913.087,-692.900
539745.906,4388812.518,-695.235
539745.906,4388711.949,-693.561
539745.906,4388611.380,-699.008
539745.906,4388510.811,-696.300
539745.906,4388410.242,-695.967
539745.906,4388309.673,-697.067
539745.906,4388209.104,-698.050
539745.906,4387404.552,-684.353
539745.906,4387303.983,-683.875
539745.906,4387203.414,-683.396
539745.906,4387102.845,-682.918
539745.906,4387002.276,-682.439
539745.906,4386901.707,-681.961
539745.906,4386801.138,-681.482
539745.906,4386700.569,-681.004
539745.906,4386600.000,-680.526
539745.906,4386499.431,-680.047
539745.906,4384387.482,-670.000
539745.906,4384286.913,-621.300
539745.906,4384186.344,-574.900
539745.906,4384085.775,-545.400
539745.906,4383985.206,-536.300
539745.906,4383884.637,-533.400
539745.906,4383784.068,-539.400
539745.906,4383683.499,-552.200
539745.906,4383582.930,-576.000
539745.906,4383482.361,-594.300
539745.906,4383381.792,-587.600
539745.906,4383281.223,-574.000
539745.906,4383180.654,-573.900
539745.906,4383080.085,-572.300
539745.906,4382979.516,-555.500
539745.906,4382878.947,-541.100
539745.906,4382778.378,-516.500
539745.906,4382677.809,-487.600
539745.906,4382577.240,-481.300
539745.906,4382476.671,-462.800
539745.906,4382376.102,-439.200
539745.906,4382275.533,-430.000
539745.906,4382174.964,-425.800
539745.906,4382074.395,-422.000
539745.906,4381973.827,-418.100
539745.906,4381873.258,-413.800
539745.906,4381772.689,-410.600
539745.906,4381672.120,-408.200
539745.906,4381571.551,-405.800
539745.906,4381470.982,-405.500
539745.906,4381370.413,-404.500
539745.906,4381269.844,-403.100
539745.906,4381169.275,-402.700
539745.906,4381068.706,-402.600
539745.906,4380968.137,-399.300
539745.906,4380867.568,-400.700
539745.906,4380766.999,-406.700
539745.906,4380666.430,-412.600
539745.906,4380565.861,-417.700
539745.906,4380465.292,-418.700
539745.906,4380364.723,-417.300
539745.906,4380264.154,-414.000
539745.906,4380163.585,-407.700
539745.906,4380063.016,-394.700
539745.906,4379962.447,-380.300
539745.906,4379861.878,-369.600
539745.906,4379761.309,-360.100
539745.906,4379660.740,-347.800
539745.906,4379560.171,-331.300
539745.906,4379459.602,-316.900
539745.906,4379359.033,-306.700
539745.906,4379258.464,-296.100
539745.906,4379157.895,-287.900
539745.906,4379057.326,-279.600
539745.906,4378956.757,-271.900
539745.906,4378856.188,-265.000
539745.906,4378755.619,-258.200
539745.906,4378655.050,-252.700
539745.906,4378554.481,-249.600
539745.906,4378453.912,-249.500
539745.906,4378353.343,-251.500
539745.906,4378252.774,-255.000
539745.906,4378152.205,-261.100
539745.906,4378051.636,-268.500
539745.906,4377951.067,-275.600
539745.906,4377850.498,-282.400
539745.906,4377749.929,-290.600
539745.906,4377649.360,-302.200
539745.906,4377548.791,-318.300
539745.906,4377448.222,-336.700
539745.906,4377347.653,-357.300
539745.906,4377247.084,-381.100
539745.906,4377146.515,-407.100
539745.906,4377045.946,-431.400
539745.906,4376945.377,-450.900
539745.906,4376844.808,-467.800
539745.906,4376744.239,-483.800
539745.906,4376643.670,-495.500
539745.906,4376543.101,-498.800
539745.906,4376442.532,-499.700
539745.906,4376341.963,-500.000
539745.906,4376241.394,-501.300
539745.906,4376140.825,-503.400
539745.906,4376040.256,-504.900
539745.906,4375939.687,-505.900
539745.906,4375839.118,-506.800
539745.906,4375738.549,-507.600
539745.906,4375637.980,-507.700
539745.906,4375537.411,-505.200
539745.906,4375436.842,-498.200
539745.906,4375336.273,-485.000
539745.906,4375235.704,-463.500
539745.906,4375135.135,-435.600
539745.906,4375034.566,-406.100
539745.906,4374933.997,-380.700
539745.906,4374833.428,-365.200
539745.906,4374732.859,-356.700
539745.906,4374632.290,-350.100
539745.906,4374531.721,-343.900
539745.906,4374431.152,-336.600
539745.906,4374330.583,-327.700
539745.906,4374230.014,-319.100
539745.906,4374129.445,-312.400
539745.906,4374028.876,-307.300
539745.906,4373928.307,-302.600
539745.906,4373827.738,-297.400
539745.906,4373727.169,-290.900
539745.906,4373626.600,-283.900
539745.906,4373526.031,-276.300
539745.906,4373425.462,-267.300
539745.906,4373324.893,-261.400
539745.906,4373224.324,-262.100
539745.906,4373123.755,-265.600
539745.906,4373023.186,-268.000
539745.906,4372922.618,-268.400
539745.906,4372822.049,-264.400
539745.906,4372721.480,-258.900
539745.906,4372620.911,-253.800
539745.906,4372520.342,-246.800
539745.906,4372419.773,-241.100
539745.906,4372319.204,-239.700
539745.906,4372218.635,-241.500
539745.906,4372118.066,-242.900
539745.906,4372017.497,-243.000
539745.906,4371916.928,-243.100
539745.906,4371816.359,-244.500
539745.906,4371715.790,-247.300
539745.906,4371615.221,-250.600
539745.906,4371514.652,-254.100
539745.906,4371414.083,-257.800
539745.906,4371313.514,-261.400
539745.906,4371212.945,-264.400
539745.906,4371112.376,-267.200
539745.906,4371011.807,-269.900
539745.906,4370911.238,-273.300
539745.906,4370810.669,-279.500
539745.906,4370710.100,-287.500
539745.906,4370609.531,-296.400
539745.906,4370508.962,-308.300
539745.906,4370408.393,-326.200
539745.906,4370307.824,-352.800
539745.906,4370207.255,-383.400
539745.906,4370106.686,-409.500
539745.906,4370006.117,-431.600
539745.906,4369905.548,-453.100
539745.906,4369804.979,-473.600
539745.906,4369704.410,-491.700
539745.906,4369603.841,-506.300
539745.906,4369503.272,-515.800
539745.906,4369402.703,-519.900
539745.906,4369302.134,-520.700
539745.906,4369201.565,-516.800
539745.906,4369100.996,-506.200
539745.906,4369000.427,-501.700
539846.274,4403193.883,-696.323
539846.274,4403093.314,-689.788
539846.274,4402992.745,-687.353
539846.274,4402892.176,-696.463
539846.274,4402791.607,-693.213
539846.274,4402691.038,-688.496
539846.274,4402590.469,-690.774
539846.274,4402489.900,-688.447
539846.274,4402389.331,-688.764
539846.274,4402288.762,-694.975
539846.274,4402188.193,-689.850
539846.274,4402087.624,-694.589
539846.274,4401484.210,-698.300
539846.274,4401383.641,-695.700
539846.274,4401283.072,-695.400
539846.274,4401182.503,-694.500
539846.274,4401081.934,-691.200
539846.274,4400981.365,-686.100
539846.274,4400880.796,-680.100
539846.274,4400780.227,-670.700
539846.274,4400679.658,-659.500
539846.274,4400579.089,-651.900
539846.274,4400478.520,-649.700
539846.274,4400377.951,-651.300
539846.274,4400277.382,-654.900
539846.274,4400176.814,-661.600
539846.274,4400076.245,-671.300
539846.274,4399975.676,-683.200
539846.274,4399875.107,-695.800
539846.274,4399774.538,-697.725
539846.274,4399673.969,-692.214
539846.274,4399573.400,-693.483
539846.274,4399472.831,-693.911
539846.274,4399372.262,-695.903
539846.274,4399271.693,-697.233
539846.274,4399171.124,-696.233
539846.274,4399070.555,-699.021
539846.274,4398969.986,-697.151
539846.274,4398869.417,-698.973
539846.274,4398768.848,-697.854
539846.274,4398064.865,-695.125
539846.274,4397964.296,-695.087
539846.274,4397863.727,-695.050
539846.274,4397763.158,-695.013
539846.274,4397662.589,-694.975
539846.274,4397562.020,-694.938
539846.274,4397461.451,-694.900
539846.274,4397360.882,-694.862
539846.274,4397260.313,-694.825
539846.274,4397159.744,-694.787
539846.274,4397059.175,-694.750
539846.274,4396958.606,-694.713
539846.274,4396858.037,-694.675
539846.274,4395047.795,-694.000
539846.274,4394947.226,-684.200
539846.274,4394846.657,-677.900
539846.274,4394746.088,-672.900
539846.274,4394645.519,-669.200
539846.274,4394544.950,-665.300
539846.274,4394444.381,-661.100
539846.274,4394343.812,-655.200
539846.274,4394243.243,-647.100
539846.274,4394142.674,-642.300
539846.274,4394042.105,-639.200
539846.274,4393941.536,-636.100
539846.274,4393840.967,-633.100
539846.274,4393740.398,-632.800
539846.274,4393639.829,-633.200
539846.274,4393539.260,-630.800
539846.274,4393438.691,-626.400
539846.274,4393338.122,-621.300
539846.274,4393237.553,-617.200
539846.274,4393136.984,-614.800
539846.274,4393036.415,-613.600
539846.274,4392935.846,-610.700
539846.274,4392835.277,-605.800
539846.274,4392734.708,-600.200
539846.274,4392634.139,-600.300
539846.274,4392533.570,-599.900
539846.274,4392433.001,-598.400
539846.274,4392332.432,-597.100
539846.274,4392231.863,-596.100
539846.274,4392131.294,-594.700
539846.274,4392030.725,-593.100
539846.274,4391930.156,-595.400
539846.274,4391829.587,-599.100
539846.274,4391729.018,-602.900
539846.274,4391628.449,-606.700
539846.274,4391527.880,-611.400
539846.274,4391427.311,-616.500
539846.274,4391326.742,-622.200
539846.274,4391226.173,-628.300
539846.274,4391125.605,-631.900
539846.274,4391025.036,-633.600
539846.274,4390924.467,-634.500
539846.274,4390823.898,-634.700
539846.274,4390723.329,-634.700
539846.274,4390622.760,-636.800
539846.274,4390522.191,-638.400
539846.274,4390421.622,-640.700
539846.274,4390321.053,-643.700
539846.274,4390220.484,-647.300
539846.274,4390119.915,-652.200
539846.274,4390019.346,-658.300
539846.274,4389918.777,-663.400
539846.274,4389818.208,-669.200
539846.274,4389717.639,-676.100
539846.274,4389617.070,-688.300
539846.274,4389516.501,-693.040
539846.274,4389415.932,-696.764
539846.274,4389315.363,-696.180
539846.274,4389214.794,-688.956
539846.274,4389114.225,-694.724
539846.274,4389013.656,-688.797
539846.274,4388913.087,-692.892
539846.274,4388812.518,-695.441
539846.274,4388711.949,-693.579
539846.274,4388611.380,-698.984
539846.274,4388510.811,-696.400
539846.274,4388410.242,-695.985
539846.274,4388309.673,-697.083
539846.274,4388209.104,-697.984
539846.274,4387404.552,-678.696
539846.274,4387303.983,-678.260
539846.274,4387203.414,-677.823
539846.274,4387102.845,-677.387
539846.274,4387002.276,-676.950
539846.274,4386901.707,-676.513
539846.274,4386801.138,-676.077
539846.274,4386700.569,-675.640
539846.274,4386600.000,-675.204
539846.274,4384387.482,-665.600
539846.274,4384286.913,-623.000
539846.274,4384186.344,-574.700
539846.274,4384085.775,-541.500
539846.274,4383985.206,-527.900
539846.274,4383884.637,-521.500
539846.274,4383784.068,-522.300
539846.274,4383683.499,-526.500
539846.274,4383582.930,-541.400
539846.274,4383482.361,-559.700
539846.274,4383381.792,-553.700
539846.274,4383281.223,-535.700
539846.274,4383180.654,-531.400
539846.274,4383080.085,-527.200
539846.274,4382979.516,-509.600
539846.274,4382878.947,-487.900
539846.274,4382778.378,-470.400
539846.274,4382677.809,-450.300
539846.274,4382577.240,-443.700
539846.274,4382476.671,-435.800
539846.274,4382376.102,-424.200
539846.274,4382275.533,-419.500
539846.274,4382174.964,-416.900
539846.274,4382074.395,-414.600
539846.274,4381973.827,-410.900
539846.274,4381873.258,-406.800
539846.274,4381772.689,-403.800
539846.274,4381672.120,-402.300
539846.274,4381571.551,-401.500
539846.274,4381470.982,-401.300
539846.274,4381370.413,-400.000
539846.274,4381269.844,-397.800
539846.274,4381169.275,-395.700
539846.274,4381068.706,-392.300
539846.274,4380968.137,-386.300
539846.274,4380867.568,-390.700
539846.274,4380766.999,-399.600
539846.274,4380666.430,-407.900
539846.274,4380565.861,-415.200
539846.274,4380465.292,-417.900
539846.274,4380364.723,-416.800
539846.274,4380264.154,-413.500
539846.274,4380163.585,-406.700
539846.274,4380063.016,-393.500
539846.274,4379962.447,-377.700
539846.274,4379861.878,-366.500
539846.274,4379761.309,-353.800
539846.274,4379660.740,-338.900
539846.274,4379560.171,-321.200
539846.274,4379459.602,-306.300
539846.274,4379359.033,-296.300
539846.274,4379258.464,-286.400
539846.274,4379157.895,-279.400
539846.274,4379057.326,-272.900
539846.274,4378956.757,-265.900
539846.274,4378856.188,-259.800
539846.274,4378755.619,-254.100
539846.274,4378655.050,-249.000
539846.274,4378554.481,-246.500
539846.274,4378453.912,-247.500
539846.274,4378353.343,-249.500
539846.274,4378252.774,-252.700
539846.274,4378152.205,-258.300
539846.274,4378051.636,-265.500
539846.274,4377951.067,-273.700
539846.274,4377850.498,-282.100
539846.274,4377749.929,-290.700
539846.274,4377649.360,-301.900
539846.274,4377548.791,-317.200
539846.274,4377448.222,-335.200
539846.274,4377347.653,-355.000
539846.274,4377247.084,-376.200
539846.274,4377146.515,-397.600
539846.274,4377045.946,-415.100
539846.274,4376945.377,-429.400
539846.274,4376844.808,-449.200
539846.274,4376744.239,-477.000
539846.274,4376643.670,-496.900
539846.274,4376543.101,-500.200
539846.274,4376442.532,-500.100
539846.274,4376341.963,-499.700
539846.274,4376241.394,-500.400
539846.274,4376140.825,-502.600
539846.274,4376040.256,-504.200
539846.274,4375939.687,-505.100
539846.274,4375839.118,-505.800
539846.274,4375738.549,-507.000
539846.274,4375637.980,-507.700
539846.274,4375537.411,-505.700
539846.274,4375436.842,-499.600
539846.274,4375336.273,-488.800
539846.274,4375235.704,-472.700
539846.274,4375135.135,-452.400
539846.274,4375034.566,-428.000
539846.274,4374933.997,-400.700
539846.274,4374833.428,-378.400
539846.274,4374732.859,-364.700
539846.274,4374632.290,-355.400
539846.274,4374531.721,-348.400
539846.274,4374431.152,-341.300
539846.274,4374330.583,-333.400
539846.274,4374230.014,-326.000
539846.274,4374129.445,-320.200
539846.274,4374028.876,-315.600
539846.274,4373928.307,-311.000
539846.274,4373827.738,-305.500
539846.274,4373727.169,-299.400
539846.274,4373626.600,-293.200
539846.274,4373526.031,-285.600
539846.274,4373425.462,-276.800
539846.274,4373324.893,-271.000
539846.274,4373224.324,-269.900
539846.274,4373123.755,-271.000
539846.274,4373023.186,-271.500
539846.274,4372922.618,-270.500
539846.274,4372822.049,-266.700
539846.274,4372721.480,-261.900
539846.274,4372620.911,-257.700
539846.274,4372520.342,-252.800
539846.274,4372419.773,-248.500
539846.274,4372319.204,-246.900
539846.274,4372218.635,-247.100
539846.274,4372118.066,-247.400
539846.274,4372017.497,-247.200
539846.274,4371916.928,-246.500
539846.274,4371816.359,-246.600
539846.274,4371715.790,-248.000
539846.274,4371615.221,-250.600
539846.274,4371514.652,-254.000
539846.274,4371414.083,-257.500
539846.274,4371313.514,-260.600
539846.274,4371212.945,-264.200
539846.274,4371112.376,-268.300
539846.274,4371011.807,-271.900
539846.274,4370911.238,-276.100
539846.274,4370810.669,-283.000
539846.274,4370710.100,-291.300
539846.274,4370609.531,-300.800
539846.274,4370508.962,-313.900
539846.274,4370408.393,-332.200
539846.274,4370307.824,-359.800
539846.274,4370207.255,-392.600
539846.274,4370106.686,-420.100
539846.274,4370006.117,-441.700
539846.274,4369905.548,-461.000
539846.274,4369804.979,-478.100
539846.274,4369704.410,-493.200
539846.274,4369603.841,-505.200
539846.274,4369503.272,-513.000
539846.274,4369402.703,-517.000
539846.274,4369302.134,-519.000
539846.274,4369201.565,-515.300
539846.274,4369100.996,-503.700
539846.274,4369000.427,-497.300
539946.642,4403495.590,-697.167
539946.642,4403395.021,-694.757
539946.642,4403294.452,-692.260
539946.642,4403193.883,-696.166
539946.642,4403093.314,-689.465
539946.642,4402992.745,-686.898
539946.642,4402892.176,-696.402
539946.642,4402791.607,-692.992
539946.642,4402691.038,-688.138
539946.642,4402590.469,-690.725
539946.642,4402489.900,-688.249
539946.642,4402389.331,-688.455
539946.642,4402288.762,-695.025
539946.642,4402188.193,-689.707
539946.642,4402087.624,-694.482
