543318.969,4388622.792,-628.900
543318.969,4388420.513,-644.300
543318.969,4388218.233,-662.200
543318.969,4388015.954,-675.700
543318.969,4387813.675,-687.100
543318.969,4387611.396,-691.300
543318.969,4387409.117,-697.200
543318.969,4387206.838,-710.000
543318.969,4387004.558,-722.800
543318.969,4386802.279,-735.600
543318.969,4386600.000,-743.200
543318.969,4386397.721,-749.300
543318.969,4386195.442,-756.800
543318.969,4385993.162,-760.300
543318.969,4385790.883,-746.400
543318.969,4385588.604,-717.200
543318.969,4385386.325,-685.900
543318.969,4385184.046,-666.200
543318.969,4384981.767,-656.900
543318.969,4384779.487,-636.500
543318.969,4384577.208,-606.900
543318.969,4384374.929,-573.600
543318.969,4384172.650,-526.000
543318.969,4383970.371,-511.065
543318.969,4383768.091,-515.305
543520.442,4404400.568,-673.200
543520.442,4404198.289,-669.500
543520.442,4403996.010,-656.800
543520.442,4403793.731,-636.400
543520.442,4403591.451,-614.700
543520.442,4403389.172,-596.800
543520.442,4403186.893,-581.900
543520.442,4402984.614,-568.300
543520.442,4402782.335,-556.500
543520.442,4402580.056,-546.100
543520.442,4402377.776,-537.100
543520.442,4402175.497,-531.000
543520.442,4401973.218,-527.300
543520.442,4401770.939,-522.700
543520.442,4401568.660,-516.500
543520.442,4401366.380,-509.600
543520.442,4401164.101,-503.500
543520.442,4400961.822,-501.000
543520.442,4400759.543,-504.300
543520.442,4400557.264,-507.500
543520.442,4400354.985,-515.300
543520.442,4400152.705,-542.200
543520.442,4399950.426,-585.300
543520.442,4399748.147,-628.400
543520.442,4399545.868,-655.500
543520.442,4399343.589,-666.600
543520.442,4399141.309,-672.600
543520.442,4398939.030,-677.700
543520.442,4398736.751,-676.900
543520.442,4398534.472,-665.000
543520.442,4398332.193,-645.300
543520.442,4398129.913,-622.800
543520.442,4397927.634,-599.400
543520.442,4397725.355,-578.600
543520.442,4397523.076,-557.800
543520.442,4397320.797,-536.100
543520.442,4397118.518,-512.900
543520.442,4396107.122,-511.914
543520.442,4395904.842,-511.717
543520.442,4395702.563,-511.520
543520.442,4395500.284,-511.323
543520.442,4395298.005,-511.126
543520.442,4395095.726,-510.929
543520.442,4394893.447,-510.731
543520.442,4394691.167,-510.534
543520.442,4394488.888,-510.337
543520.442,4394286.609,-510.140
543520.442,4394084.330,-509.943
543520.442,4393882.051,-509.746
543520.442,4393679.771,-509.549
543520.442,4393477.492,-509.351
543520.442,4393275.213,-509.154
543520.442,4393072.934,-508.957
543520.442,4392870.655,-508.760
543520.442,4392668.376,-508.563
543520.442,4392466.096,-508.366
543520.442,4392263.817,-508.169
543520.442,4392061.538,-507.971
543520.442,4391859.259,-507.774
543520.442,4391656.980,-507.577
543520.442,4391454.700,-507.380
543520.442,4391252.421,-507.183
543520.442,4391050.142,-506.986
543520.442,4390038.746,-506.000
543520.442,4389836.467,-524.800
543520.442,4389634.188,-540.300
543520.442,4389431.909,-556.900
543520.442,4389229.629,-573.700
543520.442,4389027.350,-587.600
543520.442,4388825.071,-601.600
543520.442,4388622.792,-620.800
543520.442,4388420.513,-637.400
543520.442,4388218.233,-654.300
543520.442,4388015.954,-666.000
543520.442,4387813.675,-672.600
543520.442,4387611.396,-677.500
543520.442,4387409.117,-683.600
543520.442,4387206.838,-697.000
543520.442,4387004.558,-711.100
543520.442,4386802.279,-725.900
543520.442,4386600.000,-737.300
543520.442,4386397.721,-742.900
543520.442,4386195.442,-748.700
543520.442,4385993.162,-750.900
543520.442,4385790.883,-740.100
543520.442,4385588.604,-715.100
543520.442,4385386.325,-683.600
543520.442,4385184.046,-655.400
543520.442,4384981.767,-643.400
543520.442,4384779.487,-629.800
543520.442,4384577.208,-611.500
543520.442,4384374.929,-586.100
543520.442,4384172.650,-549.000
543520.442,4383970.371,-511.300
543520.442,4383768.091,-515.070
543721.916,4404400.568,-639.600
543721.916,4404198.289,-635.800
543721.916,4403996.010,-623.700
543721.916,4403793.731,-605.400
543721.916,4403591.451,-586.600
543721.916,4403389.172,-571.800
543721.916,4403186.893,-559.800
543721.916,4402984.614,-549.000
543721.916,4402782.335,-540.400
543721.916,4402580.056,-533.800
543721.916,4402377.776,-529.000
543721.916,4402175.497,-524.200
543721.916,4401973.218,-517.700
543721.916,4401770.939,-509.900
543721.916,4401568.660,-502.300
543721.916,4401366.380,-508.808
543721.916,4401164.101,-503.275
543721.916,4400961.822,-501.345
543721.916,4400759.543,-503.660
543721.916,4400557.264,-505.200
543721.916,4400354.985,-515.100
543721.916,4400152.705,-547.900
543721.916,4399950.426,-591.700
543721.916,4399748.147,-632.300
543721.916,4399545.868,-655.800
543721.916,4399343.589,-665.000
543721.916,4399141.309,-669.500
543721.916,4398939.030,-670.200
543721.916,4398736.751,-659.100
543721.916,4398534.472,-635.400
543721.916,4398332.193,-608.200
543721.916,4398129.913,-582.300
543721.916,4397927.634,-558.300
543721.916,4397725.355,-539.600
543721.916,4397523.076,-522.700
543721.916,4397320.797,-503.600
543721.916,4395904.842,-504.527
543721.916,4395702.563,-504.659
543721.916,4395500.284,-504.792
543721.916,4395298.005,-504.924
543721.916,4395095.726,-505.057
543721.916,4394893.447,-505.189
543721.916,4394691.167,-505.322
543721.916,4394488.888,-505.454
543721.916,4394286.609,-505.586
543721.916,4394084.330,-505.719
543721.916,4393882.051,-505.851
543721.916,4393679.771,-505.984
543721.916,4393477.492,-506.116
543721.916,4393275.213,-506.249
543721.916,4393072.934,-506.381
543721.916,4392870.655,-506.514
543721.916,4392668.376,-506.646
543721.916,4392466.096,-506.778
543721.916,4392263.817,-506.911
543721.916,4392061.538,-507.043
543721.916,4391859.259,-507.176
543721.916,4391656.980,-507.308
543721.916,4391454.700,-507.441
543721.916,4391252.421,-507.573
543721.916,4389836.467,-508.500
543721.916,4389634.188,-524.300
543721.916,4389431.909,-542.900
543721.916,4389229.629,-563.400
543721.916,4389027.350,-579.900
543721.916,4388825.071,-594.400
543721.916,4388622.792,-614.500
543721.916,4388420.513,-629.900
543721.916,4388218.233,-644.900
543721.916,4388015.954,-654.000
543721.916,4387813.675,-662.900
543721.916,4387611.396,-667.400
543721.916,4387409.117,-673.200
543721.916,4387206.838,-684.400
543721.916,4387004.558,-694.000
543721.916,4386802.279,-712.200
543721.916,4386600.000,-728.100
543721.916,4386397.721,-736.200
543721.916,4386195.442,-741.300
543721.916,4385993.162,-741.500
543721.916,4385790.883,-732.200
543721.916,4385588.604,-711.000
543721.916,4385386.325,-685.500
543721.916,4385184.046,-658.700
543721.916,4384981.767,-641.700
543721.916,4384779.487,-630.700
543721.916,4384577.208,-613.700
543721.916,4384374.929,-589.700
543721.916,4384172.650,-559.400
543721.916,4383970.371,-520.500
543721.916,4383768.091,-514.835
543923.389,4404400.568,-613.500
543923.389,4404198.289,-610.600
543923.389,4403996.010,-600.400
543923.389,4403793.731,-585.900
543923.389,4403591.451,-571.600
543923.389,4403389.172,-558.200
543923.389,4403186.893,-546.800
543923.389,4402984.614,-538.800
543923.389,4402782.335,-533.000
543923.389,4402580.056,-528.000
543923.389,4402377.776,-523.000
543923.389,4402175.497,-516.700
543923.389,4401973.218,-508.800
543923.389,4401770.939,-507.300
543923.389,4401568.660,-502.100
543923.389,4401366.380,-508.017
543923.389,4401164.101,-503.050
543923.389,4400961.822,-501.691
543923.389,4400759.543,-503.020
543923.389,4400557.264,-502.900
543923.389,4400354.985,-520.300
543923.389,4400152.705,-556.300
543923.389,4399950.426,-599.200
543923.389,4399748.147,-636.100
543923.389,4399545.868,-655.200
543923.389,4399343.589,-662.400
543923.389,4399141.309,-664.900
543923.389,4398939.030,-655.100
543923.389,4398736.751,-631.500
543923.389,4398534.472,-600.800
543923.389,4398332.193,-572.000
543923.389,4398129.913,-548.600
543923.389,4397927.634,-526.000
543923.389,4397725.355,-505.600
543923.389,4395702.563,-506.850
543923.389,4395500.284,-506.975
543923.389,4395298.005,-507.100
543923.389,4395095.726,-507.225
543923.389,4394893.447,-507.350
543923.389,4394691.167,-507.475
543923.389,4394488.888,-507.600
543923.389,4394286.609,-507.725
543923.389,4394084.330,-507.850
543923.389,4393882.051,-507.975
543923.389,4393679.771,-508.100
543923.389,4393477.492,-508.225
543923.389,4393275.213,-508.350
543923.389,4393072.934,-508.475
543923.389,4392870.655,-508.600
543923.389,4392668.376,-508.725
543923.389,4392466.096,-508.850
543923.389,4392263.817,-508.975
543923.389,4392061.538,-509.100
543923.389,4391859.259,-509.225
543923.389,4391656.980,-509.350
543923.389,4389634.188,-510.600
543923.389,4389431.909,-531.700
543923.389,4389229.629,-554.500
543923.389,4389027.350,-573.000
543923.389,4388825.071,-589.400
543923.389,4388622.792,-604.200
543923.389,4388420.513,-620.400
543923.389,4388218.233,-633.200
543923.389,4388015.954,-641.500
543923.389,4387813.675,-651.200
543923.389,4387611.396,-654.600
543923.389,4387409.117,-659.700
543923.389,4387206.838,-666.200
543923.389,4387004.558,-677.500
543923.389,4386802.279,-696.600
543923.389,4386600.000,-715.400
543923.389,4386397.721,-725.800
543923.389,4386195.442,-731.700
543923.389,4385993.162,-732.400
543923.389,4385790.883,-724.100
543923.389,4385588.604,-705.700
543923.389,4385386.325,-682.100
543923.389,4385184.046,-659.400
543923.389,4384981.767,-638.100
543923.389,4384779.487,-626.000
543923.389,4384577.208,-610.500
543923.389,4384374.929,-591.100
543923.389,4384172.650,-568.500
543923.389,4383970.371,-541.100
543923.389,4383768.091,-514.600
544124.862,4404400.568,-598.500
544124.862,4404198.289,-595.800
544124.862,4403996.010,-586.300
544124.862,4403793.731,-573.300
544124.862,4403591.451,-560.000
544124.862,4403389.172,-546.500
544124.862,4403186.893,-536.800
544124.862,4402984.614,-531.100
544124.862,4402782.335,-526.200
544124.862,4402580.056,-522.300
544124.862,4402377.776,-518.100
544124.862,4402175.497,-513.000
544124.862,4401973.218,-506.000
544124.862,4401770.939,-504.700
544124.862,4401568.660,-501.900
544124.862,4401366.380,-507.225
544124.862,4401164.101,-502.825
544124.862,4400961.822,-502.036
544124.862,4400759.543,-502.380
544124.862,4400557.264,-500.600
544124.862,4400354.985,-527.500
544124.862,4400152.705,-564.400
544124.862,4399950.426,-605.700
544124.862,4399748.147,-639.400
544124.862,4399545.868,-655.100
544124.862,4399343.589,-659.900
544124.862,4399141.309,-655.400
544124.862,4398939.030,-634.600
544124.862,4398736.751,-600.500
544124.862,4398534.472,-564.200
544124.862,4398332.193,-537.800
544124.862,4398129.913,-514.000
544124.862,4395702.563,-510.229
544124.862,4395500.284,-509.914
544124.862,4395298.005,-509.600
544124.862,4395095.726,-509.286
544124.862,4394893.447,-508.971
544124.862,4394691.167,-508.657
544124.862,4394488.888,-508.343
544124.862,4394286.609,-508.029
544124.862,4394084.330,-507.714
544124.862,4393882.051,-507.400
544124.862,4393679.771,-507.086
544124.862,4393477.492,-506.771
544124.862,4393275.213,-506.457
544124.862,4393072.934,-506.143
544124.862,4392870.655,-505.829
544124.862,4392668.376,-505.514
544124.862,4392466.096,-505.200
544124.862,4392263.817,-504.886
544124.862,4392061.538,-504.571
544124.862,4389634.188,-500.800
544124.862,4389431.909,-522.700
544124.862,4389229.629,-546.700
544124.862,4389027.350,-565.700
544124.862,4388825.071,-581.100
544124.862,4388622.792,-592.500
544124.862,4388420.513,-608.000
544124.862,4388218.233,-619.400
544124.862,4388015.954,-627.500
544124.862,4387813.675,-633.600
544124.862,4387611.396,-635.300
544124.862,4387409.117,-640.900
544124.862,4387206.838,-644.900
544124.862,4387004.558,-661.600
544124.862,4386802.279,-680.000
544124.862,4386600.000,-700.100
544124.862,4386397.721,-714.200
544124.862,4386195.442,-721.000
544124.862,4385993.162,-721.800
544124.862,4385790.883,-714.700
544124.862,4385588.604,-697.000
544124.862,4385386.325,-674.800
544124.862,4385184.046,-651.200
544124.862,4384981.767,-626.200
544124.862,4384779.487,-614.400
544124.862,4384577.208,-604.100
544124.862,4384374.929,-588.600
544124.862,4384172.650,-570.400
544124.862,4383970.371,-549.800
544124.862,4383768.091,-524.500
544326.335,4404400.568,-587.500
544326.335,4404198.289,-583.400
544326.335,4403996.010,-568.500
544326.335,4403793.731,-550.500
544326.335,4403591.451,-537.300
544326.335,4403389.172,-526.200
544326.335,4403186.893,-520.200
544326.335,4402984.614,-518.900
544326.335,4402782.335,-518.000
544326.335,4402580.056,-516.700
544326.335,4402377.776,-514.700
544326.335,4402175.497,-512.900
544326.335,4401973.218,-509.200
544326.335,4401770.939,-502.100
544326.335,4401568.660,-501.700
544326.335,4401366.380,-506.433
544326.335,4401164.101,-502.600
544326.335,4400961.822,-502.382
544326.335,4400759.543,-501.740
544326.335,4400557.264,-511.300
544326.335,4400354.985,-533.900
544326.335,4400152.705,-567.700
544326.335,4399950.426,-610.100
544326.335,4399748.147,-642.200
544326.335,4399545.868,-654.900
544326.335,4399343.589,-656.500
544326.335,4399141.309,-642.100
544326.335,4398939.030,-610.200
544326.335,4398736.751,-570.700
544326.335,4398534.472,-533.800
544326.335,4398332.193,-505.900
544326.335,4395500.284,-508.986
544326.335,4395298.005,-509.207
544326.335,4395095.726,-509.427
544326.335,4394893.447,-509.648
544326.335,4394691.167,-509.868
544326.335,4394488.888,-510.089
544326.335,4394286.609,-510.309
544326.335,4394084.330,-510.530
544326.335,4393882.051,-510.750
544326.335,4393679.771,-510.970
544326.335,4393477.492,-511.191
544326.335,4393275.213,-511.411
544326.335,4393072.934,-511.632
544326.335,4392870.655,-511.852
544326.335,4392668.376,-512.073
544326.335,4392466.096,-512.293
544326.335,4392263.817,-512.514
544326.335,4389431.909,-515.600
544326.335,4389229.629,-537.500
544326.335,4389027.350,-556.200
544326.335,4388825.071,-570.800
544326.335,4388622.792,-582.500
544326.335,4388420.513,-596.500
544326.335,4388218.233,-609.900
544326.335,4388015.954,-617.800
544326.335,4387813.675,-620.800
544326.335,4387611.396,-622.300
544326.335,4387409.117,-625.500
544326.335,4387206.838,-628.800
544326.335,4387004.558,-642.300
544326.335,4386802.279,-663.300
544326.335,4386600.000,-682.300
544326.335,4386397.721,-700.000
544326.335,4386195.442,-710.500
544326.335,4385993.162,-713.300
544326.335,4385790.883,-707.800
544326.335,4385588.604,-691.400
544326.335,4385386.325,-668.100
544326.335,4385184.046,-643.400
544326.335,4384981.767,-615.500
544326.335,4384779.487,-603.500
544326.335,4384577.208,-594.800
544326.335,4384374.929,-582.600
544326.335,4384172.650,-570.600
544326.335,4383970.371,-549.000
544326.335,4383768.091,-520.000
544527.809,4404400.568,-561.800
544527.809,4404198.289,-552.800
544527.809,4403996.010,-531.700
544527.809,4403793.731,-514.900
544527.809,4403591.451,-506.300
544527.809,4403389.172,-501.100
544527.809,4403186.893,-501.100
544527.809,4402984.614,-504.500
544527.809,4402782.335,-508.100
544527.809,4402580.056,-510.400
544527.809,4402377.776,-511.300
544527.809,4402175.497,-510.000
544527.809,4401973.218,-506.600
544527.809,4401770.939,-501.200
544527.809,4401568.660,-501.500
544527.809,4401366.380,-505.642
544527.809,4401164.101,-502.375
544527.809,4400961.822,-502.727
544527.809,4400759.543,-501.100
544527.809,4400557.264,-512.000
544527.809,4400354.985,-529.200
544527.809,4400152.705,-563.000
544527.809,4399950.426,-610.600
544527.809,4399748.147,-643.400
544527.809,4399545.868,-653.700
544527.809,4399343.589,-650.000
544527.809,4399141.309,-627.100
544527.809,4398939.030,-589.500
544527.809,4398736.751,-547.700
544527.809,4398534.472,-509.400
544527.809,4395500.284,-509.000
544527.809,4395298.005,-508.973
544527.809,4395095.726,-508.947
544527.809,4394893.447,-508.920
544527.809,4394691.167,-508.893
544527.809,4394488.888,-508.867
544527.809,4394286.609,-508.840
544527.809,4394084.330,-508.813
544527.809,4393882.051,-508.787
544527.809,4393679.771,-508.760
544527.809,4393477.492,-508.733
544527.809,4393275.213,-508.707
544527.809,4393072.934,-508.680
544527.809,4392870.655,-508.653
544527.809,4392668.376,-508.627
544527.809,4392466.096,-508.600
544527.809,4389431.909,-508.200
544527.809,4389229.629,-529.400
544527.809,4389027.350,-547.600
544527.809,4388825.071,-560.700
544527.809,4388622.792,-571.900
544527.809,4388420.513,-585.600
544527.809,4388218.233,-601.300
544527.809,4388015.954,-612.900
544527.809,4387813.675,-617.300
544527.809,4387611.396,-618.500
544527.809,4387409.117,-618.300
544527.809,4387206.838,-620.700
544527.809,4387004.558,-630.300
544527.809,4386802.279,-648.600
544527.809,4386600.000,-668.800
544527.809,4386397.721,-687.500
544527.809,4386195.442,-701.300
544527.809,4385993.162,-706.800
544527.809,4385790.883,-703.500
544527.809,4385588.604,-689.200
544527.809,4385386.325,-668.900
544527.809,4385184.046,-644.700
544527.809,4384981.767,-615.200
544527.809,4384779.487,-596.900
544527.809,4384577.208,-587.700
544527.809,4384374.929,-576.900
544527.809,4384172.650,-563.000
544527.809,4383970.371,-539.000
544527.809,4383768.091,-514.500
544729.282,4404400.568,-521.400
544729.282,4404198.289,-514.700
544729.282,4403996.010,-500.200
544729.282,4403793.731,-513.500
544729.282,4403591.451,-505.486
544729.282,4403389.172,-501.443
544729.282,4403186.893,-501.117
544729.282,4402984.614,-503.720
544729.282,4402782.335,-506.980
544729.282,4402580.056,-508.680
544729.282,4402377.776,-509.583
544729.282,4402175.497,-508.957
544729.282,4401973.218,-505.914
544729.282,4401770.939,-501.129
544729.282,4401568.660,-501.300
544729.282,4401366.380,-504.850
544729.282,4401164.101,-502.150
544729.282,4400961.822,-503.073
544729.282,4400759.543,-501.600
544729.282,4400557.264,-504.200
544729.282,4400354.985,-525.600
544729.282,4400152.705,-565.100
544729.282,4399950.426,-613.900
544729.282,4399748.147,-643.800
544729.282,4399545.868,-651.300
544729.282,4399343.589,-638.700
544729.282,4399141.309,-608.600
544729.282,4398939.030,-569.700
544729.282,4398736.751,-528.100
544729.282,4395500.284,-519.230
544729.282,4395298.005,-518.676
544729.282,4395095.726,-518.122
544729.282,4394893.447,-517.567
544729.282,4394691.167,-517.013
544729.282,4394488.888,-516.459
544729.282,4394286.609,-515.904
544729.282,4394084.330,-515.350
544729.282,4393882.051,-514.796
544729.282,4393679.771,-514.241
544729.282,4393477.492,-513.687
544729.282,4393275.213,-513.133
544729.282,4393072.934,-512.578
544729.282,4392870.655,-512.024
544729.282,4392668.376,-511.470
544729.282,4389431.909,-502.600
544729.282,4389229.629,-525.200
544729.282,4389027.350,-540.800
544729.282,4388825.071,-551.300
544729.282,4388622.792,-561.800
544729.282,4388420.513,-574.700
544729.282,4388218.233,-590.600
544729.282,4388015.954,-602.800
544729.282,4387813.675,-611.800
544729.282,4387611.396,-612.800
544729.282,4387409.117,-613.400
544729.282,4387206.838,-615.400
544729.282,4387004.558,-623.600
544729.282,4386802.279,-639.000
544729.282,4386600.000,-660.700
544729.282,4386397.721,-681.300
544729.282,4386195.442,-696.800
544729.282,4385993.162,-701.400
544729.282,4385790.883,-699.500
544729.282,4385588.604,-685.700
544729.282,4385386.325,-667.500
544729.282,4385184.046,-649.500
544729.282,4384981.767,-627.400
544729.282,4384779.487,-609.100
544729.282,4384577.208,-595.300
544729.282,4384374.929,-576.500
544729.282,4384172.650,-556.900
544729.282,4383970.371,-534.700
544729.282,4383768.091,-514.200
544930.755,4404400.568,-519.450
544930.755,4404198.289,-513.688
544930.755,4403996.010,-500.286
544930.755,4403793.731,-512.100
544930.755,4403591.451,-504.671
544930.755,4403389.172,-501.786
544930.755,4403186.893,-501.133
544930.755,4402984.614,-502.940
544930.755,4402782.335,-505.860
544930.755,4402580.056,-506.960
544930.755,4402377.776,-507.867
544930.755,4402175.497,-507.914
544930.755,4401973.218,-505.229
544930.755,4401770.939,-501.057
544930.755,4401568.660,-501.100
544930.755,4401366.380,-504.058
544930.755,4401164.101,-501.925
544930.755,4400961.822,-503.418
544930.755,4400759.543,-502.100
544930.755,4400557.264,-500.500
544930.755,4400354.985,-522.200
544930.755,4400152.705,-565.600
544930.755,4399950.426,-616.600
544930.755,4399748.147,-644.300
544930.755,4399545.868,-647.500
544930.755,4399343.589,-626.000
544930.755,4399141.309,-588.700
544930.755,4398939.030,-548.800
544930.755,4398736.751,-509.400
544930.755,4395298.005,-513.343
544930.755,4395095.726,-513.574
544930.755,4394893.447,-513.806
544930.755,4394691.167,-514.038
544930.755,4394488.888,-514.270
544930.755,4394286.609,-514.502
544930.755,4394084.330,-514.734
544930.755,4393882.051,-514.966
544930.755,4393679.771,-515.198
544930.755,4393477.492,-515.430
544930.755,4393275.213,-515.662
544930.755,4393072.934,-515.894
544930.755,4392870.655,-516.126
544930.755,4392668.376,-516.357
544930.755,4389229.629,-520.300
544930.755,4389027.350,-533.900
544930.755,4388825.071,-544.000
544930.755,4388622.792,-554.100
544930.755,4388420.513,-565.000
544930.755,4388218.233,-576.600
544930.755,4388015.954,-586.300
544930.755,4387813.675,-597.900
544930.755,4387611.396,-603.900
544930.755,4387409.117,-607.900
544930.755,4387206.838,-610.400
544930.755,4387004.558,-617.100
544930.755,4386802.279,-632.800
544930.755,4386600.000,-652.000
544930.755,4386397.721,-677.300
544930.755,4386195.442,-693.500
544930.755,4385993.162,-698.700
544930.755,4385790.883,-694.000
544930.755,4385588.604,-681.000
544930.755,4385386.325,-663.100
544930.755,4385184.046,-646.400
544930.755,4384981.767,-628.300
544930.755,4384779.487,-610.300
544930.755,4384577.208,-590.000
544930.755,4384374.929,-568.600
544930.755,4384172.650,-550.500
544930.755,4383970.371,-533.000
544930.755,4383768.091,-513.700
545132.229,4404400.568,-517.500
545132.229,4404198.289,-512.675
545132.229,4403996.010,-500.371
545132.229,4403793.731,-510.700
545132.229,4403591.451,-503.857
545132.229,4403389.172,-502.129
545132.229,4403186.893,-501.150
545132.229,4402984.614,-502.160
545132.229,4402782.335,-504.740
545132.229,4402580.056,-505.240
545132.229,4402377.776,-506.150
545132.229,4402175.497,-506.871
545132.229,4401973.218,-504.543
545132.229,4401770.939,-500.986
545132.229,4401568.660,-500.900
545132.229,4401366.380,-503.267
545132.229,4401164.101,-501.700
545132.229,4400961.822,-503.764
545132.229,4400759.543,-502.600
545132.229,4400557.264,-502.600
545132.229,4400354.985,-528.600
545132.229,4400152.705,-576.800
545132.229,4399950.426,-622.400
545132.229,4399748.147,-644.000
545132.229,4399545.868,-638.900
545132.229,4399343.589,-609.200
545132.229,4399141.309,-568.300
545132.229,4398939.030,-528.100
545132.229,4395298.005,-521.875
545132.229,4395095.726,-521.529
545132.229,4394893.447,-521.183
545132.229,4394691.167,-520.838
545132.229,4394488.888,-520.492
545132.229,4394286.609,-520.146
545132.229,4394084.330,-519.800
545132.229,4393882.051,-519.454
545132.229,4393679.771,-519.108
545132.229,4393477.492,-518.763
545132.229,4393275.213,-518.417
545132.229,4393072.934,-518.071
545132.229,4392870.655,-517.725
545132.229,4389229.629,-511.500
545132.229,4389027.350,-525.300
545132.229,4388825.071,-536.200
545132.229,4388622.792,-546.000
545132.229,4388420.513,-555.000
545132.229,4388218.233,-564.800
545132.229,4388015.954,-575.000
545132.229,4387813.675,-585.200
545132.229,4387611.396,-592.700
545132.229,4387409.117,-598.200
545132.229,4387206.838,-602.500
545132.229,4387004.558,-611.100
545132.229,4386802.279,-624.500
545132.229,4386600.000,-645.700
545132.229,4386397.721,-668.300
545132.229,4386195.442,-683.300
545132.229,4385993.162,-693.000
545132.229,4385790.883,-687.100
545132.229,4385588.604,-674.300
545132.229,4385386.325,-656.000
545132.229,4385184.046,-638.000
545132.229,4384981.767,-620.900
545132.229,4384779.487,-602.500
545132.229,4384577.208,-584.100
545132.229,4384374.929,-566.200
545132.229,4384172.650,-547.300
545132.229,4383970.371,-530.200
545132.229,4383768.091,-511.000
545333.702,4404400.568,-515.550
545333.702,4404198.289,-511.663
545333.702,4403996.010,-500.457
545333.702,4403793.731,-509.300
545333.702,4403591.451,-503.043
545333.702,4403389.172,-502.471
545333.702,4403186.893,-501.167
545333.702,4402984.614,-501.380
545333.702,4402782.335,-503.620
545333.702,4402580.056,-503.520
545333.702,4402377.776,-504.433
545333.702,4402175.497,-505.829
545333.702,4401973.218,-503.857
545333.702,4401770.939,-500.914
545333.702,4401568.660,-500.700
545333.702,4401366.380,-502.475
545333.702,4401164.101,-501.475
545333.702,4400961.822,-504.109
545333.702,4400759.543,-503.100
545333.702,4400557.264,-507.100
545333.702,4400354.985,-536.200
545333.702,4400152.705,-583.700
545333.702,4399950.426,-621.800
545333.702,4399748.147,-635.200
545333.702,4399545.868,-621.500
545333.702,4399343.589,-589.300
545333.702,4399141.309,-549.800
545333.702,4398939.030,-513.000
545333.702,4395298.005,-508.988
545333.702,4395095.726,-508.765
545333.702,4394893.447,-508.542
545333.702,4394691.167,-508.319
545333.702,4394488.888,-508.096
545333.702,4394286.609,-507.873
545333.702,4394084.330,-507.650
545333.702,4393882.051,-507.427
545333.702,4393679.771,-507.204
545333.702,4393477.492,-506.981
545333.702,4393275.213,-506.758
545333.702,4393072.934,-506.535
545333.702,4392870.655,-506.313
545333.702,4389229.629,-502.300
545333.702,4389027.350,-515.000
545333.702,4388825.071,-525.600
545333.702,4388622.792,-536.700
545333.702,4388420.513,-546.100
545333.702,4388218.233,-555.900
545333.702,4388015.954,-565.300
545333.702,4387813.675,-572.900
545333.702,4387611.396,-577.000
545333.702,4387409.117,-582.600
545333.702,4387206.838,-589.100
545333.702,4387004.558,-601.000
545333.702,4386802.279,-618.600
545333.702,4386600.000,-640.600
545333.702,4386397.721,-656.800
545333.702,4386195.442,-672.400
545333.702,4385993.162,-682.600
545333.702,4385790.883,-677.500
545333.702,4385588.604,-665.300
545333.702,4385386.325,-648.300
545333.702,4385184.046,-628.600
545333.702,4384981.767,-613.100
545333.702,4384779.487,-596.700
545333.702,4384577.208,-582.200
545333.702,4384374.929,-565.600
545333.702,4384172.650,-546.000
545333.702,4383970.371,-531.100
545333.702,4383768.091,-513.000
545535.175,4404400.568,-513.600
545535.175,4404198.289,-510.650
545535.175,4403996.010,-500.543
545535.175,4403793.731,-507.900
545535.175,4403591.451,-502.229
545535.175,4403389.172,-502.814
545535.175,4403186.893,-501.183
545535.175,4402984.614,-500.600
545535.175,4402782.335,-502.500
545535.175,4402580.056,-501.800
545535.175,4402377.776,-502.717
545535.175,4402175.497,-504.786
545535.175,4401973.218,-503.171
545535.175,4401770.939,-500.843
545535.175,4401568.660,-500.500
545535.175,4401366.380,-501.683
545535.175,4401164.101,-501.250
545535.175,4400961.822,-504.455
545535.175,4400759.543,-503.600
545535.175,4400557.264,-515.700
545535.175,4400354.985,-546.900
545535.175,4400152.705,-587.000
545535.175,4399950.426,-613.400
545535.175,4399748.147,-616.100
545535.175,4399545.868,-595.700
545535.175,4399343.589,-568.400
545535.175,4399141.309,-536.100
545535.175,4398939.030,-506.100
545535.175,4395095.726,-506.914
545535.175,4394893.447,-506.957
545535.175,4394691.167,-507.000
545535.175,4394488.888,-507.043
545535.175,4394286.609,-507.086
545535.175,4394084.330,-507.129
545535.175,4393882.051,-507.171
545535.175,4393679.771,-507.214
545535.175,4393477.492,-507.257
545535.175,4393275.213,-507.300
545535.175,4393072.934,-507.343
545535.175,4392870.655,-507.386
545535.175,4389027.350,-508.200
545535.175,4388825.071,-519.700
545535.175,4388622.792,-530.300
545535.175,4388420.513,-540.600
545535.175,4388218.233,-548.900
545535.175,4388015.954,-557.600
545535.175,4387813.675,-560.900
545535.175,4387611.396,-563.100
545535.175,4387409.117,-569.000
545535.175,4387206.838,-575.900
545535.175,4387004.558,-591.700
545535.175,4386802.279,-611.900
545535.175,4386600.000,-630.100
545535.175,4386397.721,-644.800
545535.175,4386195.442,-663.200
545535.175,4385993.162,-672.300
545535.175,4385790.883,-668.100
545535.175,4385588.604,-656.700
545535.175,4385386.325,-641.800
545535.175,4385184.046,-626.300
545535.175,4384981.767,-610.600
545535.175,4384779.487,-595.700
545535.175,4384577.208,-581.700
545535.175,4384374.929,-565.700
545535.175,4384172.650,-549.000
545535.175,4383970.371,-532.300
545535.175,4383768.091,-510.600
545736.648,4404400.568,-511.650
545736.648,4404198.289,-509.638
545736.648,4403996.010,-500.629
545736.648,4403793.731,-506.500
545736.648,4403591.451,-501.414
545736.648,4403389.172,-503.157
545736.648,4403186.893,-501.200
545736.648,4402984.614,-503.000
545736.648,4402782.335,-503.200
545736.648,4402580.056,-502.400
545736.648,4402377.776,-501.000
545736.648,4402175.497,-503.743
545736.648,4401973.218,-502.486
545736.648,4401770.939,-500.771
545736.648,4401568.660,-500.300
545736.648,4401366.380,-500.892
545736.648,4401164.101,-501.025
545736.648,4400961.822,-504.800
545736.648,4400759.543,-512.400
545736.648,4400557.264,-527.200
545736.648,4400354.985,-558.000
545736.648,4400152.705,-589.500
545736.648,4399950.426,-605.400
545736.648,4399748.147,-599.300
545736.648,4399545.868,-576.300
545736.648,4399343.589,-551.400
545736.648,4399141.309,-525.700
545736.648,4398939.030,-503.000
545736.648,4395095.726,-503.194
545736.648,4394893.447,-503.204
545736.648,4394691.167,-503.214
545736.648,4394488.888,-503.224
545736.648,4394286.609,-503.235
545736.648,4394084.330,-503.245
545736.648,4393882.051,-503.255
545736.648,4393679.771,-503.265
545736.648,4393477.492,-503.276
545736.648,4393275.213,-503.286
545736.648,4393072.934,-503.296
545736.648,4392870.655,-503.306
545736.648,4389027.350,-503.500
545736.648,4388825.071,-513.800
545736.648,4388622.792,-523.000
545736.648,4388420.513,-531.900
545736.648,4388218.233,-540.100
545736.648,4388015.954,-549.400
545736.648,4387813.675,-554.400
545736.648,4387611.396,-555.600
545736.648,4387409.117,-559.000
545736.648,4387206.838,-562.400
545736.648,4387004.558,-579.200
545736.648,4386802.279,-599.300
545736.648,4386600.000,-618.000
545736.648,4386397.721,-636.300
545736.648,4386195.442,-653.600
545736.648,4385993.162,-661.700
545736.648,4385790.883,-658.800
545736.648,4385588.604,-650.000
545736.648,4385386.325,-637.600
545736.648,4385184.046,-625.100
545736.648,4384981.767,-610.900
545736.648,4384779.487,-596.600
545736.648,4384577.208,-581.000
545736.648,4384374.929,-565.500
545736.648,4384172.650,-550.000
545736.648,4383970.371,-532.500
545736.648,4383768.091,-507.800
545938.122,4404400.568,-509.700
545938.122,4404198.289,-508.625
545938.122,4403996.010,-500.714
545938.122,4403793.731,-505.100
545938.122,4403591.451,-500.600
545938.122,4403389.172,-503.500
545938.122,4403186.893,-504.200
545938.122,4402984.614,-503.400
545938.122,4402782.335,-503.100
545938.122,4402580.056,-503.300
545938.122,4402377.776,-503.200
545938.122,4402175.497,-502.700
545938.122,4401973.218,-501.800
545938.122,4401770.939,-500.700
545938.122,4401568.660,-500.100
545938.122,4401366.380,-500.100
545938.122,4401164.101,-500.800
545938.122,4400961.822,-507.100
545938.122,4400759.543,-517.700
545938.122,4400557.264,-538.500
545938.122,4400354.985,-568.600
545938.122,4400152.705,-589.500
545938.122,4399950.426,-596.900
545938.122,4399748.147,-587.300
545938.122,4399545.868,-565.700
545938.122,4399343.589,-542.100
545938.122,4399141.309,-518.700
545938.122,4395095.726,-511.700
545938.122,4394893.447,-511.350
545938.122,4394691.167,-511.000
545938.122,4394488.888,-510.650
545938.122,4394286.609,-510.300
545938.122,4394084.330,-509.950
545938.122,4393882.051,-509.600
545938.122,4393679.771,-509.250
545938.122,4393477.492,-508.900
545938.122,4393275.213,-508.550
545938.122,4393072.934,-508.200
545938.122,4389027.350,-501.200
545938.122,4388825.071,-509.500
545938.122,4388622.792,-518.000
545938.122,4388420.513,-524.900
545938.122,4388218.233,-531.200
545938.122,4388015.954,-540.400
545938.122,4387813.675,-549.400
545938.122,4387611.396,-550.200
545938.122,4387409.117,-554.000
545938.122,4387206.838,-554.500
545938.122,4387004.558,-563.600
545938.122,4386802.279,-582.000
545938.122,4386600.000,-606.000
545938.122,4386397.721,-629.700
545938.122,4386195.442,-643.700
545938.122,4385993.162,-651.500
545938.122,4385790.883,-650.300
545938.122,4385588.604,-644.300
545938.122,4385386.325,-634.700
545938.122,4385184.046,-623.400
545938.122,4384981.767,-610.000
545938.122,4384779.487,-593.800
545938.122,4384577.208,-576.700
545938.122,4384374.929,-561.800
545938.122,4384172.650,-546.000
545938.122,4383970.371,-522.300
546139.595,4404400.568,-507.750
546139.595,4404198.289,-507.613
546139.595,4403996.010,-500.800
546139.595,4403793.731,-503.700
546139.595,4403591.451,-506.600
546139.595,4403389.172,-507.700
546139.595,4403186.893,-506.900
546139.595,4402984.614,-505.300
546139.595,4402782.335,-504.600
546139.595,4402580.056,-505.000
546139.595,4402377.776,-505.600
546139.595,4402175.497,-505.700
546139.595,4401973.218,-504.900
546139.595,4401770.939,-504.000
546139.595,4401568.660,-503.000
546139.595,4401366.380,-501.600
546139.595,4401164.101,-500.900
546139.595,4400961.822,-506.900
546139.595,4400759.543,-526.900
546139.595,4400557.264,-556.200
546139.595,4400354.985,-579.600
546139.595,4400152.705,-589.800
546139.595,4399950.426,-590.100
546139.595,4399748.147,-577.300
546139.595,4399545.868,-556.100
546139.595,4399343.589,-533.600
546139.595,4399141.309,-512.100
546139.595,4394893.447,-509.918
546139.595,4394691.167,-509.814
546139.595,4394488.888,-509.710
546139.595,4394286.609,-509.606
546139.595,4394084.330,-509.502
546139.595,4393882.051,-509.398
546139.595,4393679.771,-509.294
546139.595,4393477.492,-509.190
546139.595,4393275.213,-509.086
546139.595,4393072.934,-508.982
546139.595,4389027.350,-501.750
546139.595,4388825.071,-506.800
546139.595,4388622.792,-515.100
546139.595,4388420.513,-521.600
546139.595,4388218.233,-526.700
546139.595,4388015.954,-536.100
546139.595,4387813.675,-548.300
546139.595,4387611.396,-549.000
546139.595,4387409.117,-550.700
546139.595,4387206.838,-547.800
546139.595,4387004.558,-549.500
546139.595,4386802.279,-568.900
546139.595,4386600.000,-596.500
546139.595,4386397.721,-623.700
546139.595,4386195.442,-637.800
546139.595,4385993.162,-644.500
546139.595,4385790.883,-642.900
546139.595,4385588.604,-639.100
546139.595,4385386.325,-631.100
546139.595,4385184.046,-620.500
546139.595,4384981.767,-601.400
546139.595,4384779.487,-582.900
546139.595,4384577.208,-564.200
546139.595,4384374.929,-550.500
546139.595,4384172.650,-531.200
546139.595,4383970.371,-518.580
546341.068,4404400.568,-505.800
546341.068,4404198.289,-506.600
546341.068,4403996.010,-508.900
546341.068,4403793.731,-511.600
546341.068,4403591.451,-512.900
546341.068,4403389.172,-512.500
546341.068,4403186.893,-511.400
546341.068,4402984.614,-510.200
546341.068,4402782.335,-509.200
546341.068,4402580.056,-509.000
546341.068,4402377.776,-509.800
546341.068,4402175.497,-510.300
546341.068,4401973.218,-509.300
546341.068,4401770.939,-507.900
546341.068,4401568.660,-506.900
546341.068,4401366.380,-506.100
546341.068,4401164.101,-505.300
546341.068,4400961.822,-512.900
546341.068,4400759.543,-539.800
546341.068,4400557.264,-569.400
546341.068,4400354.985,-584.100
546341.068,4400152.705,-588.600
546341.068,4399950.426,-585.100
546341.068,4399748.147,-569.700
546341.068,4399545.868,-548.700
546341.068,4399343.589,-526.500
546341.068,4399141.309,-506.500
546341.068,4394691.167,-507.262
546341.068,4394488.888,-507.296
546341.068,4394286.609,-507.331
546341.068,4394084.330,-507.365
546341.068,4393882.051,-507.400
546341.068,4393679.771,-507.435
546341.068,4393477.492,-507.469
546341.068,4393275.213,-507.504
546341.068,4393072.934,-507.538
546341.068,4389027.350,-502.300
546341.068,4388825.071,-507.750
546341.068,4388622.792,-508.300
546341.068,4388420.513,-514.900
546341.068,4388218.233,-520.500
546341.068,4388015.954,-532.600
546341.068,4387813.675,-548.800
546341.068,4387611.396,-549.200
546341.068,4387409.117,-549.100
546341.068,4387206.838,-539.200
546341.068,4387004.558,-541.300
546341.068,4386802.279,-560.400
546341.068,4386600.000,-587.900
546341.068,4386397.721,-613.900
546341.068,4386195.442,-630.400
546341.068,4385993.162,-636.700
546341.068,4385790.883,-637.800
546341.068,4385588.604,-632.700
546341.068,4385386.325,-626.200
546341.068,4385184.046,-612.700
546341.068,4384981.767,-595.000
546341.068,4384779.487,-577.300
546341.068,4384577.208,-556.200
546341.068,4384374.929,-541.700
546341.068,4384172.650,-521.600
546341.068,4383970.371,-514.860
546542.542,4404400.568,-516.800
546542.542,4404198.289,-517.300
546542.542,4403996.010,-517.600
546542.542,4403793.731,-516.700
546542.542,4403591.451,-515.800
546542.542,4403389.172,-515.500
546542.542,4403186.893,-515.300
546542.542,4402984.614,-515.100
546542.542,4402782.335,-515.000
546542.542,4402580.056,-514.600
546542.542,4402377.776,-514.300
546542.542,4402175.497,-514.300
546542.542,4401973.218,-513.600
546542.542,4401770.939,-512.400
546542.542,4401568.660,-512.200
546542.542,4401366.380,-513.400
546542.542,4401164.101,-513.900
546542.542,4400961.822,-524.200
546542.542,4400759.543,-551.000
546542.542,4400557.264,-574.900
546542.542,4400354.985,-584.700
546542.542,4400152.705,-587.200
546542.542,4399950.426,-580.600
546542.542,4399748.147,-563.200
546542.542,4399545.868,-542.300
546542.542,4399343.589,-520.900
546542.542,4399141.309,-502.900
546542.542,4394691.167,-503.492
546542.542,4394488.888,-503.519
546542.542,4394286.609,-503.546
546542.542,4394084.330,-503.573
546542.542,4393882.051,-503.600
546542.542,4393679.771,-503.627
546542.542,4393477.492,-503.654
546542.542,4393275.213,-503.681
546542.542,4393072.934,-503.708
546542.542,4389027.350,-502.850
546542.542,4388825.071,-508.700
546542.542,4388622.792,-504.300
546542.542,4388420.513,-511.400
546542.542,4388218.233,-514.500
546542.542,4388015.954,-526.100
546542.542,4387813.675,-546.900
546542.542,4387611.396,-548.100
546542.542,4387409.117,-548.700
546542.542,4387206.838,-536.800
546542.542,4387004.558,-541.900
546542.542,4386802.279,-560.200
546542.542,4386600.000,-582.100
546542.542,4386397.721,-601.000
546542.542,4386195.442,-615.700
546542.542,4385993.162,-625.700
546542.542,4385790.883,-629.900
546542.542,4385588.604,-622.400
546542.542,4385386.325,-615.500
546542.542,4385184.046,-605.000
546542.542,4384981.767,-591.400
546542.542,4384779.487,-573.600
546542.542,4384577.208,-551.500
546542.542,4384374.929,-536.100
546542.542,4384172.650,-511.800
546542.542,4383970.371,-511.140
546744.015,4404400.568,-520.400
546744.015,4404198.289,-519.900
546744.015,4403996.010,-518.300
546744.015,4403793.731,-516.600
546744.015,4403591.451,-516.200
546744.015,4403389.172,-516.700
546744.015,4403186.893,-517.000
546744.015,4402984.614,-517.000
546744.015,4402782.335,-516.900
546744.015,4402580.056,-516.800
546744.015,4402377.776,-517.100
546744.015,4402175.497,-517.000
546744.015,4401973.218,-517.000
546744.015,4401770.939,-517.100
546744.015,4401568.660,-518.000
546744.015,4401366.380,-520.100
546744.015,4401164.101,-521.200
546744.015,4400961.822,-531.000
546744.015,4400759.543,-555.200
546744.015,4400557.264,-576.000
546744.015,4400354.985,-584.000
546744.015,4400152.705,-584.700
546744.015,4399950.426,-576.300
546744.015,4399748.147,-558.300
546744.015,4399545.868,-537.300
546744.015,4399343.589,-516.300
546744.015,4394691.167,-512.308
546744.015,4394488.888,-512.134
546744.015,4394286.609,-511.960
546744.015,4394084.330,-511.787
546744.015,4393882.051,-511.613
546744.015,4393679.771,-511.440
546744.015,4393477.492,-511.266
546744.015,4393275.213,-511.092
546744.015,4389027.350,-503.400
546744.015,4388825.071,-509.650
546744.015,4388622.792,-507.100
546744.015,4388420.513,-511.400
546744.015,4388218.233,-513.000
546744.015,4388015.954,-522.000
546744.015,4387813.675,-544.700
546744.015,4387611.396,-545.900
546744.015,4387409.117,-545.700
546744.015,4387206.838,-536.100
546744.015,4387004.558,-540.900
546744.015,4386802.279,-559.600
546744.015,4386600.000,-581.200
546744.015,4386397.721,-593.100
546744.015,4386195.442,-601.500
546744.015,4385993.162,-608.900
546744.015,4385790.883,-616.800
546744.015,4385588.604,-608.800
546744.015,4385386.325,-604.000
546744.015,4385184.046,-600.100
546744.015,4384981.767,-586.500
546744.015,4384779.487,-569.300
546744.015,4384577.208,-556.900
546744.015,4384374.929,-539.900
546744.015,4384172.650,-513.500
546744.015,4383970.371,-507.420
546945.488,4404400.568,-516.200
546945.488,4404198.289,-515.900
546945.488,4403996.010,-515.400
546945.488,4403793.731,-515.400
546945.488,4403591.451,-515.700
546945.488,4403389.172,-516.300
546945.488,4403186.893,-517.200
546945.488,4402984.614,-518.000
546945.488,4402782.335,-518.500
546945.488,4402580.056,-519.100
546945.488,4402377.776,-520.100
546945.488,4402175.497,-520.300
546945.488,4401973.218,-520.400
546945.488,4401770.939,-521.600
546945.488,4401568.660,-523.600
546945.488,4401366.380,-526.300
546945.488,4401164.101,-528.200
546945.488,4400961.822,-539.300
546945.488,4400759.543,-560.000
546945.488,4400557.264,-575.800
546945.488,4400354.985,-582.100
546945.488,4400152.705,-581.400
546945.488,4399950.426,-571.600
546945.488,4399748.147,-553.600
546945.488,4399545.868,-532.600
546945.488,4399343.589,-512.100
546945.488,4394893.447,-511.465
546945.488,4394691.167,-511.437
546945.488,4394488.888,-511.408
546945.488,4394286.609,-511.379
546945.488,4394084.330,-511.350
546945.488,4393882.051,-511.321
546945.488,4393679.771,-511.292
546945.488,4393477.492,-511.263
546945.488,4393275.213,-511.235
546945.488,4389027.350,-503.950
546945.488,4388825.071,-510.600
546945.488,4388622.792,-514.100
546945.488,4388420.513,-512.700
546945.488,4388218.233,-512.900
546945.488,4388015.954,-524.400
546945.488,4387813.675,-541.700
546945.488,4387611.396,-543.200
546945.488,4387409.117,-542.000
546945.488,4387206.838,-531.100
546945.488,4387004.558,-537.300
546945.488,4386802.279,-561.400
546945.488,4386600.000,-581.000
546945.488,4386397.721,-591.000
546945.488,4386195.442,-595.900
546945.488,4385993.162,-598.000
546945.488,4385790.883,-602.200
546945.488,4385588.604,-596.800
546945.488,4385386.325,-595.200
546945.488,4385184.046,-595.000
546945.488,4384981.767,-587.400
546945.488,4384779.487,-572.800
546945.488,4384577.208,-559.100
546945.488,4384374.929,-541.900
546945.488,4384172.650,-526.500
546945.488,4383970.371,-503.700
547146.962,4404400.568,-515.100
547146.962,4404198.289,-514.900
547146.962,4403996.010,-515.000
547146.962,4403793.731,-516.200
547146.962,4403591.451,-517.900
547146.962,4403389.172,-519.500
547146.962,4403186.893,-521.100
547146.962,4402984.614,-522.300
547146.962,4402782.335,-522.900
547146.962,4402580.056,-523.400
547146.962,4402377.776,-523.600
547146.962,4402175.497,-523.500
547146.962,4401973.218,-524.000
547146.962,4401770.939,-525.800
547146.962,4401568.660,-528.800
547146.962,4401366.380,-532.300
547146.962,4401164.101,-535.900
547146.962,4400961.822,-547.500
547146.962,4400759.543,-564.500
547146.962,4400557.264,-575.200
547146.962,4400354.985,-578.500
547146.962,4400152.705,-576.700
547146.962,4399950.426,-566.500
547146.962,4399748.147,-548.300
547146.962,4399545.868,-527.000
547146.962,4399343.589,-507.800
547146.962,4395095.726,-506.441
547146.962,4394893.447,-506.376
547146.962,4394691.167,-506.312
547146.962,4394488.888,-506.247
547146.962,4394286.609,-506.182
547146.962,4394084.330,-506.118
547146.962,4393882.051,-506.053
547146.962,4393679.771,-505.988
547146.962,4393477.492,-505.924
547146.962,4393275.213,-505.859
547146.962,4389027.350,-504.500
547146.962,4388825.071,-512.400
547146.962,4388622.792,-510.500
547146.962,4388420.513,-508.500
547146.962,4388218.233,-507.300
547146.962,4388015.954,-518.600
547146.962,4387813.675,-536.800
547146.962,4387611.396,-541.600
547146.962,4387409.117,-536.000
547146.962,4387206.838,-525.600
547146.962,4387004.558,-536.900
547146.962,4386802.279,-565.600
547146.962,4386600.000,-581.800
547146.962,4386397.721,-590.800
547146.962,4386195.442,-593.500
547146.962,4385993.162,-593.000
547146.962,4385790.883,-588.700
547146.962,4385588.604,-584.500
547146.962,4385386.325,-587.500
547146.962,4385184.046,-591.300
547146.962,4384981.767,-586.500
547146.962,4384779.487,-569.700
547146.962,4384577.208,-552.200
547146.962,4384374.929,-531.800
547146.962,4384172.650,-522.300
547146.962,4383970.371,-500.900
547348.435,4404400.568,-520.300
547348.435,4404198.289,-520.300
547348.435,4403996.010,-520.700
547348.435,4403793.731,-521.700
547348.435,4403591.451,-523.600
547348.435,4403389.172,-525.500
547348.435,4403186.893,-527.000
547348.435,4402984.614,-527.900
547348.435,4402782.335,-528.500
547348.435,4402580.056,-528.800
547348.435,4402377.776,-528.500
547348.435,4402175.497,-528.200
547348.435,4401973.218,-529.200
547348.435,4401770.939,-531.400
547348.435,4401568.660,-534.900
547348.435,4401366.380,-539.500
547348.435,4401164.101,-544.700
547348.435,4400961.822,-553.900
547348.435,4400759.543,-566.500
547348.435,4400557.264,-572.500
547348.435,4400354.985,-571.900
547348.435,4400152.705,-569.400
547348.435,4399950.426,-559.800
547348.435,4399748.147,-541.900
547348.435,4399545.868,-520.500
547348.435,4399343.589,-501.400
547348.435,4394286.609,-501.945
547348.435,4394084.330,-501.967
547348.435,4393882.051,-501.989
547348.435,4393679.771,-502.011
547348.435,4393477.492,-502.033
547348.435,4393275.213,-502.055
547348.435,4388218.233,-502.600
547348.435,4388015.954,-509.900
547348.435,4387813.675,-525.600
547348.435,4387611.396,-535.900
547348.435,4387409.117,-530.700
547348.435,4387206.838,-524.600
547348.435,4387004.558,-539.600
547348.435,4386802.279,-569.100
547348.435,4386600.000,-583.600
547348.435,4386397.721,-591.800
547348.435,4386195.442,-592.200
547348.435,4385993.162,-580.600
547348.435,4385790.883,-577.400
547348.435,4385588.604,-576.500
547348.435,4385386.325,-581.300
547348.435,4385184.046,-585.800
547348.435,4384981.767,-582.600
547348.435,4384779.487,-564.600
547348.435,4384577.208,-542.700
547348.435,4384374.929,-520.300
547348.435,4384172.650,-510.200
547549.908,4404400.568,-527.200
547549.908,4404198.289,-527.600
547549.908,4403996.010,-528.500
547549.908,4403793.731,-529.300
547549.908,4403591.451,-530.200
547549.908,4403389.172,-531.200
547549.908,4403186.893,-532.200
547549.908,4402984.614,-532.800
547549.908,4402782.335,-533.300
547549.908,4402580.056,-533.800
547549.908,4402377.776,-533.700
547549.908,4402175.497,-533.600
547549.908,4401973.218,-535.000
547549.908,4401770.939,-538.000
547549.908,4401568.660,-542.400
547549.908,4401366.380,-548.400
547549.908,4401164.101,-555.200
547549.908,4400961.822,-561.500
547549.908,4400759.543,-566.300
547549.908,4400557.264,-567.100
547549.908,4400354.985,-565.300
547549.908,4400152.705,-562.300
