566271.715,4385296.294,-122.900
566271.715,4385246.151,-125.600
566271.715,4385196.009,-127.600
566271.715,4385145.866,-129.200
566271.715,4385095.723,-130.400
566271.715,4385045.581,-131.000
566271.715,4384995.438,-131.400
566271.715,4384945.296,-131.900
566271.715,4384895.153,-132.100
566271.715,4384845.011,-132.500
566271.715,4384794.868,-132.700
566271.715,4384744.726,-133.000
566271.715,4384694.583,-133.100
566271.715,4384644.440,-133.000
566271.715,4384594.298,-132.800
566271.715,4384544.155,-132.500
566271.715,4384494.013,-132.300
566271.715,4384443.870,-132.100
566271.715,4384393.728,-132.200
566271.715,4384343.585,-133.700
566271.715,4384293.443,-133.800
566271.715,4384243.300,-133.400
566271.715,4384193.158,-134.400
566271.715,4384143.015,-134.800
566271.715,4384092.872,-135.200
566271.715,4384042.730,-135.200
566271.715,4383992.587,-135.100
566271.715,4383942.445,-134.900
566271.715,4383892.302,-134.900
566271.715,4383842.160,-135.200
566271.715,4383792.017,-135.500
566271.715,4383741.875,-135.800
566271.715,4383691.732,-136.500
566271.715,4383641.589,-136.900
566271.715,4383591.447,-137.200
566271.715,4383541.304,-137.100
566271.715,4383491.162,-137.400
566271.715,4383441.019,-138.200
566271.715,4383390.877,-139.500
566271.715,4383340.734,-141.300
566271.715,4383290.592,-143.000
566271.715,4383240.449,-144.100
566271.715,4383190.306,-145.400
566271.715,4383140.164,-147.000
566271.715,4383090.021,-149.100
566271.715,4383039.879,-151.600
566271.715,4382989.736,-154.000
566271.715,4382939.594,-156.900
566271.715,4382889.451,-159.900
566271.715,4382839.309,-163.100
566271.715,4382789.166,-167.800
566321.807,4404200.036,-30.100
566321.807,4404149.893,-28.900
566321.807,4404099.751,-28.600
566321.807,4404049.608,-28.800
566321.807,4403999.465,-29.200
566321.807,4403949.323,-29.500
566321.807,4403899.180,-29.800
566321.807,4403849.038,-30.000
566321.807,4403798.895,-30.300
566321.807,4403748.753,-30.600
566321.807,4403698.610,-31.000
566321.807,4403648.468,-31.400
566321.807,4403598.325,-31.800
566321.807,4403548.182,-32.100
566321.807,4403498.040,-32.500
566321.807,4403447.897,-32.900
566321.807,4403397.755,-33.400
566321.807,4403347.612,-34.000
566321.807,4403297.470,-34.500
566321.807,4403247.327,-34.800
566321.807,4403197.185,-35.100
566321.807,4403147.042,-35.400
566321.807,4403096.899,-35.800
566321.807,4403046.757,-36.300
566321.807,4402996.614,-36.800
566321.807,4402946.472,-37.300
566321.807,4402896.329,-37.800
566321.807,4402846.187,-38.300
566321.807,4402796.044,-38.800
566321.807,4402745.902,-39.400
566321.807,4402695.759,-39.900
566321.807,4402645.617,-40.400
566321.807,4402595.474,-40.900
566321.807,4402545.331,-41.400
566321.807,4402495.189,-42.000
566321.807,4402445.046,-42.500
566321.807,4402394.904,-43.000
566321.807,4402344.761,-43.500
566321.807,4402294.619,-44.000
566321.807,4402244.476,-44.600
566321.807,4402194.334,-45.100
566321.807,4402144.191,-45.600
566321.807,4402094.048,-46.100
566321.807,4402043.906,-46.600
566321.807,4401993.763,-47.100
566321.807,4401943.621,-47.600
566321.807,4401893.478,-48.100
566321.807,4401843.336,-48.600
566321.807,4401793.193,-49.100
566321.807,4401743.051,-49.600
566321.807,4401692.908,-50.100
566321.807,4401642.765,-50.700
566321.807,4401592.623,-51.200
566321.807,4401542.480,-51.600
566321.807,4401492.338,-52.100
566321.807,4401442.195,-52.600
566321.807,4401392.053,-53.100
566321.807,4401341.910,-53.600
566321.807,4401291.768,-54.100
566321.807,4401241.625,-54.600
566321.807,4401191.483,-55.100
566321.807,4401141.340,-55.600
566321.807,4401091.197,-56.100
566321.807,4401041.055,-56.700
566321.807,4400990.912,-57.300
566321.807,4400940.770,-57.800
566321.807,4400890.627,-58.200
566321.807,4400840.485,-58.700
566321.807,4400790.342,-59.200
566321.807,4400740.200,-59.700
566321.807,4400690.057,-60.200
566321.807,4400639.914,-60.700
566321.807,4400589.772,-61.300
566321.807,4400539.629,-61.800
566321.807,4400489.487,-62.300
566321.807,4400439.344,-62.800
566321.807,4400389.202,-63.200
566321.807,4400339.059,-63.700
566321.807,4400288.917,-64.200
566321.807,4400238.774,-64.600
566321.807,4400188.631,-65.100
566321.807,4400138.489,-65.700
566321.807,4400088.346,-66.100
566321.807,4400038.204,-66.600
566321.807,4399988.061,-67.100
566321.807,4399937.919,-67.600
566321.807,4399887.776,-68.100
566321.807,4399837.634,-68.600
566321.807,4399787.491,-69.100
566321.807,4399737.349,-69.500
566321.807,4399687.206,-70.000
566321.807,4399637.063,-70.500
566321.807,4399586.921,-71.000
566321.807,4399536.778,-71.500
566321.807,4399486.636,-71.900
566321.807,4399436.493,-72.400
566321.807,4399386.351,-72.900
566321.807,4399336.208,-73.300
566321.807,4399286.066,-73.700
566321.807,4399235.923,-74.100
566321.807,4399185.780,-74.600
566321.807,4399135.638,-75.200
566321.807,4399085.495,-75.500
566321.807,4399035.353,-75.900
566321.807,4398985.210,-76.400
566321.807,4398935.068,-76.800
566321.807,4398884.925,-77.200
566321.807,4398834.783,-77.600
566321.807,4398784.640,-78.000
566321.807,4398734.497,-78.400
566321.807,4398684.355,-78.800
566321.807,4398634.212,-79.200
566321.807,4398584.070,-79.600
566321.807,4398533.927,-80.000
566321.807,4398483.785,-80.400
566321.807,4398433.642,-80.800
566321.807,4398383.500,-81.200
566321.807,4398333.357,-81.600
566321.807,4398283.215,-82.000
566321.807,4398233.072,-82.400
566321.807,4398182.929,-82.800
566321.807,4398132.787,-83.200
566321.807,4398082.644,-83.700
566321.807,4398032.502,-84.100
566321.807,4397982.359,-84.500
566321.807,4397932.217,-85.000
566321.807,4397882.074,-85.400
566321.807,4397831.932,-85.900
566321.807,4397781.789,-86.400
566321.807,4397731.646,-86.900
566321.807,4397681.504,-87.400
566321.807,4397631.361,-87.900
566321.807,4397581.219,-88.300
566321.807,4397531.076,-88.700
566321.807,4397480.934,-89.000
566321.807,4397430.791,-89.300
566321.807,4397380.649,-89.600
566321.807,4397330.506,-89.900
566321.807,4397280.363,-90.200
566321.807,4397230.221,-90.600
566321.807,4397180.078,-91.000
566321.807,4397129.936,-91.400
566321.807,4397079.793,-91.800
566321.807,4397029.651,-92.100
566321.807,4396979.508,-92.500
566321.807,4396929.366,-92.900
566321.807,4396879.223,-93.300
566321.807,4396829.081,-93.700
566321.807,4396778.938,-94.100
566321.807,4396728.795,-94.500
566321.807,4396678.653,-95.000
566321.807,4396628.510,-95.500
566321.807,4396578.368,-95.800
566321.807,4396528.225,-96.200
566321.807,4396478.083,-96.700
566321.807,4396427.940,-97.100
566321.807,4396377.798,-97.500
566321.807,4396327.655,-97.800
566321.807,4396277.512,-98.300
566321.807,4396227.370,-98.700
566321.807,4396177.227,-99.100
566321.807,4396127.085,-99.500
566321.807,4396076.942,-99.800
566321.807,4396026.800,-100.100
566321.807,4395976.657,-100.400
566321.807,4395926.515,-100.600
566321.807,4395876.372,-100.800
566321.807,4395826.229,-101.000
566321.807,4395776.087,-101.100
566321.807,4395725.944,-101.300
566321.807,4395675.802,-101.600
566321.807,4395625.659,-101.800
566321.807,4395575.517,-102.000
566321.807,4395525.374,-102.300
566321.807,4395475.232,-102.400
566321.807,4395425.089,-102.500
566321.807,4395374.947,-102.600
566321.807,4395324.804,-102.700
566321.807,4395274.661,-102.900
566321.807,4395224.519,-102.900
566321.807,4395174.376,-102.900
566321.807,4395124.234,-103.100
566321.807,4395074.091,-103.200
566321.807,4395023.949,-103.200
566321.807,4394973.806,-103.300
566321.807,4394923.664,-103.300
566321.807,4394873.521,-103.400
566321.807,4394823.378,-103.500
566321.807,4394773.236,-103.600
566321.807,4394723.093,-103.700
566321.807,4394672.951,-103.900
566321.807,4394622.808,-103.900
566321.807,4394572.666,-104.000
566321.807,4394522.523,-104.100
566321.807,4394472.381,-104.200
566321.807,4394422.238,-104.300
566321.807,4394372.095,-104.400
566321.807,4394321.953,-104.500
566321.807,4394271.810,-104.500
566321.807,4394221.668,-104.500
566321.807,4394171.525,-104.500
566321.807,4394121.383,-104.500
566321.807,4394071.240,-104.500
566321.807,4394021.098,-104.500
566321.807,4393970.955,-104.500
566321.807,4393920.813,-104.500
566321.807,4393870.670,-104.600
566321.807,4393820.527,-104.600
566321.807,4393770.385,-104.600
566321.807,4393720.242,-104.700
566321.807,4393670.100,-104.800
566321.807,4393619.957,-104.800
566321.807,4393569.815,-104.900
566321.807,4393519.672,-104.900
566321.807,4393469.530,-104.900
566321.807,4393419.387,-105.000
566321.807,4393369.244,-105.000
566321.807,4393319.102,-105.000
566321.807,4393268.959,-105.000
566321.807,4393218.817,-105.100
566321.807,4393168.674,-105.100
566321.807,4393118.532,-105.100
566321.807,4393068.389,-105.100
566321.807,4393018.247,-105.200
566321.807,4392968.104,-105.100
566321.807,4392917.962,-105.300
566321.807,4392867.819,-105.400
566321.807,4392817.676,-105.500
566321.807,4392767.534,-105.500
566321.807,4392717.391,-105.500
566321.807,4392667.249,-105.500
566321.807,4392617.106,-105.600
566321.807,4392566.964,-105.700
566321.807,4392516.821,-105.700
566321.807,4392466.679,-105.800
566321.807,4392416.536,-105.900
566321.807,4392366.393,-106.000
566321.807,4392316.251,-106.100
566321.807,4392266.108,-106.200
566321.807,4392215.966,-106.300
566321.807,4392165.823,-106.400
566321.807,4392115.681,-106.500
566321.807,4392065.538,-106.600
566321.807,4392015.396,-106.700
566321.807,4391965.253,-106.800
566321.807,4391915.110,-106.900
566321.807,4391864.968,-107.100
566321.807,4391814.825,-107.200
566321.807,4391764.683,-107.300
566321.807,4391714.540,-107.400
566321.807,4391664.398,-107.500
566321.807,4391614.255,-107.600
566321.807,4391564.113,-107.700
566321.807,4391513.970,-107.800
566321.807,4391463.828,-107.800
566321.807,4391413.685,-107.900
566321.807,4391363.542,-107.900
566321.807,4391313.400,-107.900
566321.807,4391263.257,-107.900
566321.807,4391213.115,-108.000
566321.807,4391162.972,-108.000
566321.807,4391112.830,-108.200
566321.807,4391062.687,-108.300
566321.807,4391012.545,-108.400
566321.807,4390962.402,-108.300
566321.807,4390912.259,-108.400
566321.807,4390862.117,-108.300
566321.807,4390811.974,-108.300
566321.807,4390761.832,-108.400
566321.807,4390711.689,-108.400
566321.807,4390661.547,-108.400
566321.807,4390611.404,-108.400
566321.807,4390561.262,-108.500
566321.807,4390511.119,-108.600
566321.807,4390460.976,-108.600
566321.807,4390410.834,-108.700
566321.807,4390360.691,-108.500
566321.807,4390310.549,-108.700
566321.807,4390260.406,-108.700
566321.807,4390210.264,-108.900
566321.807,4390160.121,-108.900
566321.807,4390109.979,-108.900
566321.807,4390059.836,-109.000
566321.807,4390009.694,-109.200
566321.807,4389959.551,-109.100
566321.807,4389909.408,-109.100
566321.807,4389859.266,-109.100
566321.807,4389809.123,-109.200
566321.807,4389758.981,-109.600
566321.807,4389708.838,-109.400
566321.807,4389658.696,-109.500
566321.807,4389608.553,-109.500
566321.807,4389558.411,-109.400
566321.807,4389508.268,-109.700
566321.807,4389458.125,-109.700
566321.807,4389407.983,-109.600
566321.807,4389357.840,-109.700
566321.807,4389307.698,-109.600
566321.807,4389257.555,-109.700
566321.807,4389207.413,-109.700
566321.807,4389157.270,-109.800
566321.807,4389107.128,-109.700
566321.807,4389056.985,-109.500
566321.807,4389006.842,-109.500
566321.807,4388956.700,-109.700
566321.807,4388906.557,-109.700
566321.807,4388856.415,-109.900
566321.807,4388806.272,-109.900
566321.807,4388756.130,-109.800
566321.807,4388705.987,-109.900
566321.807,4388655.845,-110.000
566321.807,4388605.702,-110.200
566321.807,4388555.560,-110.200
566321.807,4388505.417,-110.400
566321.807,4388455.274,-110.500
566321.807,4388405.132,-110.500
566321.807,4388354.989,-110.600
566321.807,4388304.847,-110.700
566321.807,4388254.704,-110.600
566321.807,4388204.562,-110.600
566321.807,4388154.419,-110.800
566321.807,4388104.277,-110.900
566321.807,4388054.134,-110.900
566321.807,4388003.991,-111.000
566321.807,4387953.849,-111.200
566321.807,4387903.706,-111.400
566321.807,4387853.564,-111.500
566321.807,4387803.421,-111.600
566321.807,4387753.279,-111.700
566321.807,4387703.136,-111.800
566321.807,4387652.994,-111.900
566321.807,4387602.851,-112.000
566321.807,4387552.708,-112.300
566321.807,4387502.566,-112.500
566321.807,4387452.423,-112.800
566321.807,4387402.281,-112.900
566321.807,4387352.138,-113.100
566321.807,4387301.996,-113.300
566321.807,4387251.853,-113.300
566321.807,4387201.711,-113.400
566321.807,4387151.568,-113.600
566321.807,4387101.426,-113.600
566321.807,4387051.283,-113.600
566321.807,4387001.140,-113.700
566321.807,4386950.998,-113.900
566321.807,4386900.855,-113.800
566321.807,4386850.713,-114.000
566321.807,4386800.570,-114.300
566321.807,4386750.428,-114.600
566321.807,4386700.285,-114.500
566321.807,4386650.143,-114.900
566321.807,4386600.000,-115.100
566321.807,4386549.857,-115.000
566321.807,4386499.715,-115.200
566321.807,4386449.572,-115.400
566321.807,4386399.430,-115.600
566321.807,4386349.287,-115.700
566321.807,4386299.145,-115.800
566321.807,4386249.002,-116.000
566321.807,4386198.860,-116.400
566321.807,4386148.717,-115.800
566321.807,4386098.574,-115.500
566321.807,4386048.432,-115.300
566321.807,4385998.289,-114.800
566321.807,4385948.147,-114.400
566321.807,4385898.004,-113.900
566321.807,4385847.862,-113.000
566321.807,4385797.719,-112.300
566321.807,4385747.577,-112.800
566321.807,4385697.434,-112.600
566321.807,4385647.292,-112.600
566321.807,4385597.149,-112.900
566321.807,4385547.006,-113.800
566321.807,4385496.864,-114.800
566321.807,4385446.721,-116.000
566321.807,4385396.579,-117.300
566321.807,4385346.436,-118.800
566321.807,4385296.294,-120.100
566321.807,4385246.151,-121.800
566321.807,4385196.009,-123.800
566321.807,4385145.866,-126.200
566321.807,4385095.723,-128.100
566321.807,4385045.581,-129.900
566321.807,4384995.438,-130.500
566321.807,4384945.296,-130.900
566321.807,4384895.153,-131.200
566321.807,4384845.011,-131.400
566321.807,4384794.868,-131.700
566321.807,4384744.726,-132.000
566321.807,4384694.583,-132.200
566321.807,4384644.440,-132.200
566321.807,4384594.298,-132.100
566321.807,4384544.155,-131.800
566321.807,4384494.013,-131.500
566321.807,4384443.870,-131.300
566321.807,4384393.728,-131.100
566321.807,4384343.585,-131.000
566321.807,4384293.443,-130.700
566321.807,4384243.300,-130.800
566321.807,4384193.158,-133.000
566321.807,4384143.015,-134.500
566321.807,4384092.872,-134.700
566321.807,4384042.730,-134.700
566321.807,4383992.587,-134.500
566321.807,4383942.445,-134.300
566321.807,4383892.302,-134.100
566321.807,4383842.160,-134.100
566321.807,4383792.017,-134.400
566321.807,4383741.875,-134.700
566321.807,4383691.732,-135.200
566321.807,4383641.589,-135.600
566321.807,4383591.447,-136.000
566321.807,4383541.304,-136.100
566321.807,4383491.162,-136.500
566321.807,4383441.019,-137.300
566321.807,4383390.877,-138.600
566321.807,4383340.734,-140.000
566321.807,4383290.592,-141.200
566321.807,4383240.449,-142.100
566321.807,4383190.306,-143.100
566321.807,4383140.164,-144.600
566321.807,4383090.021,-146.600
566321.807,4383039.879,-148.900
566321.807,4382989.736,-151.100
566321.807,4382939.594,-153.900
566321.807,4382889.451,-156.500
566321.807,4382839.309,-158.600
566321.807,4382789.166,-161.700
566321.807,4382739.024,-166.200
566371.899,4404200.036,-28.600
566371.899,4404149.893,-27.300
566371.899,4404099.751,-27.400
566371.899,4404049.608,-27.600
566371.899,4403999.465,-27.900
566371.899,4403949.323,-28.100
566371.899,4403899.180,-28.400
566371.899,4403849.038,-28.600
566371.899,4403798.895,-28.900
566371.899,4403748.753,-29.200
566371.899,4403698.610,-29.500
566371.899,4403648.468,-29.800
566371.899,4403598.325,-30.200
566371.899,4403548.182,-30.500
566371.899,4403498.040,-30.900
566371.899,4403447.897,-31.300
566371.899,4403397.755,-31.800
566371.899,4403347.612,-32.400
566371.899,4403297.470,-32.800
566371.899,4403247.327,-33.100
566371.899,4403197.185,-33.400
566371.899,4403147.042,-33.700
566371.899,4403096.899,-34.100
566371.899,4403046.757,-34.600
566371.899,4402996.614,-35.100
566371.899,4402946.472,-35.600
566371.899,4402896.329,-36.100
566371.899,4402846.187,-36.600
566371.899,4402796.044,-37.100
566371.899,4402745.902,-37.700
566371.899,4402695.759,-38.200
566371.899,4402645.617,-38.700
566371.899,4402595.474,-39.200
566371.899,4402545.331,-39.700
566371.899,4402495.189,-40.200
566371.899,4402445.046,-40.800
566371.899,4402394.904,-41.300
566371.899,4402344.761,-41.800
566371.899,4402294.619,-42.300
566371.899,4402244.476,-42.800
566371.899,4402194.334,-43.400
566371.899,4402144.191,-43.900
566371.899,4402094.048,-44.400
566371.899,4402043.906,-45.000
566371.899,4401993.763,-45.500
566371.899,4401943.621,-46.000
566371.899,4401893.478,-46.500
566371.899,4401843.336,-47.000
566371.899,4401793.193,-47.500
566371.899,4401743.051,-48.000
566371.899,4401692.908,-48.600
566371.899,4401642.765,-49.100
566371.899,4401592.623,-49.600
566371.899,4401542.480,-50.100
566371.899,4401492.338,-50.600
566371.899,4401442.195,-51.100
566371.899,4401392.053,-51.600
566371.899,4401341.910,-52.100
566371.899,4401291.768,-52.600
566371.899,4401241.625,-53.000
566371.899,4401191.483,-53.500
566371.899,4401141.340,-54.000
566371.899,4401091.197,-54.600
566371.899,4401041.055,-55.100
566371.899,4400990.912,-55.700
566371.899,4400940.770,-56.200
566371.899,4400890.627,-56.700
566371.899,4400840.485,-57.100
566371.899,4400790.342,-57.600
566371.899,4400740.200,-58.200
566371.899,4400690.057,-58.700
566371.899,4400639.914,-59.300
566371.899,4400589.772,-59.800
566371.899,4400539.629,-60.200
566371.899,4400489.487,-60.700
566371.899,4400439.344,-61.200
566371.899,4400389.202,-61.600
566371.899,4400339.059,-62.100
566371.899,4400288.917,-62.600
566371.899,4400238.774,-63.100
566371.899,4400188.631,-63.600
566371.899,4400138.489,-64.100
566371.899,4400088.346,-64.600
566371.899,4400038.204,-65.000
566371.899,4399988.061,-65.500
566371.899,4399937.919,-66.000
566371.899,4399887.776,-66.500
566371.899,4399837.634,-67.000
566371.899,4399787.491,-67.400
566371.899,4399737.349,-67.800
566371.899,4399687.206,-68.300
566371.899,4399637.063,-68.900
566371.899,4399586.921,-69.400
566371.899,4399536.778,-69.800
566371.899,4399486.636,-70.300
566371.899,4399436.493,-70.700
566371.899,4399386.351,-71.200
566371.899,4399336.208,-71.600
566371.899,4399286.066,-72.100
566371.899,4399235.923,-72.600
566371.899,4399185.780,-73.000
566371.899,4399135.638,-73.500
566371.899,4399085.495,-73.800
566371.899,4399035.353,-74.200
566371.899,4398985.210,-74.700
566371.899,4398935.068,-75.000
566371.899,4398884.925,-75.400
566371.899,4398834.783,-75.800
566371.899,4398784.640,-76.300
566371.899,4398734.497,-76.700
566371.899,4398684.355,-77.000
566371.899,4398634.212,-77.400
566371.899,4398584.070,-77.800
566371.899,4398533.927,-78.100
566371.899,4398483.785,-78.500
566371.899,4398433.642,-78.900
566371.899,4398383.500,-79.300
566371.899,4398333.357,-79.700
566371.899,4398283.215,-80.100
566371.899,4398233.072,-80.500
566371.899,4398182.929,-80.900
566371.899,4398132.787,-81.300
566371.899,4398082.644,-81.800
566371.899,4398032.502,-82.200
566371.899,4397982.359,-82.600
566371.899,4397932.217,-83.000
566371.899,4397882.074,-83.400
566371.899,4397831.932,-83.800
566371.899,4397781.789,-84.200
566371.899,4397731.646,-84.700
566371.899,4397681.504,-85.100
566371.899,4397631.361,-85.500
566371.899,4397581.219,-85.900
566371.899,4397531.076,-86.200
566371.899,4397480.934,-86.700
566371.899,4397430.791,-87.100
566371.899,4397380.649,-87.500
566371.899,4397330.506,-87.800
566371.899,4397280.363,-88.100
566371.899,4397230.221,-88.500
566371.899,4397180.078,-88.800
566371.899,4397129.936,-89.100
566371.899,4397079.793,-89.400
566371.899,4397029.651,-89.800
566371.899,4396979.508,-90.200
566371.899,4396929.366,-90.500
566371.899,4396879.223,-90.900
566371.899,4396829.081,-91.300
566371.899,4396778.938,-91.700
566371.899,4396728.795,-92.100
566371.899,4396678.653,-92.500
566371.899,4396628.510,-93.000
566371.899,4396578.368,-93.500
566371.899,4396528.225,-93.900
566371.899,4396478.083,-94.300
566371.899,4396427.940,-94.700
566371.899,4396377.798,-95.000
566371.899,4396327.655,-95.300
566371.899,4396277.512,-95.600
566371.899,4396227.370,-96.100
566371.899,4396177.227,-96.600
566371.899,4396127.085,-97.000
566371.899,4396076.942,-97.300
566371.899,4396026.800,-97.800
566371.899,4395976.657,-98.100
566371.899,4395926.515,-98.400
566371.899,4395876.372,-98.600
566371.899,4395826.229,-98.800
566371.899,4395776.087,-98.900
566371.899,4395725.944,-99.100
566371.899,4395675.802,-99.500
566371.899,4395625.659,-99.800
566371.899,4395575.517,-100.100
566371.899,4395525.374,-100.300
566371.899,4395475.232,-100.500
566371.899,4395425.089,-100.600
566371.899,4395374.947,-100.700
566371.899,4395324.804,-100.900
566371.899,4395274.661,-101.100
566371.899,4395224.519,-101.200
566371.899,4395174.376,-101.200
566371.899,4395124.234,-101.400
566371.899,4395074.091,-101.400
566371.899,4395023.949,-101.300
566371.899,4394973.806,-101.400
566371.899,4394923.664,-101.500
566371.899,4394873.521,-101.600
566371.899,4394823.378,-101.800
566371.899,4394773.236,-102.000
566371.899,4394723.093,-102.100
566371.899,4394672.951,-102.100
566371.899,4394622.808,-102.300
566371.899,4394572.666,-102.500
566371.899,4394522.523,-102.600
566371.899,4394472.381,-102.700
566371.899,4394422.238,-102.800
566371.899,4394372.095,-102.900
566371.899,4394321.953,-103.000
566371.899,4394271.810,-103.000
566371.899,4394221.668,-103.000
566371.899,4394171.525,-103.000
566371.899,4394121.383,-103.000
566371.899,4394071.240,-103.000
566371.899,4394021.098,-103.000
566371.899,4393970.955,-103.100
566371.899,4393920.813,-103.200
566371.899,4393870.670,-103.200
566371.899,4393820.527,-103.200
566371.899,4393770.385,-103.300
566371.899,4393720.242,-103.500
566371.899,4393670.100,-103.400
566371.899,4393619.957,-103.500
566371.899,4393569.815,-103.600
566371.899,4393519.672,-103.600
566371.899,4393469.530,-103.600
566371.899,4393419.387,-103.600
566371.899,4393369.244,-103.700
566371.899,4393319.102,-103.800
566371.899,4393268.959,-103.800
566371.899,4393218.817,-103.900
566371.899,4393168.674,-103.800
566371.899,4393118.532,-103.800
566371.899,4393068.389,-103.900
566371.899,4393018.247,-104.000
566371.899,4392968.104,-103.900
566371.899,4392917.962,-104.100
566371.899,4392867.819,-104.200
566371.899,4392817.676,-104.200
566371.899,4392767.534,-104.200
566371.899,4392717.391,-104.300
566371.899,4392667.249,-104.300
566371.899,4392617.106,-104.400
566371.899,4392566.964,-104.500
566371.899,4392516.821,-104.500
566371.899,4392466.679,-104.600
566371.899,4392416.536,-104.600
566371.899,4392366.393,-104.800
566371.899,4392316.251,-104.900
566371.899,4392266.108,-105.000
566371.899,4392215.966,-105.200
566371.899,4392165.823,-105.300
566371.899,4392115.681,-105.400
566371.899,4392065.538,-105.500
566371.899,4392015.396,-105.600
566371.899,4391965.253,-105.700
566371.899,4391915.110,-105.800
566371.899,4391864.968,-106.100
566371.899,4391814.825,-106.200
566371.899,4391764.683,-106.200
566371.899,4391714.540,-106.300
566371.899,4391664.398,-106.400
566371.899,4391614.255,-106.500
566371.899,4391564.113,-106.600
566371.899,4391513.970,-106.700
566371.899,4391463.828,-106.800
566371.899,4391413.685,-106.800
566371.899,4391363.542,-106.900
566371.899,4391313.400,-106.900
566371.899,4391263.257,-107.000
566371.899,4391213.115,-107.000
566371.899,4391162.972,-107.100
566371.899,4391112.830,-107.100
566371.899,4391062.687,-107.400
566371.899,4391012.545,-107.400
566371.899,4390962.402,-107.300
566371.899,4390912.259,-107.400
566371.899,4390862.117,-107.400
566371.899,4390811.974,-107.400
566371.899,4390761.832,-107.500
566371.899,4390711.689,-107.400
566371.899,4390661.547,-107.500
566371.899,4390611.404,-107.600
566371.899,4390561.262,-107.600
566371.899,4390511.119,-107.600
566371.899,4390460.976,-107.600
566371.899,4390410.834,-107.700
566371.899,4390360.691,-107.700
566371.899,4390310.549,-107.800
566371.899,4390260.406,-107.800
566371.899,4390210.264,-107.900
566371.899,4390160.121,-107.900
566371.899,4390109.979,-108.000
566371.899,4390059.836,-108.100
566371.899,4390009.694,-108.100
566371.899,4389959.551,-108.200
566371.899,4389909.408,-108.200
566371.899,4389859.266,-108.300
566371.899,4389809.123,-108.400
566371.899,4389758.981,-108.600
566371.899,4389708.838,-108.500
566371.899,4389658.696,-108.600
566371.899,4389608.553,-108.700
566371.899,4389558.411,-108.600
566371.899,4389508.268,-108.800
566371.899,4389458.125,-108.900
566371.899,4389407.983,-108.700
566371.899,4389357.840,-108.900
566371.899,4389307.698,-108.800
566371.899,4389257.555,-108.800
566371.899,4389207.413,-108.800
566371.899,4389157.270,-108.700
566371.899,4389107.128,-108.700
566371.899,4389056.985,-108.700
566371.899,4389006.842,-108.800
566371.899,4388956.700,-108.800
566371.899,4388906.557,-108.800
566371.899,4388856.415,-109.000
566371.899,4388806.272,-109.100
566371.899,4388756.130,-109.000
566371.899,4388705.987,-109.000
566371.899,4388655.845,-109.200
566371.899,4388605.702,-109.200
566371.899,4388555.560,-109.400
566371.899,4388505.417,-109.500
566371.899,4388455.274,-109.600
566371.899,4388405.132,-109.600
566371.899,4388354.989,-109.700
566371.899,4388304.847,-109.600
566371.899,4388254.704,-109.600
566371.899,4388204.562,-109.700
566371.899,4388154.419,-109.700
566371.899,4388104.277,-109.900
566371.899,4388054.134,-109.700
566371.899,4388003.991,-109.900
566371.899,4387953.849,-110.100
566371.899,4387903.706,-110.300
566371.899,4387853.564,-110.300
566371.899,4387803.421,-110.300
566371.899,4387753.279,-110.300
566371.899,4387703.136,-110.500
566371.899,4387652.994,-110.700
566371.899,4387602.851,-110.900
566371.899,4387552.708,-111.200
566371.899,4387502.566,-111.600
566371.899,4387452.423,-111.700
566371.899,4387402.281,-111.900
566371.899,4387352.138,-112.100
566371.899,4387301.996,-112.200
566371.899,4387251.853,-112.300
566371.899,4387201.711,-112.500
566371.899,4387151.568,-112.600
566371.899,4387101.426,-112.600
566371.899,4387051.283,-112.700
566371.899,4387001.140,-112.800
566371.899,4386950.998,-113.000
566371.899,4386900.855,-113.000
566371.899,4386850.713,-113.200
566371.899,4386800.570,-113.300
566371.899,4386750.428,-113.500
566371.899,4386700.285,-113.600
566371.899,4386650.143,-114.000
566371.899,4386600.000,-114.000
566371.899,4386549.857,-114.300
566371.899,4386499.715,-114.400
566371.899,4386449.572,-114.700
566371.899,4386399.430,-114.800
566371.899,4386349.287,-115.000
566371.899,4386299.145,-115.200
566371.899,4386249.002,-115.200
566371.899,4386198.860,-115.300
566371.899,4386148.717,-115.200
566371.899,4386098.574,-115.000
566371.899,4386048.432,-114.800
566371.899,4385998.289,-114.400
566371.899,4385948.147,-114.000
566371.899,4385898.004,-113.500
566371.899,4385847.862,-113.200
566371.899,4385797.719,-112.200
566371.899,4385747.577,-112.100
566371.899,4385697.434,-111.700
566371.899,4385647.292,-111.100
566371.899,4385597.149,-111.100
566371.899,4385547.006,-112.100
566371.899,4385496.864,-113.200
566371.899,4385446.721,-114.000
566371.899,4385396.579,-115.000
566371.899,4385346.436,-116.400
566371.899,4385296.294,-118.000
566371.899,4385246.151,-119.200
566371.899,4385196.009,-121.000
566371.899,4385145.866,-122.500
566371.899,4385095.723,-124.200
566371.899,4385045.581,-127.300
566371.899,4384995.438,-129.000
566371.899,4384945.296,-129.700
566371.899,4384895.153,-130.100
566371.899,4384845.011,-130.400
566371.899,4384794.868,-130.600
566371.899,4384744.726,-130.900
566371.899,4384694.583,-131.100
566371.899,4384644.440,-131.400
566371.899,4384594.298,-131.300
566371.899,4384544.155,-131.100
566371.899,4384494.013,-130.800
566371.899,4384443.870,-130.600
566371.899,4384393.728,-130.400
566371.899,4384343.585,-130.200
566371.899,4384293.443,-130.000
566371.899,4384243.300,-130.300
566371.899,4384193.158,-130.900
566371.899,4384143.015,-134.100
566371.899,4384092.872,-134.200
566371.899,4384042.730,-134.200
566371.899,4383992.587,-133.900
566371.899,4383942.445,-133.700
566371.899,4383892.302,-133.500
566371.899,4383842.160,-133.200
566371.899,4383792.017,-133.300
566371.899,4383741.875,-133.500
566371.899,4383691.732,-133.800
566371.899,4383641.589,-134.100
566371.899,4383591.447,-134.500
566371.899,4383541.304,-135.300
566371.899,4383491.162,-135.800
566371.899,4383441.019,-136.500
566371.899,4383390.877,-137.700
566371.899,4383340.734,-139.000
566371.899,4383290.592,-139.700
566371.899,4383240.449,-140.400
566371.899,4383190.306,-141.100
566371.899,4383140.164,-142.300
566371.899,4383090.021,-143.900
566371.899,4383039.879,-146.100
566371.899,4382989.736,-148.500
566371.899,4382939.594,-151.100
566371.899,4382889.451,-153.600
566371.899,4382839.309,-155.700
566371.899,4382789.166,-158.200
566371.899,4382739.024,-160.800
566371.899,4382688.881,-164.500
566371.899,4382638.738,-170.000
566421.992,4404200.036,-26.900
566421.992,4404149.893,-26.700
566421.992,4404099.751,-26.600
566421.992,4404049.608,-26.700
566421.992,4403999.465,-26.800
566421.992,4403949.323,-27.000
566421.992,4403899.180,-27.200
566421.992,4403849.038,-27.400
566421.992,4403798.895,-27.600
566421.992,4403748.753,-27.900
566421.992,4403698.610,-28.200
566421.992,4403648.468,-28.500
566421.992,4403598.325,-28.800
566421.992,4403548.182,-29.100
566421.992,4403498.040,-29.300
566421.992,4403447.897,-29.600
566421.992,4403397.755,-30.000
566421.992,4403347.612,-30.400
566421.992,4403297.470,-30.800
566421.992,4403247.327,-31.200
566421.992,4403197.185,-31.600
566421.992,4403147.042,-31.900
566421.992,4403096.899,-32.400
566421.992,4403046.757,-32.800
566421.992,4402996.614,-33.300
566421.992,4402946.472,-33.800
566421.992,4402896.329,-34.400
566421.992,4402846.187,-34.900
566421.992,4402796.044,-35.400
566421.992,4402745.902,-36.000
566421.992,4402695.759,-36.500
566421.992,4402645.617,-37.000
566421.992,4402595.474,-37.600
566421.992,4402545.331,-38.100
566421.992,4402495.189,-38.600
566421.992,4402445.046,-39.100
566421.992,4402394.904,-39.500
566421.992,4402344.761,-40.100
566421.992,4402294.619,-40.600
566421.992,4402244.476,-41.100
566421.992,4402194.334,-41.600
566421.992,4402144.191,-42.200
566421.992,4402094.048,-42.700
566421.992,4402043.906,-43.200
566421.992,4401993.763,-43.800
566421.992,4401943.621,-44.300
566421.992,4401893.478,-44.800
566421.992,4401843.336,-45.400
566421.992,4401793.193,-45.900
566421.992,4401743.051,-46.400
566421.992,4401692.908,-46.900
566421.992,4401642.765,-47.500
566421.992,4401592.623,-48.000
566421.992,4401542.480,-48.500
566421.992,4401492.338,-49.100
566421.992,4401442.195,-49.600
566421.992,4401392.053,-50.000
566421.992,4401341.910,-50.600
566421.992,4401291.768,-51.000
566421.992,4401241.625,-51.500
566421.992,4401191.483,-52.000
566421.992,4401141.340,-52.500
566421.992,4401091.197,-53.000
566421.992,4401041.055,-53.500
566421.992,4400990.912,-54.100
566421.992,4400940.770,-54.600
566421.992,4400890.627,-55.100
566421.992,4400840.485,-55.600
566421.992,4400790.342,-56.100
566421.992,4400740.200,-56.600
566421.992,4400690.057,-57.100
566421.992,4400639.914,-57.600
566421.992,4400589.772,-58.100
566421.992,4400539.629,-58.700
566421.992,4400489.487,-59.200
566421.992,4400439.344,-59.700
566421.992,4400389.202,-60.100
566421.992,4400339.059,-60.600
566421.992,4400288.917,-61.100
566421.992,4400238.774,-61.700
566421.992,4400188.631,-62.100
566421.992,4400138.489,-62.600
566421.992,4400088.346,-63.100
566421.992,4400038.204,-63.500
566421.992,4399988.061,-64.000
566421.992,4399937.919,-64.400
566421.992,4399887.776,-64.900
566421.992,4399837.634,-65.400
566421.992,4399787.491,-65.900
566421.992,4399737.349,-66.300
566421.992,4399687.206,-66.800
566421.992,4399637.063,-67.300
566421.992,4399586.921,-67.700
566421.992,4399536.778,-68.200
566421.992,4399486.636,-68.600
566421.992,4399436.493,-69.100
566421.992,4399386.351,-69.500
566421.992,4399336.208,-70.000
566421.992,4399286.066,-70.400
566421.992,4399235.923,-70.900
566421.992,4399185.780,-71.300
566421.992,4399135.638,-71.700
566421.992,4399085.495,-72.000
566421.992,4399035.353,-72.400
566421.992,4398985.210,-73.000
566421.992,4398935.068,-73.400
566421.992,4398884.925,-73.800
566421.992,4398834.783,-74.100
566421.992,4398784.640,-74.500
566421.992,4398734.497,-74.900
566421.992,4398684.355,-75.200
566421.992,4398634.212,-75.600
566421.992,4398584.070,-76.000
566421.992,4398533.927,-76.400
566421.992,4398483.785,-76.700
566421.992,4398433.642,-77.100
566421.992,4398383.500,-77.400
566421.992,4398333.357,-77.800
566421.992,4398283.215,-78.200
566421.992,4398233.072,-78.600
566421.992,4398182.929,-79.000
566421.992,4398132.787,-79.500
566421.992,4398082.644,-79.900
566421.992,4398032.502,-80.200
566421.992,4397982.359,-80.600
566421.992,4397932.217,-81.100
566421.992,4397882.074,-81.500
566421.992,4397831.932,-81.900
566421.992,4397781.789,-82.200
566421.992,4397731.646,-82.600
566421.992,4397681.504,-82.900
566421.992,4397631.361,-83.200
566421.992,4397581.219,-83.500
566421.992,4397531.076,-83.900
566421.992,4397480.934,-84.400
566421.992,4397430.791,-84.800
566421.992,4397380.649,-85.200
566421.992,4397330.506,-85.400
566421.992,4397280.363,-85.700
566421.992,4397230.221,-86.100
566421.992,4397180.078,-86.500
566421.992,4397129.936,-86.800
566421.992,4397079.793,-87.100
566421.992,4397029.651,-87.500
566421.992,4396979.508,-87.800
566421.992,4396929.366,-88.100
566421.992,4396879.223,-88.500
566421.992,4396829.081,-88.900
566421.992,4396778.938,-89.300
566421.992,4396728.795,-89.700
566421.992,4396678.653,-90.100
566421.992,4396628.510,-90.500
566421.992,4396578.368,-91.000
566421.992,4396528.225,-91.400
566421.992,4396478.083,-91.800
566421.992,4396427.940,-92.200
566421.992,4396377.798,-92.600
566421.992,4396327.655,-93.000
566421.992,4396277.512,-93.300
566421.992,4396227.370,-93.600
566421.992,4396177.227,-93.900
566421.992,4396127.085,-94.300
566421.992,4396076.942,-94.800
566421.992,4396026.800,-95.300
566421.992,4395976.657,-95.800
566421.992,4395926.515,-96.100
566421.992,4395876.372,-96.300
566421.992,4395826.229,-96.600
566421.992,4395776.087,-96.800
566421.992,4395725.944,-97.000
566421.992,4395675.802,-97.300
566421.992,4395625.659,-97.700
566421.992,4395575.517,-98.000
566421.992,4395525.374,-98.200
566421.992,4395475.232,-98.400
566421.992,4395425.089,-98.600
566421.992,4395374.947,-98.800
566421.992,4395324.804,-98.900
566421.992,4395274.661,-99.100
566421.992,4395224.519,-99.300
566421.992,4395174.376,-99.400
566421.992,4395124.234,-99.600
566421.992,4395074.091,-99.600
566421.992,4395023.949,-99.700
566421.992,4394973.806,-99.700
566421.992,4394923.664,-100.000
566421.992,4394873.521,-100.100
566421.992,4394823.378,-100.300
566421.992,4394773.236,-100.400
566421.992,4394723.093,-100.500
566421.992,4394672.951,-100.600
566421.992,4394622.808,-100.800
566421.992,4394572.666,-101.000
566421.992,4394522.523,-101.100
566421.992,4394472.381,-101.200
566421.992,4394422.238,-101.300
566421.992,4394372.095,-101.400
566421.992,4394321.953,-101.400
566421.992,4394271.810,-101.400
566421.992,4394221.668,-101.400
566421.992,4394171.525,-101.500
566421.992,4394121.383,-101.500
566421.992,4394071.240,-101.500
566421.992,4394021.098,-101.500
566421.992,4393970.955,-101.500
566421.992,4393920.813,-101.600
566421.992,4393870.670,-101.700
566421.992,4393820.527,-101.700
566421.992,4393770.385,-101.900
566421.992,4393720.242,-102.000
566421.992,4393670.100,-102.000
566421.992,4393619.957,-102.100
566421.992,4393569.815,-102.200
566421.992,4393519.672,-102.200
566421.992,4393469.530,-102.200
566421.992,4393419.387,-102.200
566421.992,4393369.244,-102.300
566421.992,4393319.102,-102.300
566421.992,4393268.959,-102.400
566421.992,4393218.817,-102.500
566421.992,4393168.674,-102.500
566421.992,4393118.532,-102.500
566421.992,4393068.389,-102.600
566421.992,4393018.247,-102.700
566421.992,4392968.104,-102.600
566421.992,4392917.962,-102.700
566421.992,4392867.819,-102.700
566421.992,4392817.676,-102.800
566421.992,4392767.534,-102.900
566421.992,4392717.391,-103.000
566421.992,4392667.249,-103.000
566421.992,4392617.106,-103.000
566421.992,4392566.964,-103.100
566421.992,4392516.821,-103.200
566421.992,4392466.679,-103.300
566421.992,4392416.536,-103.400
566421.992,4392366.393,-103.500
566421.992,4392316.251,-103.700
566421.992,4392266.108,-103.800
566421.992,4392215.966,-103.900
566421.992,4392165.823,-104.100
566421.992,4392115.681,-104.200
566421.992,4392065.538,-104.400
566421.992,4392015.396,-104.500
566421.992,4391965.253,-104.600
566421.992,4391915.110,-104.700
566421.992,4391864.968,-104.900
566421.992,4391814.825,-105.000
566421.992,4391764.683,-105.100
566421.992,4391714.540,-105.200
566421.992,4391664.398,-105.300
566421.992,4391614.255,-105.400
566421.992,4391564.113,-105.500
566421.992,4391513.970,-105.500
566421.992,4391463.828,-105.700
566421.992,4391413.685,-105.700
566421.992,4391363.542,-105.800
566421.992,4391313.400,-105.800
566421.992,4391263.257,-105.900
566421.992,4391213.115,-105.900
566421.992,4391162.972,-106.000
566421.992,4391112.830,-106.000
566421.992,4391062.687,-106.100
566421.992,4391012.545,-106.200
566421.992,4390962.402,-106.300
566421.992,4390912.259,-106.400
566421.992,4390862.117,-106.400
566421.992,4390811.974,-106.400
566421.992,4390761.832,-106.500
566421.992,4390711.689,-106.500
566421.992,4390661.547,-106.500
566421.992,4390611.404,-106.600
566421.992,4390561.262,-106.700
566421.992,4390511.119,-106.700
566421.992,4390460.976,-106.700
566421.992,4390410.834,-106.800
566421.992,4390360.691,-106.800
566421.992,4390310.549,-106.900
566421.992,4390260.406,-106.900
566421.992,4390210.264,-107.000
566421.992,4390160.121,-107.000
566421.992,4390109.979,-107.000
566421.992,4390059.836,-107.100
566421.992,4390009.694,-107.200
566421.992,4389959.551,-107.300
566421.992,4389909.408,-107.300
566421.992,4389859.266,-107.400
566421.992,4389809.123,-107.500
566421.992,4389758.981,-107.600
566421.992,4389708.838,-107.600
566421.992,4389658.696,-107.700
566421.992,4389608.553,-107.800
566421.992,4389558.411,-107.800
566421.992,4389508.268,-107.800
566421.992,4389458.125,-107.900
566421.992,4389407.983,-107.900
566421.992,4389357.840,-107.900
566421.992,4389307.698,-107.900
566421.992,4389257.555,-107.900
566421.992,4389207.413,-107.900
566421.992,4389157.270,-107.900
566421.992,4389107.128,-107.900
566421.992,4389056.985,-107.800
566421.992,4389006.842,-107.800
566421.992,4388956.700,-107.900
566421.992,4388906.557,-107.900
566421.992,4388856.415,-108.000
566421.992,4388806.272,-108.100
566421.992,4388756.130,-108.200
566421.992,4388705.987,-108.300
566421.992,4388655.845,-108.300
566421.992,4388605.702,-108.400
566421.992,4388555.560,-108.400
566421.992,4388505.417,-108.700
566421.992,4388455.274,-108.700
566421.992,4388405.132,-108.700
566421.992,4388354.989,-108.600
566421.992,4388304.847,-108.600
566421.992,4388254.704,-108.700
566421.992,4388204.562,-108.600
566421.992,4388154.419,-108.600
566421.992,4388104.277,-108.900
566421.992,4388054.134,-108.700
566421.992,4388003.991,-108.900
566421.992,4387953.849,-109.100
566421.992,4387903.706,-109.300
566421.992,4387853.564,-109.300
566421.992,4387803.421,-109.200
566421.992,4387753.279,-109.500
566421.992,4387703.136,-109.800
566421.992,4387652.994,-110.100
566421.992,4387602.851,-110.200
566421.992,4387552.708,-110.300
566421.992,4387502.566,-110.600
566421.992,4387452.423,-110.500
566421.992,4387402.281,-111.000
566421.992,4387352.138,-111.100
566421.992,4387301.996,-111.300
566421.992,4387251.853,-111.400
566421.992,4387201.711,-111.500
566421.992,4387151.568,-111.600
566421.992,4387101.426,-111.700
566421.992,4387051.283,-111.700
566421.992,4387001.140,-111.700
566421.992,4386950.998,-111.900
566421.992,4386900.855,-112.000
566421.992,4386850.713,-112.100
566421.992,4386800.570,-112.300
566421.992,4386750.428,-112.400
566421.992,4386700.285,-112.600
566421.992,4386650.143,-112.900
566421.992,4386600.000,-113.200
566421.992,4386549.857,-113.300
566421.992,4386499.715,-113.600
566421.992,4386449.572,-113.900
566421.992,4386399.430,-114.100
566421.992,4386349.287,-114.300
566421.992,4386299.145,-114.500
566421.992,4386249.002,-114.600
566421.992,4386198.860,-114.600
566421.992,4386148.717,-114.600
566421.992,4386098.574,-114.500
566421.992,4386048.432,-114.200
566421.992,4385998.289,-114.100
566421.992,4385948.147,-113.800
566421.992,4385898.004,-113.200
566421.992,4385847.862,-112.900
566421.992,4385797.719,-112.400
566421.992,4385747.577,-111.800
566421.992,4385697.434,-111.100
566421.992,4385647.292,-110.600
566421.992,4385597.149,-110.000
566421.992,4385547.006,-110.500
566421.992,4385496.864,-111.500
566421.992,4385446.721,-112.700
566421.992,4385396.579,-113.800
566421.992,4385346.436,-114.700
566421.992,4385296.294,-116.200
566421.992,4385246.151,-117.100
566421.992,4385196.009,-118.900
566421.992,4385145.866,-120.400
566421.992,4385095.723,-121.900
566421.992,4385045.581,-123.800
566421.992,4384995.438,-126.600
566421.992,4384945.296,-128.200
566421.992,4384895.153,-128.800
566421.992,4384845.011,-129.400
566421.992,4384794.868,-129.500
566421.992,4384744.726,-129.700
566421.992,4384694.583,-130.000
566421.992,4384644.440,-130.400
566421.992,4384594.298,-130.600
566421.992,4384544.155,-130.400
566421.992,4384494.013,-130.200
566421.992,4384443.870,-129.900
566421.992,4384393.728,-129.900
566421.992,4384343.585,-129.700
566421.992,4384293.443,-129.700
566421.992,4384243.300,-129.900
566421.992,4384193.158,-130.600
566421.992,4384143.015,-132.700
566421.992,4384092.872,-133.800
566421.992,4384042.730,-133.800
566421.992,4383992.587,-133.400
566421.992,4383942.445,-133.300
566421.992,4383892.302,-133.000
566421.992,4383842.160,-132.600
566421.992,4383792.017,-132.400
566421.992,4383741.875,-132.300
566421.992,4383691.732,-132.500
566421.992,4383641.589,-132.800
566421.992,4383591.447,-133.300
566421.992,4383541.304,-134.100
566421.992,4383491.162,-134.800
566421.992,4383441.019,-135.700
566421.992,4383390.877,-136.700
566421.992,4383340.734,-137.900
566421.992,4383290.592,-138.500
566421.992,4383240.449,-138.900
566421.992,4383190.306,-139.300
566421.992,4383140.164,-140.100
566421.992,4383090.021,-141.700
566421.992,4383039.879,-143.600
566421.992,4382989.736,-145.900
566421.992,4382939.594,-148.400
566421.992,4382889.451,-151.200
566421.992,4382839.309,-153.700
566421.992,4382789.166,-155.700
566421.992,4382739.024,-157.400
566421.992,4382688.881,-159.600
566421.992,4382638.738,-163.200
566421.992,4382588.596,-168.900
566472.084,4404200.036,-26.900
566472.084,4404149.893,-26.500
566472.084,4404099.751,-26.200
566472.084,4404049.608,-26.300
566472.084,4403999.465,-26.300
566472.084,4403949.323,-26.200
566472.084,4403899.180,-26.100
566472.084,4403849.038,-26.200
566472.084,4403798.895,-26.400
566472.084,4403748.753,-26.700
566472.084,4403698.610,-27.000
566472.084,4403648.468,-27.200
566472.084,4403598.325,-27.500
566472.084,4403548.182,-27.700
566472.084,4403498.040,-28.000
566472.084,4403447.897,-28.300
566472.084,4403397.755,-28.600
566472.084,4403347.612,-28.900
566472.084,4403297.470,-29.200
566472.084,4403247.327,-29.500
566472.084,4403197.185,-29.900
566472.084,4403147.042,-30.300
566472.084,4403096.899,-30.600
566472.084,4403046.757,-31.100
566472.084,4402996.614,-31.700
566472.084,4402946.472,-32.200
566472.084,4402896.329,-32.700
566472.084,4402846.187,-33.200
566472.084,4402796.044,-33.700
566472.084,4402745.902,-34.200
566472.084,4402695.759,-34.800
566472.084,4402645.617,-35.300
566472.084,4402595.474,-35.900
566472.084,4402545.331,-36.400
566472.084,4402495.189,-36.900
566472.084,4402445.046,-37.400
566472.084,4402394.904,-38.000
566472.084,4402344.761,-38.500
566472.084,4402294.619,-39.000
566472.084,4402244.476,-39.400
566472.084,4402194.334,-39.900
566472.084,4402144.191,-40.500
566472.084,4402094.048,-41.000
566472.084,4402043.906,-41.500
566472.084,4401993.763,-42.100
566472.084,4401943.621,-42.600
566472.084,4401893.478,-43.100
566472.084,4401843.336,-43.600
566472.084,4401793.193,-44.200
566472.084,4401743.051,-44.700
566472.084,4401692.908,-45.300
566472.084,4401642.765,-45.900
566472.084,4401592.623,-46.400
566472.084,4401542.480,-47.000
566472.084,4401492.338,-47.500
566472.084,4401442.195,-48.000
566472.084,4401392.053,-48.500
566472.084,4401341.910,-49.000
566472.084,4401291.768,-49.600
566472.084,4401241.625,-50.100
566472.084,4401191.483,-50.500
566472.084,4401141.340,-51.000
566472.084,4401091.197,-51.500
566472.084,4401041.055,-52.000
566472.084,4400990.912,-52.500
566472.084,4400940.770,-53.100
566472.084,4400890.627,-53.600
566472.084,4400840.485,-54.100
566472.084,4400790.342,-54.600
566472.084,4400740.200,-55.100
566472.084,4400690.057,-55.600
566472.084,4400639.914,-56.100
566472.084,4400589.772,-56.600
566472.084,4400539.629,-57.100
566472.084,4400489.487,-57.600
566472.084,4400439.344,-58.100
566472.084,4400389.202,-58.600
566472.084,4400339.059,-59.100
566472.084,4400288.917,-59.600
566472.084,4400238.774,-60.100
566472.084,4400188.631,-60.600
566472.084,4400138.489,-61.100
566472.084,4400088.346,-61.600
566472.084,4400038.204,-62.000
566472.084,4399988.061,-62.500
566472.084,4399937.919,-62.900
566472.084,4399887.776,-63.400
566472.084,4399837.634,-63.900
566472.084,4399787.491,-64.300
566472.084,4399737.349,-64.700
566472.084,4399687.206,-65.200
566472.084,4399637.063,-65.700
566472.084,4399586.921,-66.100
566472.084,4399536.778,-66.600
566472.084,4399486.636,-67.000
566472.084,4399436.493,-67.400
566472.084,4399386.351,-67.800
566472.084,4399336.208,-68.300
566472.084,4399286.066,-68.700
566472.084,4399235.923,-69.100
566472.084,4399185.780,-69.500
566472.084,4399135.638,-69.900
566472.084,4399085.495,-70.300
566472.084,4399035.353,-70.800
566472.084,4398985.210,-71.200
566472.084,4398935.068,-71.600
566472.084,4398884.925,-72.000
566472.084,4398834.783,-72.400
566472.084,4398784.640,-72.800
566472.084,4398734.497,-73.100
566472.084,4398684.355,-73.500
566472.084,4398634.212,-73.900
566472.084,4398584.070,-74.200
566472.084,4398533.927,-74.500
566472.084,4398483.785,-74.900
566472.084,4398433.642,-75.300
566472.084,4398383.500,-75.600
566472.084,4398333.357,-76.000
566472.084,4398283.215,-76.400
566472.084,4398233.072,-76.800
566472.084,4398182.929,-77.200
566472.084,4398132.787,-77.600
566472.084,4398082.644,-78.000
566472.084,4398032.502,-78.300
566472.084,4397982.359,-78.700
566472.084,4397932.217,-79.100
566472.084,4397882.074,-79.500
566472.084,4397831.932,-79.900
566472.084,4397781.789,-80.200
566472.084,4397731.646,-80.600
566472.084,4397681.504,-80.900
