583874.734,4296948.956,-460.600
583874.734,4296848.592,-460.800
583874.734,4296748.229,-460.800
583874.734,4296647.866,-461.500
583874.734,4296547.502,-462.600
583874.734,4296447.139,-463.900
583874.734,4296346.776,-464.600
583874.734,4296246.412,-464.800
583874.734,4296146.049,-464.500
583874.734,4296045.686,-463.600
583874.734,4295945.322,-462.300
583874.734,4295844.959,-461.600
583874.734,4295744.596,-461.200
583874.734,4295644.233,-460.600
583874.734,4295543.869,-460.100
583874.734,4295443.506,-460.200
583874.734,4295343.143,-460.600
583874.734,4295242.779,-460.400
583874.734,4295142.416,-459.600
583874.734,4295042.053,-458.900
583874.734,4294941.689,-457.700
583874.734,4294841.326,-456.500
583874.734,4294740.963,-455.700
583874.734,4294640.600,-454.800
583874.734,4294540.236,-453.700
583874.734,4294439.873,-452.600
583874.734,4294339.510,-451.700
583874.734,4294239.146,-451.100
583874.734,4294138.783,-451.200
583874.734,4294038.420,-452.700
583874.734,4293938.056,-454.500
583874.734,4293837.693,-456.200
583874.734,4293737.330,-458.900
583874.734,4293636.966,-462.800
583874.734,4293536.603,-466.300
583874.734,4293436.240,-467.900
583874.734,4293335.877,-469.100
583874.734,4293235.513,-469.400
583874.734,4293135.150,-468.400
583874.734,4293034.787,-466.300
583874.734,4292934.423,-464.100
583874.734,4292834.060,-461.500
583874.734,4292733.697,-459.300
583874.734,4292633.333,-458.400
583874.734,4292532.970,-464.000
583874.734,4292432.607,-486.600
583874.734,4292332.243,-520.500
583874.734,4292231.880,-538.700
583874.734,4292131.517,-540.000
583874.734,4292031.154,-540.900
583874.734,4291930.790,-541.000
583874.734,4291830.427,-533.300
583874.734,4291730.064,-517.700
583874.734,4291629.700,-506.300
583874.734,4291529.337,-502.700
583874.734,4291428.974,-500.000
583874.734,4291328.610,-496.300
583874.734,4291228.247,-486.300
583874.734,4291127.884,-470.600
583874.734,4291027.520,-459.900
583874.734,4290927.157,-452.800
583874.734,4290826.794,-446.000
583874.734,4290726.431,-440.400
583874.734,4290626.067,-436.700
583874.734,4290525.704,-433.100
583874.734,4290425.341,-429.400
583874.734,4290324.977,-426.000
583874.734,4290224.614,-422.400
583874.734,4290124.251,-418.400
583874.734,4290023.887,-413.400
583874.734,4289923.524,-407.400
583874.734,4289823.161,-402.800
583874.734,4289722.798,-398.800
583874.734,4289622.434,-394.000
583874.734,4289522.071,-390.300
583874.734,4289421.708,-387.500
583874.734,4289321.344,-385.100
583874.734,4289220.981,-381.800
583874.734,4289120.618,-377.600
583874.734,4289020.254,-373.200
583874.734,4288919.891,-367.800
583874.734,4288819.528,-360.600
583874.734,4288719.164,-352.400
583874.734,4288618.801,-343.100
583874.734,4288518.438,-332.300
583874.734,4288418.075,-319.800
583874.734,4288317.711,-306.500
583874.734,4288217.348,-293.900
583874.734,4288116.985,-283.100
583874.734,4288016.621,-274.100
583874.734,4287916.258,-265.600
583874.734,4287815.895,-255.300
583874.734,4287715.531,-242.100
583874.734,4287615.168,-230.300
583874.734,4287514.805,-222.500
583874.734,4287414.441,-211.700
583874.734,4287314.078,-190.700
583874.734,4287213.715,-164.500
583874.734,4287113.352,-144.500
583975.343,4338700.091,-516.300
583975.343,4338599.727,-518.200
583975.343,4338499.364,-524.000
583975.343,4338399.001,-533.500
583975.343,4338298.638,-541.900
583975.343,4338198.274,-544.300
583975.343,4338097.911,-544.200
583975.343,4337997.548,-545.000
583975.343,4337897.184,-544.400
583975.343,4337796.821,-540.600
583975.343,4337696.458,-532.300
583975.343,4337596.094,-523.700
583975.343,4337495.731,-521.500
583975.343,4337395.368,-525.000
583975.343,4337295.004,-531.600
583975.343,4337194.641,-538.300
583975.343,4337094.278,-542.500
583975.343,4336993.915,-545.600
583975.343,4336893.551,-549.200
583975.343,4336793.188,-551.900
583975.343,4336692.825,-553.700
583975.343,4336592.461,-556.200
583975.343,4336492.098,-559.200
583975.343,4336391.735,-561.900
583975.343,4336291.371,-563.600
583975.343,4336191.008,-563.600
583975.343,4336090.645,-562.100
583975.343,4335990.281,-557.300
583975.343,4335889.918,-547.700
583975.343,4335789.555,-537.400
583975.343,4335689.192,-530.300
583975.343,4335588.828,-523.800
583975.343,4335488.465,-518.100
583975.343,4335388.102,-514.600
583975.343,4335287.738,-513.200
583975.343,4335187.375,-514.400
583975.343,4335087.012,-516.300
583975.343,4334986.648,-516.800
583975.343,4334886.285,-518.400
583975.343,4334785.922,-520.000
583975.343,4334685.559,-519.800
583975.343,4334585.195,-519.400
583975.343,4334484.832,-519.300
583975.343,4334384.469,-519.300
583975.343,4334284.105,-519.000
583975.343,4334183.742,-518.700
583975.343,4334083.379,-518.400
583975.343,4333983.015,-517.700
583975.343,4333882.652,-517.500
583975.343,4333782.289,-519.300
583975.343,4333681.925,-522.000
583975.343,4333581.562,-523.400
583975.343,4333481.199,-523.500
583975.343,4333380.836,-523.500
583975.343,4333280.472,-522.900
583975.343,4333180.109,-521.900
583975.343,4333079.746,-523.500
583975.343,4332979.382,-528.300
583975.343,4332879.019,-533.300
583975.343,4332778.656,-536.700
583975.343,4332678.292,-539.000
583975.343,4332577.929,-537.100
583975.343,4332477.566,-533.700
583975.343,4332377.202,-533.200
583975.343,4332276.839,-533.900
583975.343,4332176.476,-539.600
583975.343,4332076.113,-550.000
583975.343,4331975.749,-557.300
583975.343,4331875.386,-558.900
583975.343,4331775.023,-555.600
583975.343,4331674.659,-551.500
583975.343,4331574.296,-550.500
583975.343,4331473.933,-551.300
583975.343,4331373.569,-552.700
583975.343,4331273.206,-554.100
583975.343,4331172.843,-556.300
583975.343,4331072.480,-559.200
583975.343,4330972.116,-560.700
583975.343,4330871.753,-561.200
583975.343,4330771.390,-563.300
583975.343,4330671.026,-566.700
583975.343,4330570.663,-569.600
583975.343,4330470.300,-572.500
583975.343,4330369.936,-576.100
583975.343,4330269.573,-579.400
583975.343,4330169.210,-581.700
583975.343,4330068.846,-584.400
583975.343,4329968.483,-586.600
583975.343,4329868.120,-588.100
583975.343,4329767.757,-589.100
583975.343,4329667.393,-590.300
583975.343,4329567.030,-591.500
583975.343,4329466.667,-592.800
583975.343,4329366.303,-594.500
583975.343,4329265.940,-595.800
583975.343,4329165.577,-596.700
583975.343,4329065.213,-597.400
583975.343,4328964.850,-597.500
583975.343,4328864.487,-597.500
583975.343,4328764.123,-598.200
583975.343,4328663.760,-598.900
583975.343,4328563.397,-598.800
583975.343,4328463.034,-597.600
583975.343,4328362.670,-596.700
583975.343,4328262.307,-596.200
583975.343,4328161.944,-596.200
583975.343,4328061.580,-596.600
583975.343,4327961.217,-595.800
583975.343,4327860.854,-594.300
583975.343,4327760.490,-593.200
583975.343,4327660.127,-592.700
583975.343,4327559.764,-592.800
583975.343,4327459.400,-592.400
583975.343,4327359.037,-591.300
583975.343,4327258.674,-589.600
583975.343,4327158.311,-587.600
583975.343,4327057.947,-586.100
583975.343,4326957.584,-585.200
583975.343,4326857.221,-584.300
583975.343,4326756.857,-583.800
583975.343,4326656.494,-583.200
583975.343,4326556.131,-581.700
583975.343,4326455.767,-579.600
583975.343,4326355.404,-577.200
583975.343,4326255.041,-575.100
583975.343,4326154.678,-572.700
583975.343,4326054.314,-570.600
583975.343,4325953.951,-570.200
583975.343,4325853.588,-574.300
583975.343,4325753.224,-579.200
583975.343,4325652.861,-581.200
583975.343,4325552.498,-581.100
583975.343,4325452.134,-578.100
583975.343,4325351.771,-574.900
583975.343,4325251.408,-573.100
583975.343,4325151.044,-572.400
583975.343,4325050.681,-572.200
583975.343,4324950.318,-571.800
583975.343,4324849.955,-571.500
583975.343,4324749.591,-572.200
583975.343,4324649.228,-571.500
583975.343,4324548.865,-570.200
583975.343,4324448.501,-570.000
583975.343,4324348.138,-570.700
583975.343,4324247.775,-571.700
583975.343,4324147.411,-572.400
583975.343,4324047.048,-572.800
583975.343,4323946.685,-573.000
583975.343,4323846.321,-572.800
583975.343,4323745.958,-572.100
583975.343,4323645.595,-571.800
583975.343,4323545.232,-571.700
583975.343,4323444.868,-571.700
583975.343,4323344.505,-571.300
583975.343,4323244.142,-571.500
583975.343,4323143.778,-571.900
583975.343,4323043.415,-571.700
583975.343,4322943.052,-570.100
583975.343,4322842.688,-568.900
583975.343,4322742.325,-569.100
583975.343,4322641.962,-569.300
583975.343,4322541.599,-568.300
583975.343,4322441.235,-567.200
583975.343,4322340.872,-566.600
583975.343,4322240.509,-566.200
583975.343,4322140.145,-565.900
583975.343,4322039.782,-565.600
583975.343,4321939.419,-565.000
583975.343,4321839.055,-564.100
583975.343,4321738.692,-563.100
583975.343,4321638.329,-562.300
583975.343,4321537.965,-560.600
583975.343,4321437.602,-558.900
583975.343,4321337.239,-557.200
583975.343,4321236.876,-555.300
583975.343,4321136.512,-553.700
583975.343,4321036.149,-552.300
583975.343,4320935.786,-549.600
583975.343,4320835.422,-548.000
583975.343,4320735.059,-546.500
583975.343,4320634.696,-545.300
583975.343,4320534.332,-543.100
583975.343,4320433.969,-540.100
583975.343,4320333.606,-538.900
583975.343,4320233.242,-538.400
583975.343,4320132.879,-537.300
583975.343,4320032.516,-535.700
583975.343,4319932.153,-534.800
583975.343,4319831.789,-534.300
583975.343,4319731.426,-533.500
583975.343,4319631.063,-532.100
583975.343,4319530.699,-530.600
583975.343,4319430.336,-528.800
583975.343,4319329.973,-527.800
583975.343,4319229.609,-527.200
583975.343,4319129.246,-526.200
583975.343,4319028.883,-526.000
583975.343,4318928.520,-526.700
583975.343,4318828.156,-526.800
583975.343,4318727.793,-526.700
583975.343,4318627.430,-526.700
583975.343,4318527.066,-525.900
583975.343,4318426.703,-524.200
583975.343,4318326.340,-522.300
583975.343,4318225.976,-519.500
583975.343,4318125.613,-518.900
583975.343,4318025.250,-518.300
583975.343,4317924.886,-518.000
583975.343,4317824.523,-513.600
583975.343,4317724.160,-509.100
583975.343,4317623.797,-505.400
583975.343,4317523.433,-502.700
583975.343,4317423.070,-500.100
583975.343,4317322.707,-496.400
583975.343,4317222.343,-492.500
583975.343,4317121.980,-488.400
583975.343,4317021.617,-484.000
583975.343,4316921.253,-480.200
583975.343,4316820.890,-476.300
583975.343,4316720.527,-472.600
583975.343,4316620.163,-468.700
583975.343,4316519.800,-465.900
583975.343,4316419.437,-462.900
583975.343,4316319.074,-459.700
583975.343,4316218.710,-457.800
583975.343,4316118.347,-456.100
583975.343,4316017.984,-453.000
583975.343,4315917.620,-450.100
583975.343,4315817.257,-447.500
583975.343,4315716.894,-445.500
583975.343,4315616.530,-443.600
583975.343,4315516.167,-443.200
583975.343,4315415.804,-443.900
583975.343,4315315.440,-446.400
583975.343,4315215.077,-449.700
583975.343,4315114.714,-449.800
583975.343,4315014.351,-446.400
583975.343,4314913.987,-442.100
583975.343,4314813.624,-438.200
583975.343,4314713.261,-434.900
583975.343,4314612.897,-432.500
583975.343,4314512.534,-430.600
583975.343,4314412.171,-428.700
583975.343,4314311.807,-426.400
583975.343,4314211.444,-423.800
583975.343,4314111.081,-420.100
583975.343,4314010.718,-416.400
583975.343,4313910.354,-412.400
583975.343,4313809.991,-407.900
583975.343,4313709.628,-403.800
583975.343,4313609.264,-401.100
583975.343,4313508.901,-400.200
583975.343,4313408.538,-398.200
583975.343,4313308.174,-392.900
583975.343,4313207.811,-389.900
583975.343,4313107.448,-394.200
583975.343,4313007.084,-411.100
583975.343,4312906.721,-427.200
583975.343,4312806.358,-430.300
583975.343,4312705.995,-427.200
583975.343,4312605.631,-424.700
583975.343,4312505.268,-423.200
583975.343,4312404.905,-422.600
583975.343,4312304.541,-422.400
583975.343,4312204.178,-421.600
583975.343,4312103.815,-421.300
583975.343,4312003.451,-420.100
583975.343,4311903.088,-419.300
583975.343,4311802.725,-415.600
583975.343,4311702.361,-411.000
583975.343,4311601.998,-409.000
583975.343,4311501.635,-409.400
583975.343,4311401.272,-411.400
583975.343,4311300.908,-412.900
583975.343,4311200.545,-414.000
583975.343,4311100.182,-415.500
583975.343,4310999.818,-416.400
583975.343,4310899.455,-417.400
583975.343,4310799.092,-418.000
583975.343,4310698.728,-418.600
583975.343,4310598.365,-418.600
583975.343,4310498.002,-419.700
583975.343,4310397.639,-420.900
583975.343,4310297.275,-422.500
583975.343,4310196.912,-424.400
583975.343,4310096.549,-426.700
583975.343,4309996.185,-428.800
583975.343,4309895.822,-431.000
583975.343,4309795.459,-432.800
583975.343,4309695.095,-434.500
583975.343,4309594.732,-436.500
583975.343,4309494.369,-438.200
583975.343,4309394.005,-439.600
583975.343,4309293.642,-440.500
583975.343,4309193.279,-442.100
583975.343,4309092.916,-443.600
583975.343,4308992.552,-445.100
583975.343,4308892.189,-446.400
583975.343,4308791.826,-446.900
583975.343,4308691.462,-448.300
583975.343,4308591.099,-449.600
583975.343,4308490.736,-450.800
583975.343,4308390.372,-452.000
583975.343,4308290.009,-452.600
583975.343,4308189.646,-453.200
583975.343,4308089.282,-454.600
583975.343,4307988.919,-455.800
583975.343,4307888.556,-456.800
583975.343,4307788.193,-457.600
583975.343,4307687.829,-458.600
583975.343,4307587.466,-458.900
583975.343,4307487.103,-459.600
583975.343,4307386.739,-460.200
583975.343,4307286.376,-460.900
583975.343,4307186.013,-461.500
583975.343,4307085.649,-461.800
583975.343,4306985.286,-462.100
583975.343,4306884.923,-462.300
583975.343,4306784.560,-462.900
583975.343,4306684.196,-463.600
583975.343,4306583.833,-463.900
583975.343,4306483.470,-464.000
583975.343,4306383.106,-464.100
583975.343,4306282.743,-464.500
583975.343,4306182.380,-464.500
583975.343,4306082.016,-464.800
583975.343,4305981.653,-464.600
583975.343,4305881.290,-464.200
583975.343,4305780.926,-463.600
583975.343,4305680.563,-462.900
583975.343,4305580.200,-462.100
583975.343,4305479.837,-461.600
583975.343,4305379.473,-461.800
583975.343,4305279.110,-466.800
583975.343,4305178.747,-476.700
583975.343,4305078.383,-472.300
583975.343,4304978.020,-467.100
583975.343,4304877.657,-463.000
583975.343,4304777.293,-460.200
583975.343,4304676.930,-459.700
583975.343,4304576.567,-460.200
583975.343,4304476.203,-461.500
583975.343,4304375.840,-464.800
583975.343,4304275.477,-468.000
583975.343,4304175.114,-469.500
583975.343,4304074.750,-470.300
583975.343,4303974.387,-470.600
583975.343,4303874.024,-470.800
583975.343,4303773.660,-470.800
583975.343,4303673.297,-470.800
583975.343,4303572.934,-470.900
583975.343,4303472.570,-471.000
583975.343,4303372.207,-471.000
583975.343,4303271.844,-470.700
583975.343,4303171.480,-470.600
583975.343,4303071.117,-471.000
583975.343,4302970.754,-471.000
583975.343,4302870.391,-471.500
583975.343,4302770.027,-473.200
583975.343,4302669.664,-475.600
583975.343,4302569.301,-477.600
583975.343,4302468.937,-476.500
583975.343,4302368.574,-475.000
583975.343,4302268.211,-472.900
583975.343,4302167.847,-470.700
583975.343,4302067.484,-468.900
583975.343,4301967.121,-467.200
583975.343,4301866.758,-466.000
583975.343,4301766.394,-464.400
583975.343,4301666.031,-463.000
583975.343,4301565.668,-461.600
583975.343,4301465.304,-460.300
583975.343,4301364.941,-458.800
583975.343,4301264.578,-457.200
583975.343,4301164.214,-455.600
583975.343,4301063.851,-454.400
583975.343,4300963.488,-453.500
583975.343,4300863.124,-452.700
583975.343,4300762.761,-452.000
583975.343,4300662.398,-451.400
583975.343,4300562.035,-450.900
583975.343,4300461.671,-450.200
583975.343,4300361.308,-449.600
583975.343,4300260.945,-449.000
583975.343,4300160.581,-449.400
583975.343,4300060.218,-450.100
583975.343,4299959.855,-449.800
583975.343,4299859.491,-447.700
583975.343,4299759.128,-446.700
583975.343,4299658.765,-447.600
583975.343,4299558.401,-448.500
583975.343,4299458.038,-449.200
583975.343,4299357.675,-449.800
583975.343,4299257.312,-450.400
583975.343,4299156.948,-450.900
583975.343,4299056.585,-451.500
583975.343,4298956.222,-452.200
583975.343,4298855.858,-452.700
583975.343,4298755.495,-453.300
583975.343,4298655.132,-454.000
583975.343,4298554.768,-454.800
583975.343,4298454.405,-456.100
583975.343,4298354.042,-457.200
583975.343,4298253.679,-458.400
583975.343,4298153.315,-459.600
583975.343,4298052.952,-460.500
583975.343,4297952.589,-460.600
583975.343,4297852.225,-459.600
583975.343,4297751.862,-458.300
583975.343,4297651.499,-458.700
583975.343,4297551.135,-459.500
583975.343,4297450.772,-459.400
583975.343,4297350.409,-458.600
583975.343,4297250.045,-458.000
583975.343,4297149.682,-457.700
583975.343,4297049.319,-457.800
583975.343,4296948.956,-458.000
583975.343,4296848.592,-458.100
583975.343,4296748.229,-458.200
583975.343,4296647.866,-458.600
583975.343,4296547.502,-459.600
583975.343,4296447.139,-461.000
583975.343,4296346.776,-462.200
583975.343,4296246.412,-463.200
583975.343,4296146.049,-463.500
583975.343,4296045.686,-463.100
583975.343,4295945.322,-462.300
583975.343,4295844.959,-462.000
583975.343,4295744.596,-462.100
583975.343,4295644.233,-461.500
583975.343,4295543.869,-460.600
583975.343,4295443.506,-460.400
583975.343,4295343.143,-460.200
583975.343,4295242.779,-459.300
583975.343,4295142.416,-458.100
583975.343,4295042.053,-456.800
583975.343,4294941.689,-455.500
583975.343,4294841.326,-454.500
583975.343,4294740.963,-453.700
583975.343,4294640.600,-453.000
583975.343,4294540.236,-452.400
583975.343,4294439.873,-451.800
583975.343,4294339.510,-451.300
583975.343,4294239.146,-451.200
583975.343,4294138.783,-452.000
583975.343,4294038.420,-453.700
583975.343,4293938.056,-455.300
583975.343,4293837.693,-456.200
583975.343,4293737.330,-457.800
583975.343,4293636.966,-460.500
583975.343,4293536.603,-463.400
583975.343,4293436.240,-464.800
583975.343,4293335.877,-465.000
583975.343,4293235.513,-464.800
583975.343,4293135.150,-464.400
583975.343,4293034.787,-463.400
583975.343,4292934.423,-461.900
583975.343,4292834.060,-460.000
583975.343,4292733.697,-458.100
583975.343,4292633.333,-457.200
583975.343,4292532.970,-461.400
583975.343,4292432.607,-481.400
583975.343,4292332.243,-516.300
583975.343,4292231.880,-537.800
583975.343,4292131.517,-539.200
583975.343,4292031.154,-540.000
583975.343,4291930.790,-537.800
583975.343,4291830.427,-526.200
583975.343,4291730.064,-510.000
583975.343,4291629.700,-500.500
583975.343,4291529.337,-496.200
583975.343,4291428.974,-496.500
583975.343,4291328.610,-495.800
583975.343,4291228.247,-487.900
583975.343,4291127.884,-476.000
583975.343,4291027.520,-466.500
583975.343,4290927.157,-457.100
583975.343,4290826.794,-448.100
583975.343,4290726.431,-441.600
583975.343,4290626.067,-437.200
583975.343,4290525.704,-433.800
583975.343,4290425.341,-429.800
583975.343,4290324.977,-425.800
583975.343,4290224.614,-421.000
583975.343,4290124.251,-415.900
583975.343,4290023.887,-411.200
583975.343,4289923.524,-406.600
583975.343,4289823.161,-402.700
583975.343,4289722.798,-399.200
583975.343,4289622.434,-395.600
583975.343,4289522.071,-392.200
583975.343,4289421.708,-389.300
583975.343,4289321.344,-386.200
583975.343,4289220.981,-381.900
583975.343,4289120.618,-376.900
583975.343,4289020.254,-372.200
583975.343,4288919.891,-367.000
583975.343,4288819.528,-360.100
583975.343,4288719.164,-351.700
583975.343,4288618.801,-341.800
583975.343,4288518.438,-330.400
583975.343,4288418.075,-317.600
583975.343,4288317.711,-303.800
583975.343,4288217.348,-289.900
583975.343,4288116.985,-277.100
583975.343,4288016.621,-265.500
583975.343,4287916.258,-253.900
583975.343,4287815.895,-240.900
583975.343,4287715.531,-225.800
583975.343,4287615.168,-212.000
583975.343,4287514.805,-200.600
583975.343,4287414.441,-185.300
583975.343,4287314.078,-164.500
583975.343,4287213.715,-146.300
584075.951,4338700.091,-515.600
584075.951,4338599.727,-517.700
584075.951,4338499.364,-524.000
584075.951,4338399.001,-531.800
584075.951,4338298.638,-537.200
584075.951,4338198.274,-539.600
584075.951,4338097.911,-540.300
584075.951,4337997.548,-539.500
584075.951,4337897.184,-537.300
584075.951,4337796.821,-531.100
584075.951,4337696.458,-521.900
584075.951,4337596.094,-517.300
584075.951,4337495.731,-519.000
584075.951,4337395.368,-524.100
584075.951,4337295.004,-529.800
584075.951,4337194.641,-534.400
584075.951,4337094.278,-538.400
584075.951,4336993.915,-542.100
584075.951,4336893.551,-545.700
584075.951,4336793.188,-548.400
584075.951,4336692.825,-550.900
584075.951,4336592.461,-554.000
584075.951,4336492.098,-556.700
584075.951,4336391.735,-559.200
584075.951,4336291.371,-560.700
584075.951,4336191.008,-559.800
584075.951,4336090.645,-556.800
584075.951,4335990.281,-548.900
584075.951,4335889.918,-537.200
584075.951,4335789.555,-528.500
584075.951,4335689.192,-523.700
584075.951,4335588.828,-519.000
584075.951,4335488.465,-513.400
584075.951,4335388.102,-508.900
584075.951,4335287.738,-507.000
584075.951,4335187.375,-507.500
584075.951,4335087.012,-509.600
584075.951,4334986.648,-511.500
584075.951,4334886.285,-515.000
584075.951,4334785.922,-519.500
584075.951,4334685.559,-520.700
584075.951,4334585.195,-519.000
584075.951,4334484.832,-516.600
584075.951,4334384.469,-514.500
584075.951,4334284.105,-513.500
584075.951,4334183.742,-512.900
584075.951,4334083.379,-512.100
584075.951,4333983.015,-511.400
584075.951,4333882.652,-512.800
584075.951,4333782.289,-516.000
584075.951,4333681.925,-518.800
584075.951,4333581.562,-520.200
584075.951,4333481.199,-520.700
584075.951,4333380.836,-520.600
584075.951,4333280.472,-519.900
584075.951,4333180.109,-519.600
584075.951,4333079.746,-522.600
584075.951,4332979.382,-528.100
584075.951,4332879.019,-532.300
584075.951,4332778.656,-534.600
584075.951,4332678.292,-534.500
584075.951,4332577.929,-531.800
584075.951,4332477.566,-529.500
584075.951,4332377.202,-529.900
584075.951,4332276.839,-534.000
584075.951,4332176.476,-544.000
584075.951,4332076.113,-553.300
584075.951,4331975.749,-556.300
584075.951,4331875.386,-553.300
584075.951,4331775.023,-548.500
584075.951,4331674.659,-546.200
584075.951,4331574.296,-546.700
584075.951,4331473.933,-548.000
584075.951,4331373.569,-549.800
584075.951,4331273.206,-551.500
584075.951,4331172.843,-553.400
584075.951,4331072.480,-556.500
584075.951,4330972.116,-558.800
584075.951,4330871.753,-561.200
584075.951,4330771.390,-563.900
584075.951,4330671.026,-567.000
584075.951,4330570.663,-570.700
584075.951,4330470.300,-574.300
584075.951,4330369.936,-577.200
584075.951,4330269.573,-579.400
584075.951,4330169.210,-580.800
584075.951,4330068.846,-582.200
584075.951,4329968.483,-583.500
584075.951,4329868.120,-584.900
584075.951,4329767.757,-586.500
584075.951,4329667.393,-588.000
584075.951,4329567.030,-589.400
584075.951,4329466.667,-590.600
584075.951,4329366.303,-591.500
584075.951,4329265.940,-592.600
584075.951,4329165.577,-593.700
584075.951,4329065.213,-594.700
584075.951,4328964.850,-595.200
584075.951,4328864.487,-595.800
584075.951,4328764.123,-595.800
584075.951,4328663.760,-595.100
584075.951,4328563.397,-594.600
584075.951,4328463.034,-594.000
584075.951,4328362.670,-593.400
584075.951,4328262.307,-593.200
584075.951,4328161.944,-593.100
584075.951,4328061.580,-593.100
584075.951,4327961.217,-592.400
584075.951,4327860.854,-591.000
584075.951,4327760.490,-589.600
584075.951,4327660.127,-588.300
584075.951,4327559.764,-588.300
584075.951,4327459.400,-588.200
584075.951,4327359.037,-587.400
584075.951,4327258.674,-586.100
584075.951,4327158.311,-584.300
584075.951,4327057.947,-582.700
584075.951,4326957.584,-581.000
584075.951,4326857.221,-579.900
584075.951,4326756.857,-579.700
584075.951,4326656.494,-578.700
584075.951,4326556.131,-577.300
584075.951,4326455.767,-575.000
584075.951,4326355.404,-572.600
584075.951,4326255.041,-570.800
584075.951,4326154.678,-567.700
584075.951,4326054.314,-565.500
584075.951,4325953.951,-565.600
584075.951,4325853.588,-569.800
584075.951,4325753.224,-575.800
584075.951,4325652.861,-579.000
584075.951,4325552.498,-578.500
584075.951,4325452.134,-575.500
584075.951,4325351.771,-573.000
584075.951,4325251.408,-570.800
584075.951,4325151.044,-569.200
584075.951,4325050.681,-568.500
584075.951,4324950.318,-567.900
584075.951,4324849.955,-567.900
584075.951,4324749.591,-568.800
584075.951,4324649.228,-568.400
584075.951,4324548.865,-567.200
584075.951,4324448.501,-566.800
584075.951,4324348.138,-567.200
584075.951,4324247.775,-569.000
584075.951,4324147.411,-570.400
584075.951,4324047.048,-570.300
584075.951,4323946.685,-570.200
584075.951,4323846.321,-569.500
584075.951,4323745.958,-569.000
584075.951,4323645.595,-568.900
584075.951,4323545.232,-569.100
584075.951,4323444.868,-568.600
584075.951,4323344.505,-568.000
584075.951,4323244.142,-567.800
584075.951,4323143.778,-568.200
584075.951,4323043.415,-567.800
584075.951,4322943.052,-566.400
584075.951,4322842.688,-566.000
584075.951,4322742.325,-566.100
584075.951,4322641.962,-566.300
584075.951,4322541.599,-565.300
584075.951,4322441.235,-564.200
584075.951,4322340.872,-563.300
584075.951,4322240.509,-562.800
584075.951,4322140.145,-562.400
584075.951,4322039.782,-561.800
584075.951,4321939.419,-561.600
584075.951,4321839.055,-561.000
584075.951,4321738.692,-559.700
584075.951,4321638.329,-558.400
584075.951,4321537.965,-556.300
584075.951,4321437.602,-555.200
584075.951,4321337.239,-553.900
584075.951,4321236.876,-551.700
584075.951,4321136.512,-549.800
584075.951,4321036.149,-548.300
584075.951,4320935.786,-546.600
584075.951,4320835.422,-544.700
584075.951,4320735.059,-542.900
584075.951,4320634.696,-541.500
584075.951,4320534.332,-539.800
584075.951,4320433.969,-536.900
584075.951,4320333.606,-535.400
584075.951,4320233.242,-535.600
584075.951,4320132.879,-534.000
584075.951,4320032.516,-532.000
584075.951,4319932.153,-530.200
584075.951,4319831.789,-530.100
584075.951,4319731.426,-529.600
584075.951,4319631.063,-528.800
584075.951,4319530.699,-527.400
584075.951,4319430.336,-525.300
584075.951,4319329.973,-524.000
584075.951,4319229.609,-523.100
584075.951,4319129.246,-522.700
584075.951,4319028.883,-522.800
584075.951,4318928.520,-523.400
584075.951,4318828.156,-524.000
584075.951,4318727.793,-524.100
584075.951,4318627.430,-523.900
584075.951,4318527.066,-523.100
584075.951,4318426.703,-520.900
584075.951,4318326.340,-518.800
584075.951,4318225.976,-517.100
584075.951,4318125.613,-516.000
584075.951,4318025.250,-515.600
584075.951,4317924.886,-514.500
584075.951,4317824.523,-511.400
584075.951,4317724.160,-507.500
584075.951,4317623.797,-503.400
584075.951,4317523.433,-500.000
584075.951,4317423.070,-496.900
584075.951,4317322.707,-492.900
584075.951,4317222.343,-488.500
584075.951,4317121.980,-484.300
584075.951,4317021.617,-478.900
584075.951,4316921.253,-475.300
584075.951,4316820.890,-471.600
584075.951,4316720.527,-467.800
584075.951,4316620.163,-464.300
584075.951,4316519.800,-461.200
584075.951,4316419.437,-458.100
584075.951,4316319.074,-455.000
584075.951,4316218.710,-452.900
584075.951,4316118.347,-451.600
584075.951,4316017.984,-449.200
584075.951,4315917.620,-446.600
584075.951,4315817.257,-443.900
584075.951,4315716.894,-441.700
584075.951,4315616.530,-439.700
584075.951,4315516.167,-439.000
584075.951,4315415.804,-439.100
584075.951,4315315.440,-440.700
584075.951,4315215.077,-443.400
584075.951,4315114.714,-444.200
584075.951,4315014.351,-441.400
584075.951,4314913.987,-437.500
584075.951,4314813.624,-434.300
584075.951,4314713.261,-431.300
584075.951,4314612.897,-429.300
584075.951,4314512.534,-427.100
584075.951,4314412.171,-425.400
584075.951,4314311.807,-423.000
584075.951,4314211.444,-420.400
584075.951,4314111.081,-417.200
584075.951,4314010.718,-414.400
584075.951,4313910.354,-410.900
584075.951,4313809.991,-407.100
584075.951,4313709.628,-404.000
584075.951,4313609.264,-402.000
584075.951,4313508.901,-399.600
584075.951,4313408.538,-395.400
584075.951,4313308.174,-389.400
584075.951,4313207.811,-389.900
584075.951,4313107.448,-398.600
584075.951,4313007.084,-413.100
584075.951,4312906.721,-423.300
584075.951,4312806.358,-425.800
584075.951,4312705.995,-423.900
584075.951,4312605.631,-421.700
584075.951,4312505.268,-420.100
584075.951,4312404.905,-419.500
584075.951,4312304.541,-419.200
584075.951,4312204.178,-418.200
584075.951,4312103.815,-418.200
584075.951,4312003.451,-417.200
584075.951,4311903.088,-416.300
584075.951,4311802.725,-410.700
584075.951,4311702.361,-407.700
584075.951,4311601.998,-406.500
584075.951,4311501.635,-407.200
584075.951,4311401.272,-409.200
584075.951,4311300.908,-410.700
584075.951,4311200.545,-412.500
584075.951,4311100.182,-414.500
584075.951,4310999.818,-415.700
584075.951,4310899.455,-416.800
584075.951,4310799.092,-418.000
584075.951,4310698.728,-418.300
584075.951,4310598.365,-418.600
584075.951,4310498.002,-419.400
584075.951,4310397.639,-420.300
584075.951,4310297.275,-421.700
584075.951,4310196.912,-423.300
584075.951,4310096.549,-425.300
584075.951,4309996.185,-427.200
584075.951,4309895.822,-429.400
584075.951,4309795.459,-431.000
584075.951,4309695.095,-432.700
584075.951,4309594.732,-434.600
584075.951,4309494.369,-436.500
584075.951,4309394.005,-437.900
584075.951,4309293.642,-439.300
584075.951,4309193.279,-440.800
584075.951,4309092.916,-442.000
584075.951,4308992.552,-443.500
584075.951,4308892.189,-444.900
584075.951,4308791.826,-446.000
584075.951,4308691.462,-447.300
584075.951,4308591.099,-448.300
584075.951,4308490.736,-449.300
584075.951,4308390.372,-450.300
584075.951,4308290.009,-451.400
584075.951,4308189.646,-451.900
584075.951,4308089.282,-453.400
584075.951,4307988.919,-454.700
584075.951,4307888.556,-455.300
584075.951,4307788.193,-456.300
584075.951,4307687.829,-457.000
584075.951,4307587.466,-457.800
584075.951,4307487.103,-458.200
584075.951,4307386.739,-458.700
584075.951,4307286.376,-459.500
584075.951,4307186.013,-460.200
584075.951,4307085.649,-460.400
584075.951,4306985.286,-460.800
584075.951,4306884.923,-461.200
584075.951,4306784.560,-461.700
584075.951,4306684.196,-462.000
584075.951,4306583.833,-462.400
584075.951,4306483.470,-462.400
584075.951,4306383.106,-462.300
584075.951,4306282.743,-462.400
584075.951,4306182.380,-462.600
584075.951,4306082.016,-462.900
584075.951,4305981.653,-463.000
584075.951,4305881.290,-462.700
584075.951,4305780.926,-462.300
584075.951,4305680.563,-461.400
584075.951,4305580.200,-461.000
584075.951,4305479.837,-460.500
584075.951,4305379.473,-460.200
584075.951,4305279.110,-464.500
584075.951,4305178.747,-474.300
584075.951,4305078.383,-470.000
584075.951,4304978.020,-464.100
584075.951,4304877.657,-459.900
584075.951,4304777.293,-457.400
584075.951,4304676.930,-457.400
584075.951,4304576.567,-457.800
584075.951,4304476.203,-459.500
584075.951,4304375.840,-463.600
584075.951,4304275.477,-467.000
584075.951,4304175.114,-468.200
584075.951,4304074.750,-468.700
584075.951,4303974.387,-468.800
584075.951,4303874.024,-469.100
584075.951,4303773.660,-469.000
584075.951,4303673.297,-469.000
584075.951,4303572.934,-469.200
584075.951,4303472.570,-468.900
584075.951,4303372.207,-468.700
584075.951,4303271.844,-468.500
584075.951,4303171.480,-468.500
584075.951,4303071.117,-468.500
584075.951,4302970.754,-468.200
584075.951,4302870.391,-468.300
584075.951,4302770.027,-468.600
584075.951,4302669.664,-468.900
584075.951,4302569.301,-471.100
584075.951,4302468.937,-474.300
584075.951,4302368.574,-473.900
584075.951,4302268.211,-472.500
584075.951,4302167.847,-471.100
584075.951,4302067.484,-469.400
584075.951,4301967.121,-467.800
584075.951,4301866.758,-466.600
584075.951,4301766.394,-465.400
584075.951,4301666.031,-464.300
584075.951,4301565.668,-463.000
584075.951,4301465.304,-461.700
584075.951,4301364.941,-460.000
584075.951,4301264.578,-458.300
584075.951,4301164.214,-456.600
584075.951,4301063.851,-455.300
584075.951,4300963.488,-454.000
584075.951,4300863.124,-453.100
584075.951,4300762.761,-452.300
584075.951,4300662.398,-451.600
584075.951,4300562.035,-450.800
584075.951,4300461.671,-450.100
584075.951,4300361.308,-449.500
584075.951,4300260.945,-449.400
584075.951,4300160.581,-450.100
584075.951,4300060.218,-450.300
584075.951,4299959.855,-448.200
584075.951,4299859.491,-445.800
584075.951,4299759.128,-446.400
584075.951,4299658.765,-447.600
584075.951,4299558.401,-448.500
584075.951,4299458.038,-449.000
584075.951,4299357.675,-449.400
584075.951,4299257.312,-450.200
584075.951,4299156.948,-450.700
584075.951,4299056.585,-450.900
584075.951,4298956.222,-451.400
584075.951,4298855.858,-452.000
584075.951,4298755.495,-452.700
584075.951,4298655.132,-453.300
584075.951,4298554.768,-454.100
584075.951,4298454.405,-455.400
584075.951,4298354.042,-456.800
584075.951,4298253.679,-457.900
584075.951,4298153.315,-459.000
584075.951,4298052.952,-459.400
584075.951,4297952.589,-458.500
584075.951,4297852.225,-457.000
584075.951,4297751.862,-456.400
584075.951,4297651.499,-456.400
584075.951,4297551.135,-456.600
584075.951,4297450.772,-456.000
584075.951,4297350.409,-454.800
584075.951,4297250.045,-454.700
584075.951,4297149.682,-455.100
584075.951,4297049.319,-455.700
584075.951,4296948.956,-456.400
584075.951,4296848.592,-456.600
584075.951,4296748.229,-456.700
584075.951,4296647.866,-457.000
584075.951,4296547.502,-457.600
584075.951,4296447.139,-458.500
584075.951,4296346.776,-459.600
584075.951,4296246.412,-460.900
584075.951,4296146.049,-461.800
584075.951,4296045.686,-462.400
584075.951,4295945.322,-462.700
584075.951,4295844.959,-462.800
584075.951,4295744.596,-462.900
584075.951,4295644.233,-462.600
584075.951,4295543.869,-461.600
584075.951,4295443.506,-460.400
584075.951,4295343.143,-459.300
584075.951,4295242.779,-457.800
584075.951,4295142.416,-456.400
584075.951,4295042.053,-455.000
584075.951,4294941.689,-453.800
584075.951,4294841.326,-452.800
584075.951,4294740.963,-452.100
584075.951,4294640.600,-451.600
584075.951,4294540.236,-451.200
584075.951,4294439.873,-451.100
584075.951,4294339.510,-451.600
584075.951,4294239.146,-452.100
584075.951,4294138.783,-452.600
584075.951,4294038.420,-453.900
584075.951,4293938.056,-455.300
584075.951,4293837.693,-456.000
584075.951,4293737.330,-457.000
584075.951,4293636.966,-459.100
584075.951,4293536.603,-461.900
584075.951,4293436.240,-464.200
584075.951,4293335.877,-464.800
584075.951,4293235.513,-465.000
584075.951,4293135.150,-465.300
584075.951,4293034.787,-465.100
584075.951,4292934.423,-464.400
584075.951,4292834.060,-463.100
584075.951,4292733.697,-461.400
584075.951,4292633.333,-463.000
584075.951,4292532.970,-474.800
584075.951,4292432.607,-497.200
584075.951,4292332.243,-521.700
584075.951,4292231.880,-536.300
584075.951,4292131.517,-537.700
584075.951,4292031.154,-537.900
584075.951,4291930.790,-534.800
584075.951,4291830.427,-522.600
584075.951,4291730.064,-507.000
584075.951,4291629.700,-498.100
584075.951,4291529.337,-493.200
584075.951,4291428.974,-492.400
584075.951,4291328.610,-488.400
584075.951,4291228.247,-478.100
584075.951,4291127.884,-469.500
584075.951,4291027.520,-462.800
584075.951,4290927.157,-454.900
584075.951,4290826.794,-447.200
584075.951,4290726.431,-441.900
584075.951,4290626.067,-437.400
584075.951,4290525.704,-433.300
584075.951,4290425.341,-428.300
584075.951,4290324.977,-423.000
584075.951,4290224.614,-418.200
584075.951,4290124.251,-414.300
584075.951,4290023.887,-410.800
584075.951,4289923.524,-407.200
584075.951,4289823.161,-403.500
584075.951,4289722.798,-400.100
584075.951,4289622.434,-397.000
584075.951,4289522.071,-394.000
584075.951,4289421.708,-390.500
584075.951,4289321.344,-386.700
584075.951,4289220.981,-382.100
584075.951,4289120.618,-376.400
584075.951,4289020.254,-370.600
584075.951,4288919.891,-365.200
584075.951,4288819.528,-359.000
584075.951,4288719.164,-350.400
584075.951,4288618.801,-339.800
584075.951,4288518.438,-328.500
584075.951,4288418.075,-316.300
584075.951,4288317.711,-302.900
584075.951,4288217.348,-289.000
584075.951,4288116.985,-275.000
584075.951,4288016.621,-260.500
584075.951,4287916.258,-245.300
584075.951,4287815.895,-229.900
584075.951,4287715.531,-212.900
584075.951,4287615.168,-193.300
584075.951,4287514.805,-173.900
584075.951,4287414.441,-156.700
584075.951,4287314.078,-142.900
584176.560,4338700.091,-516.300
584176.560,4338599.727,-521.600
584176.560,4338499.364,-527.900
584176.560,4338399.001,-531.500
584176.560,4338298.638,-534.100
584176.560,4338198.274,-536.100
584176.560,4338097.911,-535.900
584176.560,4337997.548,-533.300
584176.560,4337897.184,-529.000
584176.560,4337796.821,-521.700
584176.560,4337696.458,-515.200
584176.560,4337596.094,-515.100
584176.560,4337495.731,-519.100
584176.560,4337395.368,-523.400
584176.560,4337295.004,-527.300
584176.560,4337194.641,-530.800
584176.560,4337094.278,-534.500
584176.560,4336993.915,-538.700
584176.560,4336893.551,-542.400
584176.560,4336793.188,-544.800
584176.560,4336692.825,-547.500
584176.560,4336592.461,-550.700
584176.560,4336492.098,-553.400
584176.560,4336391.735,-555.800
584176.560,4336291.371,-556.700
584176.560,4336191.008,-554.800
584176.560,4336090.645,-550.700
584176.560,4335990.281,-542.700
584176.560,4335889.918,-530.600
584176.560,4335789.555,-521.100
584176.560,4335689.192,-516.200
584176.560,4335588.828,-512.600
584176.560,4335488.465,-508.200
584176.560,4335388.102,-502.800
584176.560,4335287.738,-497.700
584176.560,4335187.375,-495.300
584176.560,4335087.012,-497.800
584176.560,4334986.648,-502.900
584176.560,4334886.285,-508.600
584176.560,4334785.922,-514.000
584176.560,4334685.559,-514.300
584176.560,4334585.195,-511.500
584176.560,4334484.832,-509.600
584176.560,4334384.469,-508.000
584176.560,4334284.105,-506.700
584176.560,4334183.742,-506.200
584176.560,4334083.379,-506.600
584176.560,4333983.015,-508.200
584176.560,4333882.652,-510.900
584176.560,4333782.289,-513.500
584176.560,4333681.925,-515.100
584176.560,4333581.562,-516.700
584176.560,4333481.199,-518.200
584176.560,4333380.836,-518.400
584176.560,4333280.472,-517.400
584176.560,4333180.109,-518.800
584176.560,4333079.746,-523.200
584176.560,4332979.382,-527.600
584176.560,4332879.019,-530.300
584176.560,4332778.656,-530.700
584176.560,4332678.292,-528.600
584176.560,4332577.929,-525.900
584176.560,4332477.566,-524.800
584176.560,4332377.202,-527.100
584176.560,4332276.839,-537.200
584176.560,4332176.476,-548.800
584176.560,4332076.113,-552.900
584176.560,4331975.749,-549.400
584176.560,4331875.386,-544.600
584176.560,4331775.023,-542.400
584176.560,4331674.659,-542.500
584176.560,4331574.296,-543.300
584176.560,4331473.933,-545.000
584176.560,4331373.569,-547.500
584176.560,4331273.206,-549.900
584176.560,4331172.843,-552.600
584176.560,4331072.480,-556.000
584176.560,4330972.116,-559.200
584176.560,4330871.753,-562.700
584176.560,4330771.390,-566.200
584176.560,4330671.026,-569.700
584176.560,4330570.663,-572.900
584176.560,4330470.300,-574.600
584176.560,4330369.936,-575.400
584176.560,4330269.573,-576.500
584176.560,4330169.210,-578.000
584176.560,4330068.846,-579.600
584176.560,4329968.483,-581.100
584176.560,4329868.120,-582.700
584176.560,4329767.757,-584.300
584176.560,4329667.393,-585.800
584176.560,4329567.030,-587.100
584176.560,4329466.667,-587.700
584176.560,4329366.303,-588.300
584176.560,4329265.940,-589.800
584176.560,4329165.577,-591.400
584176.560,4329065.213,-592.700
584176.560,4328964.850,-593.200
584176.560,4328864.487,-593.200
584176.560,4328764.123,-592.200
584176.560,4328663.760,-591.300
584176.560,4328563.397,-590.600
584176.560,4328463.034,-590.000
584176.560,4328362.670,-589.700
584176.560,4328262.307,-589.400
584176.560,4328161.944,-588.900
584176.560,4328061.580,-588.500
584176.560,4327961.217,-587.900
584176.560,4327860.854,-586.900
584176.560,4327760.490,-585.700
584176.560,4327660.127,-584.000
584176.560,4327559.764,-583.500
584176.560,4327459.400,-583.300
584176.560,4327359.037,-582.500
584176.560,4327258.674,-581.900
584176.560,4327158.311,-580.200
584176.560,4327057.947,-578.300
584176.560,4326957.584,-576.400
584176.560,4326857.221,-574.900
584176.560,4326756.857,-573.600
584176.560,4326656.494,-572.900
584176.560,4326556.131,-571.900
584176.560,4326455.767,-569.700
584176.560,4326355.404,-567.500
584176.560,4326255.041,-564.900
584176.560,4326154.678,-562.000
584176.560,4326054.314,-560.300
584176.560,4325953.951,-561.100
584176.560,4325853.588,-566.200
584176.560,4325753.224,-573.200
584176.560,4325652.861,-576.600
584176.560,4325552.498,-576.200
584176.560,4325452.134,-573.500
584176.560,4325351.771,-570.200
584176.560,4325251.408,-568.000
584176.560,4325151.044,-566.500
584176.560,4325050.681,-565.300
584176.560,4324950.318,-564.300
584176.560,4324849.955,-564.600
584176.560,4324749.591,-565.300
584176.560,4324649.228,-564.300
584176.560,4324548.865,-563.200
584176.560,4324448.501,-563.400
584176.560,4324348.138,-564.300
584176.560,4324247.775,-566.100
584176.560,4324147.411,-567.200
584176.560,4324047.048,-566.900
584176.560,4323946.685,-566.300
584176.560,4323846.321,-565.500
584176.560,4323745.958,-565.400
584176.560,4323645.595,-565.700
584176.560,4323545.232,-565.300
584176.560,4323444.868,-564.600
584176.560,4323344.505,-564.400
584176.560,4323244.142,-563.600
584176.560,4323143.778,-563.500
584176.560,4323043.415,-563.000
584176.560,4322943.052,-561.700
584176.560,4322842.688,-561.600
584176.560,4322742.325,-561.800
584176.560,4322641.962,-562.400
584176.560,4322541.599,-561.600
584176.560,4322441.235,-560.100
584176.560,4322340.872,-559.100
584176.560,4322240.509,-558.700
584176.560,4322140.145,-558.300
584176.560,4322039.782,-557.900
584176.560,4321939.419,-557.500
584176.560,4321839.055,-557.300
584176.560,4321738.692,-555.900
584176.560,4321638.329,-554.100
584176.560,4321537.965,-552.000
584176.560,4321437.602,-551.200
584176.560,4321337.239,-550.600
584176.560,4321236.876,-549.200
584176.560,4321136.512,-546.900
584176.560,4321036.149,-545.200
584176.560,4320935.786,-543.300
584176.560,4320835.422,-542.100
584176.560,4320735.059,-540.600
584176.560,4320634.696,-539.000
584176.560,4320534.332,-537.100
584176.560,4320433.969,-534.000
584176.560,4320333.606,-531.900
584176.560,4320233.242,-531.900
584176.560,4320132.879,-531.000
584176.560,4320032.516,-528.300
584176.560,4319932.153,-526.500
584176.560,4319831.789,-526.800
584176.560,4319731.426,-526.400
584176.560,4319631.063,-525.500
584176.560,4319530.699,-524.000
584176.560,4319430.336,-522.100
584176.560,4319329.973,-520.500
584176.560,4319229.609,-518.700
584176.560,4319129.246,-519.300
584176.560,4319028.883,-520.100
584176.560,4318928.520,-520.300
584176.560,4318828.156,-520.800
584176.560,4318727.793,-521.000
584176.560,4318627.430,-520.300
584176.560,4318527.066,-519.300
584176.560,4318426.703,-517.300
584176.560,4318326.340,-515.300
584176.560,4318225.976,-513.600
584176.560,4318125.613,-512.900
584176.560,4318025.250,-512.500
584176.560,4317924.886,-511.800
584176.560,4317824.523,-510.000
584176.560,4317724.160,-506.700
584176.560,4317623.797,-502.000
584176.560,4317523.433,-498.200
584176.560,4317423.070,-494.400
584176.560,4317322.707,-489.800
584176.560,4317222.343,-484.000
584176.560,4317121.980,-478.400
584176.560,4317021.617,-473.800
584176.560,4316921.253,-469.900
584176.560,4316820.890,-466.900
584176.560,4316720.527,-463.500
584176.560,4316620.163,-459.900
584176.560,4316519.800,-456.600
584176.560,4316419.437,-453.600
584176.560,4316319.074,-450.600
584176.560,4316218.710,-448.500
584176.560,4316118.347,-447.000
584176.560,4316017.984,-445.100
584176.560,4315917.620,-443.100
584176.560,4315817.257,-440.500
584176.560,4315716.894,-438.100
584176.560,4315616.530,-436.400
584176.560,4315516.167,-435.400
584176.560,4315415.804,-435.400
584176.560,4315315.440,-435.800
584176.560,4315215.077,-437.400
584176.560,4315114.714,-438.200
584176.560,4315014.351,-437.200
584176.560,4314913.987,-433.900
584176.560,4314813.624,-430.400
584176.560,4314713.261,-427.900
584176.560,4314612.897,-426.100
584176.560,4314512.534,-424.000
584176.560,4314412.171,-422.700
584176.560,4314311.807,-420.100
584176.560,4314211.444,-417.200
584176.560,4314111.081,-414.500
584176.560,4314010.718,-411.700
584176.560,4313910.354,-408.600
584176.560,4313809.991,-404.900
584176.560,4313709.628,-400.900
584176.560,4313609.264,-397.700
584176.560,4313508.901,-393.400
584176.560,4313408.538,-388.700
584176.560,4313308.174,-390.000
584176.560,4313207.811,-396.800
584176.560,4313107.448,-402.300
584176.560,4313007.084,-409.200
584176.560,4312906.721,-416.100
584176.560,4312806.358,-420.600
584176.560,4312705.995,-421.400
584176.560,4312605.631,-419.500
584176.560,4312505.268,-417.200
584176.560,4312404.905,-416.200
584176.560,4312304.541,-415.700
584176.560,4312204.178,-414.800
584176.560,4312103.815,-415.400
584176.560,4312003.451,-415.300
584176.560,4311903.088,-411.800
584176.560,4311802.725,-406.900
584176.560,4311702.361,-404.700
584176.560,4311601.998,-404.100
584176.560,4311501.635,-404.600
584176.560,4311401.272,-406.000
584176.560,4311300.908,-407.500
584176.560,4311200.545,-410.000
584176.560,4311100.182,-412.000
584176.560,4310999.818,-413.800
584176.560,4310899.455,-415.300
584176.560,4310799.092,-417.300
584176.560,4310698.728,-418.400
584176.560,4310598.365,-418.800
584176.560,4310498.002,-419.200
584176.560,4310397.639,-419.900
584176.560,4310297.275,-421.100
584176.560,4310196.912,-422.400
584176.560,4310096.549,-424.200
584176.560,4309996.185,-426.100
584176.560,4309895.822,-427.700
584176.560,4309795.459,-429.500
584176.560,4309695.095,-431.000
584176.560,4309594.732,-432.900
584176.560,4309494.369,-434.600
584176.560,4309394.005,-436.100
584176.560,4309293.642,-437.800
584176.560,4309193.279,-439.500
584176.560,4309092.916,-440.600
584176.560,4308992.552,-441.900
584176.560,4308892.189,-443.400
584176.560,4308791.826,-444.700
584176.560,4308691.462,-446.000
584176.560,4308591.099,-447.000
584176.560,4308490.736,-447.900
584176.560,4308390.372,-448.900
584176.560,4308290.009,-450.000
584176.560,4308189.646,-450.800
584176.560,4308089.282,-451.900
584176.560,4307988.919,-453.200
584176.560,4307888.556,-453.900
584176.560,4307788.193,-454.800
584176.560,4307687.829,-455.400
584176.560,4307587.466,-456.000
584176.560,4307487.103,-456.500
584176.560,4307386.739,-457.300
584176.560,4307286.376,-457.900
584176.560,4307186.013,-458.600
584176.560,4307085.649,-459.100
584176.560,4306985.286,-459.600
584176.560,4306884.923,-460.200
584176.560,4306784.560,-460.600
584176.560,4306684.196,-460.900
584176.560,4306583.833,-460.900
584176.560,4306483.470,-460.700
584176.560,4306383.106,-460.300
584176.560,4306282.743,-460.500
584176.560,4306182.380,-460.700
584176.560,4306082.016,-461.000
584176.560,4305981.653,-461.300
584176.560,4305881.290,-461.200
