572614.069,4315633.394,-692.600
572614.069,4315431.942,-690.400
572614.069,4315230.490,-686.600
572614.069,4315029.038,-685.100
572614.069,4314827.586,-683.900
572614.069,4314626.134,-681.900
572614.069,4314424.682,-680.500
572614.069,4314223.230,-679.400
572614.069,4314021.779,-678.100
572614.069,4313820.327,-677.000
572614.069,4313618.875,-675.000
572614.069,4313417.423,-672.400
572614.069,4313215.971,-670.800
572614.069,4313014.519,-669.700
572614.069,4312813.067,-668.200
572614.069,4312611.615,-667.800
572614.069,4312410.163,-668.200
572614.069,4312208.711,-669.500
572614.069,4312007.260,-671.200
572614.069,4311805.808,-671.700
572614.069,4311604.356,-672.300
572614.069,4311402.904,-674.900
572614.069,4311201.452,-675.900
572614.069,4311000.000,-676.400
572614.069,4310798.548,-677.200
572614.069,4310597.096,-677.400
572614.069,4310395.644,-677.400
572614.069,4310194.192,-677.800
572614.069,4309992.740,-678.100
572614.069,4309791.289,-678.000
572614.069,4309589.837,-678.500
572614.069,4309388.385,-679.400
572614.069,4309186.933,-681.700
572614.069,4308985.481,-682.900
572614.069,4308784.029,-683.800
572614.069,4308582.577,-684.500
572614.069,4308381.125,-684.800
572614.069,4308179.673,-685.300
572614.069,4307978.221,-684.400
572614.069,4307776.770,-683.300
572614.069,4307575.318,-679.900
572614.069,4307373.866,-676.300
572614.069,4307172.414,-673.500
572614.069,4306970.962,-673.100
572614.069,4306769.510,-672.000
572614.069,4306568.058,-670.500
572614.069,4306366.606,-671.800
572614.069,4306165.154,-671.700
572614.069,4305963.702,-671.100
572614.069,4305762.251,-670.300
572614.069,4305560.799,-669.700
572614.069,4305359.347,-668.800
572614.069,4305157.895,-668.600
572614.069,4304956.443,-668.500
572614.069,4304754.991,-669.400
572614.069,4304553.539,-672.100
572614.069,4304352.087,-675.100
572614.069,4304150.635,-676.700
572614.069,4303949.183,-678.100
572614.069,4303747.732,-680.000
572614.069,4303546.280,-681.400
572614.069,4303344.828,-682.900
572614.069,4303143.376,-684.400
572614.069,4302941.924,-684.600
572614.069,4302740.472,-685.200
572614.069,4302539.020,-685.700
572614.069,4302337.568,-686.000
572614.069,4302136.116,-686.600
572614.069,4301934.664,-686.800
572614.069,4301733.213,-686.200
572614.069,4301531.761,-686.000
572614.069,4301330.309,-686.600
572614.069,4301128.857,-687.600
572614.069,4300927.405,-688.800
572614.069,4300725.953,-689.200
572614.069,4300524.501,-687.600
572614.069,4300323.049,-685.600
572614.069,4300121.597,-681.900
572614.069,4299920.145,-678.500
572614.069,4299718.694,-675.300
572614.069,4299517.242,-672.400
572614.069,4299315.790,-669.700
572614.069,4299114.338,-667.500
572614.069,4298912.886,-665.200
572614.069,4298711.434,-662.900
572614.069,4298509.982,-662.300
572614.069,4298308.530,-661.400
572614.069,4298107.078,-660.400
572614.069,4297905.626,-658.500
572614.069,4297704.175,-656.500
572614.069,4297502.723,-654.800
572614.069,4297301.271,-653.200
572614.069,4297099.819,-651.100
572614.069,4296898.367,-647.700
572614.069,4296696.915,-643.400
572614.069,4296495.463,-639.900
572614.069,4296294.011,-635.800
572614.069,4296092.559,-630.900
572614.069,4295891.107,-626.900
572614.069,4295689.656,-623.900
572614.069,4295488.204,-621.400
572614.069,4295286.752,-619.200
572614.069,4295085.300,-616.900
572614.069,4294883.848,-613.200
572614.069,4294682.396,-608.800
572614.069,4294480.944,-604.900
572614.069,4294279.492,-604.800
572614.069,4294078.040,-618.800
572614.069,4293876.588,-650.400
572614.069,4293675.137,-682.500
572614.069,4293473.685,-703.400
572614.069,4293272.233,-712.000
572614.069,4293070.781,-713.700
572614.069,4292869.329,-724.700
572614.069,4292667.877,-749.600
572614.069,4292466.425,-771.500
572614.069,4292264.973,-776.300
572614.069,4292063.521,-777.600
572614.069,4291862.069,-775.400
572614.069,4291660.618,-773.200
572614.069,4291459.166,-770.100
572614.069,4291257.714,-756.700
572614.069,4291056.262,-731.100
572614.069,4290854.810,-703.300
572614.069,4290653.358,-669.700
572614.069,4290451.906,-623.500
572614.069,4290250.454,-590.600
572614.069,4290049.002,-586.400
572614.069,4289847.550,-584.500
572614.069,4289646.099,-582.500
572614.069,4289444.647,-581.100
572614.069,4289243.195,-579.900
572614.069,4289041.743,-577.700
572614.069,4288840.291,-575.100
572614.069,4288638.839,-572.400
572614.069,4288437.387,-568.900
572614.069,4288235.935,-564.600
572614.069,4288034.483,-559.400
572614.069,4287833.031,-554.300
572614.069,4287631.580,-551.600
572614.069,4287430.128,-551.800
572614.069,4287228.676,-553.300
572614.069,4287027.224,-553.400
572614.069,4286825.772,-551.100
572614.069,4286624.320,-546.400
572614.069,4286422.868,-536.400
572614.069,4286221.416,-515.300
572816.515,4338800.362,-710.000
572816.515,4338598.910,-709.900
572816.515,4338397.459,-709.600
572816.515,4338196.007,-709.200
572816.515,4337994.555,-709.000
572816.515,4337793.103,-708.800
572816.515,4337591.651,-708.500
572816.515,4337390.199,-708.200
572816.515,4337188.747,-707.700
572816.515,4336987.295,-707.300
572816.515,4336785.843,-706.800
572816.515,4336584.391,-706.200
572816.515,4336382.940,-705.600
572816.515,4336181.488,-705.300
572816.515,4335980.036,-705.200
572816.515,4335778.584,-705.400
572816.515,4335577.132,-705.600
572816.515,4335375.680,-705.300
572816.515,4335174.228,-705.000
572816.515,4334972.776,-705.000
572816.515,4334771.324,-704.900
572816.515,4334569.872,-704.700
572816.515,4334368.420,-704.500
572816.515,4334166.969,-704.300
572816.515,4333965.517,-704.100
572816.515,4333764.065,-703.900
572816.515,4333562.613,-703.900
572816.515,4333361.161,-703.800
572816.515,4333159.709,-703.700
572816.515,4332958.257,-703.700
572816.515,4332756.805,-703.700
572816.515,4332555.353,-703.500
572816.515,4332353.901,-703.200
572816.515,4332152.450,-703.100
572816.515,4331950.998,-703.000
572816.515,4331749.546,-702.600
572816.515,4331548.094,-701.900
572816.515,4331346.642,-700.900
572816.515,4331145.190,-699.700
572816.515,4330943.738,-699.200
572816.515,4330742.286,-699.000
572816.515,4330540.834,-698.600
572816.515,4330339.382,-697.900
572816.515,4330137.931,-697.000
572816.515,4329936.479,-696.100
572816.515,4329735.027,-695.700
572816.515,4329533.575,-695.300
572816.515,4329332.123,-694.600
572816.515,4329130.671,-693.900
572816.515,4328929.219,-693.200
572816.515,4328727.767,-692.600
572816.515,4328526.315,-691.500
572816.515,4328324.863,-690.400
572816.515,4328123.412,-689.900
572816.515,4327921.960,-689.300
572816.515,4327720.508,-688.100
572816.515,4327519.056,-687.100
572816.515,4327317.604,-686.000
572816.515,4327116.152,-684.300
572816.515,4326914.700,-683.000
572816.515,4326713.248,-682.500
572816.515,4326511.796,-681.800
572816.515,4326310.344,-680.600
572816.515,4326108.893,-679.400
572816.515,4325907.441,-678.100
572816.515,4325705.989,-677.000
572816.515,4325504.537,-675.800
572816.515,4325303.085,-674.200
572816.515,4325101.633,-672.900
572816.515,4324900.181,-671.900
572816.515,4324698.729,-671.200
572816.515,4324497.277,-670.700
572816.515,4324295.825,-670.600
572816.515,4324094.374,-670.400
572816.515,4323892.922,-670.200
572816.515,4323691.470,-670.100
572816.515,4323490.018,-670.700
572816.515,4323288.566,-671.600
572816.515,4323087.114,-672.100
572816.515,4322885.662,-672.100
572816.515,4322684.210,-672.100
572816.515,4322482.758,-672.800
572816.515,4322281.306,-674.400
572816.515,4322079.855,-675.300
572816.515,4321878.403,-676.100
572816.515,4321676.951,-677.600
572816.515,4321475.499,-678.400
572816.515,4321274.047,-677.900
572816.515,4321072.595,-677.200
572816.515,4320871.143,-676.800
572816.515,4320669.691,-677.800
572816.515,4320468.239,-679.900
572816.515,4320266.787,-680.800
572816.515,4320065.336,-680.500
572816.515,4319863.884,-681.300
572816.515,4319662.432,-682.100
572816.515,4319460.980,-682.300
572816.515,4319259.528,-683.300
572816.515,4319058.076,-684.300
572816.515,4318856.624,-685.300
572816.515,4318655.172,-686.300
572816.515,4318453.720,-686.700
572816.515,4318252.268,-687.900
572816.515,4318050.817,-688.700
572816.515,4317849.365,-689.600
572816.515,4317647.913,-690.400
572816.515,4317446.461,-691.200
572816.515,4317245.009,-692.000
572816.515,4317043.557,-693.400
572816.515,4316842.105,-694.200
572816.515,4316640.653,-694.200
572816.515,4316439.201,-694.400
572816.515,4316237.749,-694.700
572816.515,4316036.298,-694.600
572816.515,4315834.846,-694.200
572816.515,4315633.394,-693.600
572816.515,4315431.942,-692.300
572816.515,4315230.490,-689.600
572816.515,4315029.038,-688.200
572816.515,4314827.586,-686.600
572816.515,4314626.134,-683.400
572816.515,4314424.682,-680.900
572816.515,4314223.230,-679.300
572816.515,4314021.779,-677.400
572816.515,4313820.327,-675.500
572816.515,4313618.875,-673.100
572816.515,4313417.423,-670.700
572816.515,4313215.971,-668.800
572816.515,4313014.519,-667.400
572816.515,4312813.067,-664.700
572816.515,4312611.615,-664.700
572816.515,4312410.163,-665.500
572816.515,4312208.711,-667.000
572816.515,4312007.260,-668.300
572816.515,4311805.808,-669.500
572816.515,4311604.356,-670.500
572816.515,4311402.904,-672.400
572816.515,4311201.452,-673.600
572816.515,4311000.000,-673.700
572816.515,4310798.548,-674.500
572816.515,4310597.096,-675.300
572816.515,4310395.644,-675.900
572816.515,4310194.192,-676.300
572816.515,4309992.740,-676.300
572816.515,4309791.289,-676.200
572816.515,4309589.837,-676.500
572816.515,4309388.385,-677.600
572816.515,4309186.933,-680.400
572816.515,4308985.481,-682.000
572816.515,4308784.029,-683.600
572816.515,4308582.577,-684.600
572816.515,4308381.125,-684.100
572816.515,4308179.673,-683.600
572816.515,4307978.221,-682.800
572816.515,4307776.770,-682.000
572816.515,4307575.318,-679.000
572816.515,4307373.866,-676.900
572816.515,4307172.414,-674.100
572816.515,4306970.962,-672.400
572816.515,4306769.510,-671.400
572816.515,4306568.058,-670.600
572816.515,4306366.606,-671.100
572816.515,4306165.154,-671.000
572816.515,4305963.702,-669.600
572816.515,4305762.251,-669.300
572816.515,4305560.799,-669.000
572816.515,4305359.347,-668.700
572816.515,4305157.895,-668.700
572816.515,4304956.443,-668.000
572816.515,4304754.991,-668.600
572816.515,4304553.539,-669.600
572816.515,4304352.087,-671.400
572816.515,4304150.635,-673.200
572816.515,4303949.183,-674.600
572816.515,4303747.732,-676.200
572816.515,4303546.280,-677.400
572816.515,4303344.828,-678.700
572816.515,4303143.376,-679.600
572816.515,4302941.924,-678.400
572816.515,4302740.472,-680.000
572816.515,4302539.020,-681.300
572816.515,4302337.568,-682.400
572816.515,4302136.116,-683.200
572816.515,4301934.664,-683.500
572816.515,4301733.213,-683.300
572816.515,4301531.761,-683.700
572816.515,4301330.309,-684.600
572816.515,4301128.857,-685.900
572816.515,4300927.405,-686.400
572816.515,4300725.953,-685.600
572816.515,4300524.501,-683.700
572816.515,4300323.049,-681.000
572816.515,4300121.597,-677.200
572816.515,4299920.145,-673.800
572816.515,4299718.694,-670.600
572816.515,4299517.242,-667.600
572816.515,4299315.790,-665.200
572816.515,4299114.338,-663.100
572816.515,4298912.886,-661.000
572816.515,4298711.434,-658.500
572816.515,4298509.982,-656.700
572816.515,4298308.530,-655.300
572816.515,4298107.078,-655.300
572816.515,4297905.626,-654.600
572816.515,4297704.175,-653.000
572816.515,4297502.723,-651.900
572816.515,4297301.271,-650.700
572816.515,4297099.819,-648.700
572816.515,4296898.367,-645.400
572816.515,4296696.915,-641.600
572816.515,4296495.463,-638.400
572816.515,4296294.011,-634.400
572816.515,4296092.559,-629.400
572816.515,4295891.107,-626.100
572816.515,4295689.656,-623.400
572816.515,4295488.204,-620.600
572816.515,4295286.752,-618.000
572816.515,4295085.300,-614.600
572816.515,4294883.848,-610.500
572816.515,4294682.396,-606.200
572816.515,4294480.944,-602.500
572816.515,4294279.492,-600.000
572816.515,4294078.040,-600.500
572816.515,4293876.588,-607.600
572816.515,4293675.137,-623.700
572816.515,4293473.685,-649.900
572816.515,4293272.233,-670.500
572816.515,4293070.781,-672.100
572816.515,4292869.329,-677.700
572816.515,4292667.877,-696.100
572816.515,4292466.425,-723.300
572816.515,4292264.973,-740.000
572816.515,4292063.521,-745.700
572816.515,4291862.069,-743.300
572816.515,4291660.618,-747.400
572816.515,4291459.166,-761.000
572816.515,4291257.714,-761.300
572816.515,4291056.262,-741.100
572816.515,4290854.810,-721.000
572816.515,4290653.358,-698.200
572816.515,4290451.906,-660.600
572816.515,4290250.454,-624.800
572816.515,4290049.002,-606.600
572816.515,4289847.550,-590.300
572816.515,4289646.099,-580.700
572816.515,4289444.647,-578.400
572816.515,4289243.195,-577.500
572816.515,4289041.743,-576.100
572816.515,4288840.291,-573.500
572816.515,4288638.839,-569.700
572816.515,4288437.387,-565.400
572816.515,4288235.935,-561.100
572816.515,4288034.483,-556.200
572816.515,4287833.031,-550.700
572816.515,4287631.580,-547.000
572816.515,4287430.128,-547.000
572816.515,4287228.676,-548.700
572816.515,4287027.224,-548.900
572816.515,4286825.772,-545.900
572816.515,4286624.320,-541.200
572816.515,4286422.868,-530.900
572816.515,4286221.416,-506.400
573018.962,4338800.362,-709.900
573018.962,4338598.910,-709.900
573018.962,4338397.459,-709.400
573018.962,4338196.007,-708.800
573018.962,4337994.555,-708.600
573018.962,4337793.103,-708.300
573018.962,4337591.651,-707.800
573018.962,4337390.199,-707.300
573018.962,4337188.747,-706.800
573018.962,4336987.295,-706.400
573018.962,4336785.843,-705.700
573018.962,4336584.391,-705.000
573018.962,4336382.940,-704.500
573018.962,4336181.488,-704.300
573018.962,4335980.036,-704.300
573018.962,4335778.584,-704.400
573018.962,4335577.132,-704.500
573018.962,4335375.680,-704.300
573018.962,4335174.228,-703.900
573018.962,4334972.776,-703.900
573018.962,4334771.324,-703.900
573018.962,4334569.872,-703.700
573018.962,4334368.420,-703.400
573018.962,4334166.969,-703.200
573018.962,4333965.517,-703.000
573018.962,4333764.065,-702.800
573018.962,4333562.613,-702.600
573018.962,4333361.161,-702.500
573018.962,4333159.709,-702.400
573018.962,4332958.257,-702.400
573018.962,4332756.805,-702.400
573018.962,4332555.353,-702.100
573018.962,4332353.901,-701.900
573018.962,4332152.450,-701.600
573018.962,4331950.998,-701.400
573018.962,4331749.546,-701.200
573018.962,4331548.094,-700.600
573018.962,4331346.642,-699.600
573018.962,4331145.190,-698.500
573018.962,4330943.738,-697.900
573018.962,4330742.286,-697.300
573018.962,4330540.834,-696.800
573018.962,4330339.382,-696.300
573018.962,4330137.931,-695.700
573018.962,4329936.479,-694.800
573018.962,4329735.027,-694.200
573018.962,4329533.575,-693.700
573018.962,4329332.123,-693.000
573018.962,4329130.671,-692.400
573018.962,4328929.219,-691.900
573018.962,4328727.767,-691.400
573018.962,4328526.315,-690.500
573018.962,4328324.863,-689.500
573018.962,4328123.412,-688.900
573018.962,4327921.960,-688.300
573018.962,4327720.508,-687.200
573018.962,4327519.056,-686.200
573018.962,4327317.604,-685.000
573018.962,4327116.152,-683.400
573018.962,4326914.700,-682.300
573018.962,4326713.248,-681.700
573018.962,4326511.796,-680.600
573018.962,4326310.344,-679.300
573018.962,4326108.893,-678.200
573018.962,4325907.441,-677.100
573018.962,4325705.989,-676.000
573018.962,4325504.537,-674.700
573018.962,4325303.085,-673.200
573018.962,4325101.633,-672.100
573018.962,4324900.181,-671.300
573018.962,4324698.729,-671.100
573018.962,4324497.277,-670.700
573018.962,4324295.825,-670.400
573018.962,4324094.374,-670.300
573018.962,4323892.922,-670.100
573018.962,4323691.470,-670.300
573018.962,4323490.018,-670.900
573018.962,4323288.566,-671.500
573018.962,4323087.114,-671.800
573018.962,4322885.662,-671.600
573018.962,4322684.210,-671.300
573018.962,4322482.758,-672.100
573018.962,4322281.306,-674.300
573018.962,4322079.855,-675.200
573018.962,4321878.403,-675.700
573018.962,4321676.951,-676.700
573018.962,4321475.499,-677.200
573018.962,4321274.047,-676.300
573018.962,4321072.595,-675.400
573018.962,4320871.143,-675.200
573018.962,4320669.691,-676.400
573018.962,4320468.239,-678.000
573018.962,4320266.787,-678.300
573018.962,4320065.336,-678.000
573018.962,4319863.884,-678.700
573018.962,4319662.432,-679.600
573018.962,4319460.980,-679.700
573018.962,4319259.528,-681.200
573018.962,4319058.076,-682.100
573018.962,4318856.624,-682.500
573018.962,4318655.172,-683.000
573018.962,4318453.720,-683.000
573018.962,4318252.268,-684.900
573018.962,4318050.817,-686.400
573018.962,4317849.365,-686.900
573018.962,4317647.913,-687.900
573018.962,4317446.461,-688.600
573018.962,4317245.009,-689.100
573018.962,4317043.557,-690.200
573018.962,4316842.105,-690.900
573018.962,4316640.653,-691.000
573018.962,4316439.201,-691.300
573018.962,4316237.749,-691.600
573018.962,4316036.298,-691.800
573018.962,4315834.846,-691.600
573018.962,4315633.394,-691.500
573018.962,4315431.942,-690.900
573018.962,4315230.490,-689.400
573018.962,4315029.038,-688.300
573018.962,4314827.586,-686.900
573018.962,4314626.134,-684.200
573018.962,4314424.682,-682.200
573018.962,4314223.230,-680.900
573018.962,4314021.779,-678.900
573018.962,4313820.327,-676.800
573018.962,4313618.875,-673.800
573018.962,4313417.423,-671.300
573018.962,4313215.971,-668.900
573018.962,4313014.519,-666.700
573018.962,4312813.067,-664.700
573018.962,4312611.615,-664.900
573018.962,4312410.163,-665.500
573018.962,4312208.711,-666.900
573018.962,4312007.260,-667.600
573018.962,4311805.808,-669.100
573018.962,4311604.356,-670.200
573018.962,4311402.904,-671.000
573018.962,4311201.452,-672.000
573018.962,4311000.000,-672.000
573018.962,4310798.548,-672.700
573018.962,4310597.096,-673.400
573018.962,4310395.644,-674.300
573018.962,4310194.192,-674.700
573018.962,4309992.740,-674.700
573018.962,4309791.289,-674.700
573018.962,4309589.837,-674.800
573018.962,4309388.385,-675.600
573018.962,4309186.933,-677.600
573018.962,4308985.481,-679.200
573018.962,4308784.029,-680.400
573018.962,4308582.577,-680.800
573018.962,4308381.125,-679.700
573018.962,4308179.673,-678.900
573018.962,4307978.221,-678.700
573018.962,4307776.770,-678.700
573018.962,4307575.318,-677.400
573018.962,4307373.866,-676.500
573018.962,4307172.414,-674.800
573018.962,4306970.962,-672.600
573018.962,4306769.510,-671.100
573018.962,4306568.058,-669.700
573018.962,4306366.606,-667.500
573018.962,4306165.154,-666.400
573018.962,4305963.702,-665.000
573018.962,4305762.251,-665.000
573018.962,4305560.799,-665.500
573018.962,4305359.347,-665.600
573018.962,4305157.895,-666.300
573018.962,4304956.443,-665.400
573018.962,4304754.991,-665.400
573018.962,4304553.539,-665.300
573018.962,4304352.087,-666.700
573018.962,4304150.635,-668.600
573018.962,4303949.183,-670.500
573018.962,4303747.732,-672.000
573018.962,4303546.280,-672.500
573018.962,4303344.828,-673.400
573018.962,4303143.376,-674.300
573018.962,4302941.924,-673.200
573018.962,4302740.472,-674.100
573018.962,4302539.020,-675.800
573018.962,4302337.568,-677.400
573018.962,4302136.116,-678.400
573018.962,4301934.664,-679.600
573018.962,4301733.213,-680.600
573018.962,4301531.761,-682.000
573018.962,4301330.309,-683.300
573018.962,4301128.857,-684.200
573018.962,4300927.405,-683.500
573018.962,4300725.953,-681.700
573018.962,4300524.501,-679.700
573018.962,4300323.049,-676.600
573018.962,4300121.597,-672.800
573018.962,4299920.145,-669.100
573018.962,4299718.694,-666.100
573018.962,4299517.242,-663.200
573018.962,4299315.790,-661.000
573018.962,4299114.338,-659.100
573018.962,4298912.886,-657.300
573018.962,4298711.434,-654.600
573018.962,4298509.982,-652.500
573018.962,4298308.530,-650.700
573018.962,4298107.078,-649.700
573018.962,4297905.626,-648.900
573018.962,4297704.175,-647.900
573018.962,4297502.723,-647.600
573018.962,4297301.271,-647.300
573018.962,4297099.819,-645.500
573018.962,4296898.367,-642.800
573018.962,4296696.915,-639.900
573018.962,4296495.463,-637.200
573018.962,4296294.011,-633.900
573018.962,4296092.559,-629.600
573018.962,4295891.107,-625.800
573018.962,4295689.656,-621.700
573018.962,4295488.204,-617.700
573018.962,4295286.752,-614.300
573018.962,4295085.300,-610.800
573018.962,4294883.848,-607.100
573018.962,4294682.396,-602.900
573018.962,4294480.944,-599.200
573018.962,4294279.492,-596.300
573018.962,4294078.040,-594.000
573018.962,4293876.588,-591.800
573018.962,4293675.137,-594.500
573018.962,4293473.685,-611.500
573018.962,4293272.233,-634.300
573018.962,4293070.781,-643.900
573018.962,4292869.329,-648.600
573018.962,4292667.877,-658.200
573018.962,4292466.425,-674.600
573018.962,4292264.973,-688.000
573018.962,4292063.521,-689.800
573018.962,4291862.069,-686.500
573018.962,4291660.618,-700.900
573018.962,4291459.166,-738.200
573018.962,4291257.714,-761.500
573018.962,4291056.262,-754.600
573018.962,4290854.810,-745.500
573018.962,4290653.358,-733.900
573018.962,4290451.906,-714.400
573018.962,4290250.454,-691.000
573018.962,4290049.002,-664.000
573018.962,4289847.550,-626.000
573018.962,4289646.099,-591.300
573018.962,4289444.647,-576.600
573018.962,4289243.195,-575.000
573018.962,4289041.743,-573.300
573018.962,4288840.291,-569.900
573018.962,4288638.839,-565.400
573018.962,4288437.387,-560.800
573018.962,4288235.935,-556.600
573018.962,4288034.483,-551.900
573018.962,4287833.031,-546.800
573018.962,4287631.580,-543.200
573018.962,4287430.128,-542.400
573018.962,4287228.676,-543.500
573018.962,4287027.224,-543.000
573018.962,4286825.772,-538.600
573018.962,4286624.320,-533.500
573018.962,4286422.868,-522.500
573221.408,4338800.362,-709.700
573221.408,4338598.910,-709.200
573221.408,4338397.459,-708.600
573221.408,4338196.007,-708.100
573221.408,4337994.555,-707.900
573221.408,4337793.103,-707.600
573221.408,4337591.651,-707.000
573221.408,4337390.199,-706.400
573221.408,4337188.747,-705.900
573221.408,4336987.295,-705.400
573221.408,4336785.843,-704.600
573221.408,4336584.391,-703.800
573221.408,4336382.940,-703.400
573221.408,4336181.488,-703.200
573221.408,4335980.036,-703.200
573221.408,4335778.584,-703.200
573221.408,4335577.132,-703.300
573221.408,4335375.680,-703.100
573221.408,4335174.228,-702.600
573221.408,4334972.776,-702.500
573221.408,4334771.324,-702.600
573221.408,4334569.872,-702.500
573221.408,4334368.420,-702.400
573221.408,4334166.969,-702.200
573221.408,4333965.517,-702.000
573221.408,4333764.065,-701.700
573221.408,4333562.613,-701.400
573221.408,4333361.161,-701.200
573221.408,4333159.709,-701.100
573221.408,4332958.257,-701.000
573221.408,4332756.805,-700.900
573221.408,4332555.353,-700.700
573221.408,4332353.901,-700.500
573221.408,4332152.450,-700.100
573221.408,4331950.998,-699.900
573221.408,4331749.546,-699.700
573221.408,4331548.094,-699.200
573221.408,4331346.642,-698.500
573221.408,4331145.190,-697.400
573221.408,4330943.738,-696.700
573221.408,4330742.286,-695.800
573221.408,4330540.834,-695.200
573221.408,4330339.382,-694.900
573221.408,4330137.931,-694.400
573221.408,4329936.479,-693.500
573221.408,4329735.027,-692.800
573221.408,4329533.575,-692.400
573221.408,4329332.123,-691.700
573221.408,4329130.671,-691.100
573221.408,4328929.219,-690.500
573221.408,4328727.767,-690.000
573221.408,4328526.315,-689.200
573221.408,4328324.863,-688.400
573221.408,4328123.412,-687.700
573221.408,4327921.960,-686.900
573221.408,4327720.508,-686.000
573221.408,4327519.056,-685.000
573221.408,4327317.604,-683.800
573221.408,4327116.152,-682.400
573221.408,4326914.700,-681.600
573221.408,4326713.248,-681.000
573221.408,4326511.796,-679.600
573221.408,4326310.344,-678.300
573221.408,4326108.893,-677.200
573221.408,4325907.441,-676.100
573221.408,4325705.989,-674.800
573221.408,4325504.537,-673.500
573221.408,4325303.085,-672.300
573221.408,4325101.633,-671.500
573221.408,4324900.181,-670.900
573221.408,4324698.729,-670.800
573221.408,4324497.277,-670.500
573221.408,4324295.825,-670.200
573221.408,4324094.374,-670.100
573221.408,4323892.922,-670.200
573221.408,4323691.470,-670.500
573221.408,4323490.018,-670.900
573221.408,4323288.566,-671.100
573221.408,4323087.114,-671.200
573221.408,4322885.662,-670.400
573221.408,4322684.210,-670.200
573221.408,4322482.758,-671.200
573221.408,4322281.306,-674.000
573221.408,4322079.855,-675.200
573221.408,4321878.403,-675.400
573221.408,4321676.951,-675.800
573221.408,4321475.499,-676.000
573221.408,4321274.047,-674.800
573221.408,4321072.595,-674.200
573221.408,4320871.143,-674.400
573221.408,4320669.691,-675.500
573221.408,4320468.239,-676.400
573221.408,4320266.787,-676.200
573221.408,4320065.336,-676.000
573221.408,4319863.884,-676.900
573221.408,4319662.432,-678.100
573221.408,4319460.980,-678.100
573221.408,4319259.528,-679.600
573221.408,4319058.076,-680.200
573221.408,4318856.624,-680.400
573221.408,4318655.172,-680.100
573221.408,4318453.720,-679.800
573221.408,4318252.268,-681.900
573221.408,4318050.817,-684.600
573221.408,4317849.365,-685.400
573221.408,4317647.913,-685.700
573221.408,4317446.461,-685.900
573221.408,4317245.009,-686.200
573221.408,4317043.557,-687.400
573221.408,4316842.105,-688.600
573221.408,4316640.653,-689.100
573221.408,4316439.201,-689.500
573221.408,4316237.749,-689.800
573221.408,4316036.298,-689.800
573221.408,4315834.846,-689.600
573221.408,4315633.394,-689.400
573221.408,4315431.942,-688.600
573221.408,4315230.490,-687.500
573221.408,4315029.038,-685.700
573221.408,4314827.586,-684.000
573221.408,4314626.134,-682.000
573221.408,4314424.682,-680.300
573221.408,4314223.230,-679.200
573221.408,4314021.779,-677.700
573221.408,4313820.327,-676.100
573221.408,4313618.875,-673.200
573221.408,4313417.423,-670.400
573221.408,4313215.971,-668.200
573221.408,4313014.519,-665.600
573221.408,4312813.067,-664.400
573221.408,4312611.615,-664.800
573221.408,4312410.163,-665.700
573221.408,4312208.711,-667.200
573221.408,4312007.260,-667.500
573221.408,4311805.808,-668.400
573221.408,4311604.356,-669.200
573221.408,4311402.904,-669.900
573221.408,4311201.452,-670.700
573221.408,4311000.000,-670.800
573221.408,4310798.548,-671.400
573221.408,4310597.096,-672.100
573221.408,4310395.644,-672.900
573221.408,4310194.192,-673.500
573221.408,4309992.740,-673.900
573221.408,4309791.289,-674.400
573221.408,4309589.837,-674.300
573221.408,4309388.385,-674.400
573221.408,4309186.933,-675.000
573221.408,4308985.481,-675.200
573221.408,4308784.029,-674.700
573221.408,4308582.577,-673.800
573221.408,4308381.125,-672.700
573221.408,4308179.673,-672.100
573221.408,4307978.221,-672.100
573221.408,4307776.770,-672.300
573221.408,4307575.318,-672.600
573221.408,4307373.866,-672.800
573221.408,4307172.414,-672.600
573221.408,4306970.962,-671.400
573221.408,4306769.510,-669.900
573221.408,4306568.058,-668.000
573221.408,4306366.606,-664.600
573221.408,4306165.154,-663.200
573221.408,4305963.702,-662.000
573221.408,4305762.251,-661.500
573221.408,4305560.799,-661.600
573221.408,4305359.347,-661.800
573221.408,4305157.895,-663.100
573221.408,4304956.443,-663.300
573221.408,4304754.991,-662.500
573221.408,4304553.539,-662.600
573221.408,4304352.087,-663.300
573221.408,4304150.635,-664.000
573221.408,4303949.183,-665.800
573221.408,4303747.732,-667.400
573221.408,4303546.280,-667.700
573221.408,4303344.828,-668.600
573221.408,4303143.376,-669.000
573221.408,4302941.924,-668.800
573221.408,4302740.472,-669.100
573221.408,4302539.020,-670.700
573221.408,4302337.568,-672.600
573221.408,4302136.116,-674.300
573221.408,4301934.664,-676.100
573221.408,4301733.213,-677.700
573221.408,4301531.761,-679.700
573221.408,4301330.309,-680.800
573221.408,4301128.857,-680.900
573221.408,4300927.405,-679.500
573221.408,4300725.953,-677.600
573221.408,4300524.501,-675.000
573221.408,4300323.049,-671.800
573221.408,4300121.597,-668.200
573221.408,4299920.145,-664.800
573221.408,4299718.694,-662.300
573221.408,4299517.242,-659.900
573221.408,4299315.790,-657.800
573221.408,4299114.338,-655.700
573221.408,4298912.886,-653.400
573221.408,4298711.434,-650.400
573221.408,4298509.982,-648.300
573221.408,4298308.530,-646.500
573221.408,4298107.078,-644.800
573221.408,4297905.626,-643.600
573221.408,4297704.175,-643.000
573221.408,4297502.723,-642.900
573221.408,4297301.271,-643.000
573221.408,4297099.819,-641.100
573221.408,4296898.367,-639.900
573221.408,4296696.915,-638.100
573221.408,4296495.463,-635.200
573221.408,4296294.011,-632.100
573221.408,4296092.559,-627.600
573221.408,4295891.107,-621.500
573221.408,4295689.656,-616.100
573221.408,4295488.204,-613.100
573221.408,4295286.752,-610.500
573221.408,4295085.300,-607.200
573221.408,4294883.848,-603.300
573221.408,4294682.396,-599.500
573221.408,4294480.944,-596.500
573221.408,4294279.492,-593.800
573221.408,4294078.040,-591.400
573221.408,4293876.588,-587.500
573221.408,4293675.137,-584.500
573221.408,4293473.685,-590.200
573221.408,4293272.233,-608.300
573221.408,4293070.781,-628.800
573221.408,4292869.329,-639.500
573221.408,4292667.877,-644.500
573221.408,4292466.425,-649.700
573221.408,4292264.973,-652.300
573221.408,4292063.521,-648.900
573221.408,4291862.069,-644.800
573221.408,4291660.618,-658.100
573221.408,4291459.166,-698.400
573221.408,4291257.714,-735.800
573221.408,4291056.262,-744.900
573221.408,4290854.810,-741.700
573221.408,4290653.358,-734.400
573221.408,4290451.906,-728.300
573221.408,4290250.454,-724.200
573221.408,4290049.002,-713.300
573221.408,4289847.550,-678.900
573221.408,4289646.099,-622.900
573221.408,4289444.647,-582.000
573221.408,4289243.195,-571.500
573221.408,4289041.743,-568.100
573221.408,4288840.291,-563.700
573221.408,4288638.839,-558.800
573221.408,4288437.387,-553.800
573221.408,4288235.935,-549.600
573221.408,4288034.483,-545.700
573221.408,4287833.031,-541.800
573221.408,4287631.580,-538.600
573221.408,4287430.128,-537.000
573221.408,4287228.676,-537.400
573221.408,4287027.224,-536.400
573221.408,4286825.772,-531.700
573221.408,4286624.320,-526.200
573221.408,4286422.868,-515.800
573423.855,4338800.362,-709.300
573423.855,4338598.910,-708.600
573423.855,4338397.459,-708.000
573423.855,4338196.007,-707.600
573423.855,4337994.555,-707.300
573423.855,4337793.103,-706.800
573423.855,4337591.651,-706.400
573423.855,4337390.199,-705.800
573423.855,4337188.747,-705.100
573423.855,4336987.295,-704.400
573423.855,4336785.843,-703.500
573423.855,4336584.391,-702.900
573423.855,4336382.940,-702.700
573423.855,4336181.488,-702.500
573423.855,4335980.036,-702.000
573423.855,4335778.584,-701.900
573423.855,4335577.132,-702.300
573423.855,4335375.680,-702.400
573423.855,4335174.228,-701.900
573423.855,4334972.776,-701.400
573423.855,4334771.324,-701.500
573423.855,4334569.872,-701.800
573423.855,4334368.420,-701.900
573423.855,4334166.969,-701.700
573423.855,4333965.517,-701.500
573423.855,4333764.065,-701.100
573423.855,4333562.613,-700.700
573423.855,4333361.161,-700.400
573423.855,4333159.709,-700.300
573423.855,4332958.257,-700.000
573423.855,4332756.805,-699.700
573423.855,4332555.353,-699.500
573423.855,4332353.901,-699.200
573423.855,4332152.450,-698.800
573423.855,4331950.998,-698.700
573423.855,4331749.546,-698.500
573423.855,4331548.094,-698.200
573423.855,4331346.642,-697.700
573423.855,4331145.190,-696.800
573423.855,4330943.738,-695.900
573423.855,4330742.286,-695.100
573423.855,4330540.834,-694.700
573423.855,4330339.382,-694.300
573423.855,4330137.931,-693.600
573423.855,4329936.479,-692.800
573423.855,4329735.027,-692.100
573423.855,4329533.575,-691.500
573423.855,4329332.123,-690.900
573423.855,4329130.671,-690.300
573423.855,4328929.219,-689.500
573423.855,4328727.767,-688.600
573423.855,4328526.315,-687.800
573423.855,4328324.863,-687.400
573423.855,4328123.412,-686.600
573423.855,4327921.960,-685.600
573423.855,4327720.508,-684.800
573423.855,4327519.056,-684.000
573423.855,4327317.604,-682.800
573423.855,4327116.152,-681.600
573423.855,4326914.700,-681.000
573423.855,4326713.248,-680.200
573423.855,4326511.796,-678.700
573423.855,4326310.344,-677.300
573423.855,4326108.893,-676.300
573423.855,4325907.441,-675.200
573423.855,4325705.989,-673.900
573423.855,4325504.537,-672.800
573423.855,4325303.085,-671.800
573423.855,4325101.633,-671.200
573423.855,4324900.181,-670.800
573423.855,4324698.729,-670.700
573423.855,4324497.277,-670.400
573423.855,4324295.825,-670.200
573423.855,4324094.374,-670.100
573423.855,4323892.922,-670.200
573423.855,4323691.470,-670.400
573423.855,4323490.018,-670.600
573423.855,4323288.566,-670.500
573423.855,4323087.114,-669.900
573423.855,4322885.662,-668.900
573423.855,4322684.210,-669.100
573423.855,4322482.758,-670.600
573423.855,4322281.306,-673.300
573423.855,4322079.855,-674.500
573423.855,4321878.403,-674.400
573423.855,4321676.951,-674.300
573423.855,4321475.499,-674.500
573423.855,4321274.047,-673.500
573423.855,4321072.595,-673.400
573423.855,4320871.143,-673.800
573423.855,4320669.691,-674.500
573423.855,4320468.239,-674.900
573423.855,4320266.787,-674.500
573423.855,4320065.336,-674.200
573423.855,4319863.884,-674.900
573423.855,4319662.432,-676.700
573423.855,4319460.980,-677.300
573423.855,4319259.528,-678.000
573423.855,4319058.076,-678.400
573423.855,4318856.624,-678.500
573423.855,4318655.172,-678.000
573423.855,4318453.720,-677.600
573423.855,4318252.268,-679.200
573423.855,4318050.817,-682.700
573423.855,4317849.365,-684.100
573423.855,4317647.913,-683.900
573423.855,4317446.461,-684.000
573423.855,4317245.009,-683.900
573423.855,4317043.557,-685.100
573423.855,4316842.105,-686.000
573423.855,4316640.653,-686.600
573423.855,4316439.201,-687.000
573423.855,4316237.749,-687.300
573423.855,4316036.298,-687.000
573423.855,4315834.846,-686.900
573423.855,4315633.394,-686.900
573423.855,4315431.942,-686.000
573423.855,4315230.490,-684.900
573423.855,4315029.038,-682.800
573423.855,4314827.586,-680.500
573423.855,4314626.134,-678.600
573423.855,4314424.682,-676.700
573423.855,4314223.230,-675.300
573423.855,4314021.779,-674.000
573423.855,4313820.327,-672.600
573423.855,4313618.875,-670.700
573423.855,4313417.423,-667.000
573423.855,4313215.971,-664.800
573423.855,4313014.519,-662.900
573423.855,4312813.067,-662.300
573423.855,4312611.615,-662.600
573423.855,4312410.163,-663.800
573423.855,4312208.711,-665.500
573423.855,4312007.260,-665.500
573423.855,4311805.808,-665.600
573423.855,4311604.356,-666.600
573423.855,4311402.904,-667.400
573423.855,4311201.452,-668.100
573423.855,4311000.000,-668.400
573423.855,4310798.548,-669.100
573423.855,4310597.096,-669.800
573423.855,4310395.644,-670.400
573423.855,4310194.192,-670.700
573423.855,4309992.740,-671.500
573423.855,4309791.289,-672.000
573423.855,4309589.837,-672.100
573423.855,4309388.385,-672.200
573423.855,4309186.933,-671.900
573423.855,4308985.481,-670.800
573423.855,4308784.029,-668.600
573423.855,4308582.577,-667.100
573423.855,4308381.125,-665.900
573423.855,4308179.673,-665.400
573423.855,4307978.221,-665.200
573423.855,4307776.770,-665.000
573423.855,4307575.318,-665.700
573423.855,4307373.866,-666.600
573423.855,4307172.414,-667.000
573423.855,4306970.962,-666.700
573423.855,4306769.510,-666.300
573423.855,4306568.058,-665.500
573423.855,4306366.606,-663.400
573423.855,4306165.154,-662.400
573423.855,4305963.702,-661.500
573423.855,4305762.251,-660.200
573423.855,4305560.799,-659.400
573423.855,4305359.347,-658.800
573423.855,4305157.895,-659.800
573423.855,4304956.443,-661.100
573423.855,4304754.991,-660.500
573423.855,4304553.539,-660.400
573423.855,4304352.087,-660.200
573423.855,4304150.635,-660.000
573423.855,4303949.183,-661.500
573423.855,4303747.732,-663.300
573423.855,4303546.280,-662.700
573423.855,4303344.828,-663.400
573423.855,4303143.376,-663.600
573423.855,4302941.924,-664.000
573423.855,4302740.472,-665.400
573423.855,4302539.020,-666.900
573423.855,4302337.568,-668.600
573423.855,4302136.116,-670.600
573423.855,4301934.664,-672.800
573423.855,4301733.213,-674.500
573423.855,4301531.761,-675.900
573423.855,4301330.309,-676.500
573423.855,4301128.857,-676.000
573423.855,4300927.405,-674.400
573423.855,4300725.953,-672.800
573423.855,4300524.501,-670.300
573423.855,4300323.049,-667.600
573423.855,4300121.597,-664.000
573423.855,4299920.145,-661.100
573423.855,4299718.694,-659.300
573423.855,4299517.242,-657.000
573423.855,4299315.790,-654.400
573423.855,4299114.338,-651.500
573423.855,4298912.886,-648.100
573423.855,4298711.434,-645.200
573423.855,4298509.982,-643.100
573423.855,4298308.530,-641.500
573423.855,4298107.078,-640.000
573423.855,4297905.626,-639.000
573423.855,4297704.175,-638.800
573423.855,4297502.723,-638.800
573423.855,4297301.271,-638.500
573423.855,4297099.819,-636.200
573423.855,4296898.367,-635.700
573423.855,4296696.915,-634.500
573423.855,4296495.463,-631.600
573423.855,4296294.011,-628.600
573423.855,4296092.559,-624.300
573423.855,4295891.107,-617.600
573423.855,4295689.656,-612.300
573423.855,4295488.204,-609.700
573423.855,4295286.752,-607.000
573423.855,4295085.300,-603.200
573423.855,4294883.848,-599.900
573423.855,4294682.396,-597.400
573423.855,4294480.944,-595.000
573423.855,4294279.492,-592.100
573423.855,4294078.040,-588.600
573423.855,4293876.588,-584.200
573423.855,4293675.137,-581.000
573423.855,4293473.685,-582.500
573423.855,4293272.233,-594.100
573423.855,4293070.781,-615.100
573423.855,4292869.329,-632.700
573423.855,4292667.877,-639.000
573423.855,4292466.425,-639.300
573423.855,4292264.973,-636.400
573423.855,4292063.521,-630.700
573423.855,4291862.069,-624.500
573423.855,4291660.618,-627.500
573423.855,4291459.166,-648.500
573423.855,4291257.714,-677.700
573423.855,4291056.262,-697.100
573423.855,4290854.810,-705.200
573423.855,4290653.358,-704.100
573423.855,4290451.906,-703.200
573423.855,4290250.454,-711.900
573423.855,4290049.002,-722.600
573423.855,4289847.550,-711.700
573423.855,4289646.099,-660.700
573423.855,4289444.647,-597.800
573423.855,4289243.195,-567.100
573423.855,4289041.743,-561.200
573423.855,4288840.291,-556.600
573423.855,4288638.839,-551.400
573423.855,4288437.387,-545.600
573423.855,4288235.935,-540.800
573423.855,4288034.483,-538.000
573423.855,4287833.031,-536.100
573423.855,4287631.580,-533.500
573423.855,4287430.128,-531.400
573423.855,4287228.676,-530.900
573423.855,4287027.224,-529.900
573423.855,4286825.772,-526.500
573423.855,4286624.320,-521.400
573423.855,4286422.868,-509.800
573626.301,4338800.362,-708.700
573626.301,4338598.910,-708.000
573626.301,4338397.459,-707.200
573626.301,4338196.007,-706.800
573626.301,4337994.555,-706.500
573626.301,4337793.103,-706.100
573626.301,4337591.651,-705.600
573626.301,4337390.199,-705.300
573626.301,4337188.747,-704.600
573626.301,4336987.295,-703.600
573626.301,4336785.843,-702.900
573626.301,4336584.391,-702.500
573626.301,4336382.940,-702.400
573626.301,4336181.488,-702.000
573626.301,4335980.036,-701.100
573626.301,4335778.584,-700.900
573626.301,4335577.132,-701.500
573626.301,4335375.680,-701.900
573626.301,4335174.228,-701.500
573626.301,4334972.776,-700.800
573626.301,4334771.324,-700.700
573626.301,4334569.872,-701.200
573626.301,4334368.420,-701.500
573626.301,4334166.969,-701.400
573626.301,4333965.517,-701.100
573626.301,4333764.065,-700.700
573626.301,4333562.613,-700.400
573626.301,4333361.161,-700.200
573626.301,4333159.709,-699.900
573626.301,4332958.257,-699.500
573626.301,4332756.805,-699.000
573626.301,4332555.353,-698.700
573626.301,4332353.901,-698.300
573626.301,4332152.450,-697.900
573626.301,4331950.998,-697.800
573626.301,4331749.546,-697.600
573626.301,4331548.094,-697.400
573626.301,4331346.642,-696.800
573626.301,4331145.190,-696.200
573626.301,4330943.738,-695.400
573626.301,4330742.286,-694.600
573626.301,4330540.834,-694.200
573626.301,4330339.382,-693.700
573626.301,4330137.931,-692.800
573626.301,4329936.479,-692.100
573626.301,4329735.027,-691.600
573626.301,4329533.575,-690.700
573626.301,4329332.123,-690.000
573626.301,4329130.671,-689.400
573626.301,4328929.219,-688.700
573626.301,4328727.767,-687.700
573626.301,4328526.315,-687.000
573626.301,4328324.863,-686.700
573626.301,4328123.412,-686.100
573626.301,4327921.960,-685.100
573626.301,4327720.508,-684.200
573626.301,4327519.056,-683.500
573626.301,4327317.604,-682.100
573626.301,4327116.152,-680.700
573626.301,4326914.700,-680.300
573626.301,4326713.248,-679.300
573626.301,4326511.796,-677.800
573626.301,4326310.344,-676.300
573626.301,4326108.893,-675.300
573626.301,4325907.441,-674.300
573626.301,4325705.989,-673.100
573626.301,4325504.537,-672.300
573626.301,4325303.085,-671.400
573626.301,4325101.633,-670.900
573626.301,4324900.181,-670.600
573626.301,4324698.729,-670.400
573626.301,4324497.277,-670.200
573626.301,4324295.825,-670.200
573626.301,4324094.374,-670.000
573626.301,4323892.922,-669.900
573626.301,4323691.470,-670.000
573626.301,4323490.018,-670.100
573626.301,4323288.566,-669.400
573626.301,4323087.114,-668.500
573626.301,4322885.662,-667.900
573626.301,4322684.210,-668.400
573626.301,4322482.758,-670.600
573626.301,4322281.306,-672.600
573626.301,4322079.855,-673.300
573626.301,4321878.403,-673.000
573626.301,4321676.951,-672.700
573626.301,4321475.499,-672.800
573626.301,4321274.047,-672.200
573626.301,4321072.595,-672.300
573626.301,4320871.143,-672.500
573626.301,4320669.691,-672.900
573626.301,4320468.239,-673.000
573626.301,4320266.787,-672.800
573626.301,4320065.336,-672.400
573626.301,4319863.884,-673.000
573626.301,4319662.432,-675.200
573626.301,4319460.980,-676.300
573626.301,4319259.528,-676.300
573626.301,4319058.076,-676.400
573626.301,4318856.624,-676.600
573626.301,4318655.172,-676.600
573626.301,4318453.720,-676.700
573626.301,4318252.268,-677.900
573626.301,4318050.817,-681.100
573626.301,4317849.365,-682.400
573626.301,4317647.913,-682.200
573626.301,4317446.461,-682.600
573626.301,4317245.009,-682.400
573626.301,4317043.557,-683.300
573626.301,4316842.105,-683.700
573626.301,4316640.653,-683.600
573626.301,4316439.201,-683.300
573626.301,4316237.749,-683.500
573626.301,4316036.298,-682.700
573626.301,4315834.846,-682.600
573626.301,4315633.394,-682.900
573626.301,4315431.942,-682.300
573626.301,4315230.490,-681.200
573626.301,4315029.038,-679.100
573626.301,4314827.586,-676.800
573626.301,4314626.134,-675.300
573626.301,4314424.682,-673.500
573626.301,4314223.230,-671.200
573626.301,4314021.779,-670.200
573626.301,4313820.327,-668.100
573626.301,4313618.875,-666.100
573626.301,4313417.423,-662.000
573626.301,4313215.971,-660.000
573626.301,4313014.519,-659.100
573626.301,4312813.067,-658.800
573626.301,4312611.615,-659.100
573626.301,4312410.163,-660.300
573626.301,4312208.711,-661.200
573626.301,4312007.260,-661.000
573626.301,4311805.808,-661.000
573626.301,4311604.356,-662.200
573626.301,4311402.904,-663.200
573626.301,4311201.452,-663.700
573626.301,4311000.000,-664.800
573626.301,4310798.548,-665.300
573626.301,4310597.096,-665.800
573626.301,4310395.644,-665.800
573626.301,4310194.192,-665.900
573626.301,4309992.740,-666.700
573626.301,4309791.289,-667.300
573626.301,4309589.837,-667.400
573626.301,4309388.385,-667.900
573626.301,4309186.933,-667.500
573626.301,4308985.481,-666.200
573626.301,4308784.029,-663.900
573626.301,4308582.577,-662.300
573626.301,4308381.125,-660.700
573626.301,4308179.673,-659.900
573626.301,4307978.221,-658.800
573626.301,4307776.770,-658.200
573626.301,4307575.318,-658.700
573626.301,4307373.866,-659.800
573626.301,4307172.414,-660.100
573626.301,4306970.962,-661.000
573626.301,4306769.510,-662.000
573626.301,4306568.058,-662.000
573626.301,4306366.606,-661.200
573626.301,4306165.154,-660.400
573626.301,4305963.702,-659.600
573626.301,4305762.251,-658.700
573626.301,4305560.799,-658.300
573626.301,4305359.347,-656.800
573626.301,4305157.895,-657.000
573626.301,4304956.443,-658.400
573626.301,4304754.991,-657.800
573626.301,4304553.539,-656.400
573626.301,4304352.087,-655.900
573626.301,4304150.635,-655.900
573626.301,4303949.183,-656.800
573626.301,4303747.732,-658.100
573626.301,4303546.280,-657.600
573626.301,4303344.828,-658.400
573626.301,4303143.376,-659.400
573626.301,4302941.924,-660.700
573626.301,4302740.472,-662.300
573626.301,4302539.020,-663.700
573626.301,4302337.568,-665.700
573626.301,4302136.116,-667.300
573626.301,4301934.664,-669.800
573626.301,4301733.213,-671.400
573626.301,4301531.761,-671.900
573626.301,4301330.309,-671.700
573626.301,4301128.857,-670.800
573626.301,4300927.405,-669.300
573626.301,4300725.953,-667.700
573626.301,4300524.501,-665.700
573626.301,4300323.049,-663.500
573626.301,4300121.597,-660.600
573626.301,4299920.145,-658.300
573626.301,4299718.694,-656.300
573626.301,4299517.242,-653.100
573626.301,4299315.790,-649.800
573626.301,4299114.338,-646.100
573626.301,4298912.886,-642.800
573626.301,4298711.434,-640.300
573626.301,4298509.982,-637.900
573626.301,4298308.530,-636.000
573626.301,4298107.078,-634.700
573626.301,4297905.626,-633.900
573626.301,4297704.175,-633.900
573626.301,4297502.723,-634.700
573626.301,4297301.271,-634.700
573626.301,4297099.819,-632.300
573626.301,4296898.367,-630.800
573626.301,4296696.915,-629.100
573626.301,4296495.463,-626.800
573626.301,4296294.011,-624.800
573626.301,4296092.559,-621.900
573626.301,4295891.107,-616.300
573626.301,4295689.656,-610.500
573626.301,4295488.204,-606.600
573626.301,4295286.752,-603.400
573626.301,4295085.300,-600.900
573626.301,4294883.848,-599.100
573626.301,4294682.396,-596.500
573626.301,4294480.944,-593.200
573626.301,4294279.492,-589.400
573626.301,4294078.040,-586.000
573626.301,4293876.588,-583.700
573626.301,4293675.137,-583.000
573626.301,4293473.685,-584.600
573626.301,4293272.233,-590.500
573626.301,4293070.781,-602.300
573626.301,4292869.329,-618.100
573626.301,4292667.877,-629.200
573626.301,4292466.425,-630.100
573626.301,4292264.973,-626.200
573626.301,4292063.521,-620.500
573626.301,4291862.069,-614.500
573626.301,4291660.618,-612.100
573626.301,4291459.166,-617.200
573626.301,4291257.714,-630.300
573626.301,4291056.262,-648.300
573626.301,4290854.810,-664.000
573626.301,4290653.358,-668.400
573626.301,4290451.906,-671.100
573626.301,4290250.454,-688.200
573626.301,4290049.002,-712.300
573626.301,4289847.550,-720.300
573626.301,4289646.099,-688.400
573626.301,4289444.647,-623.500
573626.301,4289243.195,-571.000
573626.301,4289041.743,-555.200
573626.301,4288840.291,-549.900
573626.301,4288638.839,-544.600
573626.301,4288437.387,-538.900
573626.301,4288235.935,-534.100
573626.301,4288034.483,-531.300
573626.301,4287833.031,-530.400
573626.301,4287631.580,-529.100
573626.301,4287430.128,-527.300
573626.301,4287228.676,-525.700
573626.301,4287027.224,-523.800
573626.301,4286825.772,-521.400
573626.301,4286624.320,-515.000
573828.748,4338800.362,-707.600
573828.748,4338598.910,-706.600
