558404.969,4568212.827,-131.688
558404.969,4568112.822,-131.120
558404.969,4568012.818,-131.354
558404.969,4567912.813,-131.174
558404.969,4567312.786,-143.041
558404.969,4567212.782,-143.316
558404.969,4567112.777,-143.591
558404.969,4567012.773,-143.867
558404.969,4566912.768,-144.142
558404.969,4566812.764,-144.417
558404.969,4566712.759,-144.692
558404.969,4566612.755,-144.968
558404.969,4566512.750,-145.243
558404.969,4566412.746,-145.518
558404.969,4566312.741,-145.794
558404.969,4566212.737,-146.069
558404.969,4566112.732,-146.344
558404.969,4566012.727,-146.620
558404.969,4565912.723,-146.895
558404.969,4565812.718,-147.170
558404.969,4565712.714,-147.446
558404.969,4565612.709,-147.721
558404.969,4565512.705,-147.996
558404.969,4564312.651,-151.300
558404.969,4564212.646,-157.140
558404.969,4564112.641,-156.086
558404.969,4564012.637,-149.612
558404.969,4563912.632,-143.078
558504.979,4588213.732,-541.900
558504.979,4588113.727,-543.181
558504.979,4588013.723,-543.944
558504.979,4587913.718,-543.767
558504.979,4587813.714,-544.124
558504.979,4587713.709,-546.362
558504.979,4587613.705,-550.086
558504.979,4587513.700,-552.989
558504.979,4587413.696,-553.410
558504.979,4587313.691,-552.039
558504.979,4587213.687,-550.131
558504.979,4587113.682,-546.539
558504.979,4587013.678,-539.811
558504.979,4586913.673,-534.787
558504.979,4586813.669,-535.584
558504.979,4586713.664,-540.402
558504.979,4586613.659,-547.148
558504.979,4586513.655,-553.337
558504.979,4586413.650,-556.635
558504.979,4586313.646,-557.370
558504.979,4586213.641,-557.094
558504.979,4586113.637,-556.693
558504.979,4586013.632,-555.974
558504.979,4585913.628,-554.344
558504.979,4585813.623,-549.405
558504.979,4585713.619,-539.440
558504.979,4585613.614,-527.733
558504.979,4585513.610,-519.191
558504.979,4585413.605,-515.507
558504.979,4585313.601,-514.972
558504.979,4585213.596,-514.818
558504.979,4585113.592,-513.888
558504.979,4585013.587,-513.233
558504.979,4584913.583,-514.323
558504.979,4584813.578,-517.273
558504.979,4584713.574,-520.962
558504.979,4584613.569,-525.385
558504.979,4584513.564,-530.597
558504.979,4584413.560,-532.363
558504.979,4584313.555,-526.753
558504.979,4584213.551,-517.055
558504.979,4584113.546,-508.908
558504.979,4584013.542,-504.606
558504.979,4583913.537,-503.460
558504.979,4583813.533,-503.793
558504.979,4583713.528,-503.826
558504.979,4583613.524,-501.515
558504.979,4583513.519,-495.364
558504.979,4583413.515,-486.256
558504.979,4583313.510,-476.388
558504.979,4583213.506,-467.165
558504.979,4583113.501,-459.647
558504.979,4583013.497,-454.776
558504.979,4582913.492,-452.319
558504.979,4582813.488,-451.164
558504.979,4582713.483,-450.431
558504.979,4582613.479,-449.894
558504.979,4582513.474,-449.509
558504.979,4582413.469,-449.043
558504.979,4582313.465,-448.689
558504.979,4582213.460,-448.546
558504.979,4582113.456,-447.415
558504.979,4582013.451,-444.205
558504.979,4581913.447,-439.575
558504.979,4581813.442,-434.846
558504.979,4581713.438,-430.698
558504.979,4581613.433,-427.148
558504.979,4581513.429,-424.120
558504.979,4581413.424,-421.602
558504.979,4581313.420,-419.617
558504.979,4581213.415,-418.083
558504.979,4581113.411,-416.661
558504.979,4581013.406,-414.927
558504.979,4580913.402,-412.942
558504.979,4580813.397,-410.808
558504.979,4580713.393,-408.436
558504.979,4580613.388,-405.925
558504.979,4580513.383,-403.281
558504.979,4580413.379,-400.678
558504.979,4580313.374,-398.278
558504.979,4580213.370,-395.892
558504.979,4580113.365,-393.419
558504.979,4580013.361,-391.168
558504.979,4579913.356,-389.129
558504.979,4579813.352,-387.115
558504.979,4579713.347,-385.316
558504.979,4579613.343,-383.766
558504.979,4579513.338,-382.230
558504.979,4579413.334,-381.008
558504.979,4579313.329,-380.504
558504.979,4579213.325,-381.328
558504.979,4579113.320,-385.076
558504.979,4579013.316,-392.708
558504.979,4578913.311,-401.297
558504.979,4578813.307,-407.808
558504.979,4578713.302,-411.710
558504.979,4578613.298,-414.022
558504.979,4578513.293,-416.378
558504.979,4578413.288,-418.165
558504.979,4578313.284,-419.035
558504.979,4578213.279,-418.107
558504.979,4578113.275,-413.481
558504.979,4578013.270,-410.687
558504.979,4577913.266,-417.084
558504.979,4577813.261,-430.527
558504.979,4577713.257,-443.601
558504.979,4577613.252,-455.706
558504.979,4577513.248,-473.135
558504.979,4577413.243,-492.661
558504.979,4577313.239,-502.733
558504.979,4577213.234,-504.806
558504.979,4577113.230,-505.855
558504.979,4577013.225,-505.402
558504.979,4576913.221,-501.041
558504.979,4576813.216,-483.614
558504.979,4576713.212,-452.933
558504.979,4576613.207,-424.084
558504.979,4576513.203,-400.969
558504.979,4576413.198,-380.468
558504.979,4576313.193,-360.970
558504.979,4576213.189,-342.032
558504.979,4576113.184,-325.417
558504.979,4576013.180,-311.869
558504.979,4575913.175,-300.465
558504.979,4575813.171,-291.522
558504.979,4575713.166,-284.350
558504.979,4575613.162,-278.535
558504.979,4575513.157,-273.596
558504.979,4575413.153,-270.208
558504.979,4575313.148,-267.004
558504.979,4575213.144,-262.181
558504.979,4575113.139,-255.973
558504.979,4575013.135,-248.414
558504.979,4574913.130,-240.994
558504.979,4574813.126,-233.141
558504.979,4574713.121,-224.704
558504.979,4574613.117,-216.297
558504.979,4574513.112,-208.079
558504.979,4574413.108,-200.221
558504.979,4574313.103,-192.958
558504.979,4574213.098,-186.276
558504.979,4574113.094,-180.298
558504.979,4574013.089,-175.429
558504.979,4573913.085,-171.783
558504.979,4573813.080,-169.614
558504.979,4573713.076,-169.180
558504.979,4573613.071,-170.870
558504.979,4573513.067,-175.529
558504.979,4573413.062,-183.368
558504.979,4573313.058,-192.995
558504.979,4573213.053,-201.681
558504.979,4573113.049,-207.873
558504.979,4573013.044,-211.358
558504.979,4572913.040,-213.745
558504.979,4572813.035,-215.457
558504.979,4572713.031,-210.460
558504.979,4572613.026,-196.121
558504.979,4572513.022,-199.981
558504.979,4572413.017,-223.701
558504.979,4572313.012,-245.324
558504.979,4572213.008,-261.509
558504.979,4572113.003,-273.302
558504.979,4572012.999,-285.168
558504.979,4571912.994,-298.765
558504.979,4571812.990,-309.479
558504.979,4571712.985,-320.257
558504.979,4571612.981,-336.762
558504.979,4571512.976,-354.272
558504.979,4571412.972,-375.675
558504.979,4571312.967,-412.205
558504.979,4571212.963,-443.157
558504.979,4571112.958,-453.921
558504.979,4571012.954,-455.181
558504.979,4570912.949,-454.703
558504.979,4570812.945,-453.355
558504.979,4570712.940,-452.271
558504.979,4570612.936,-452.161
558504.979,4570512.931,-450.444
558504.979,4570412.927,-446.476
558504.979,4570312.922,-443.091
558504.979,4570212.917,-439.484
558504.979,4570112.913,-432.496
558504.979,4570012.908,-428.583
558504.979,4569912.904,-420.206
558504.979,4569812.899,-399.252
558504.979,4569712.895,-380.873
558504.979,4569612.890,-359.160
558504.979,4569512.886,-330.664
558504.979,4569412.881,-307.171
558504.979,4569312.877,-286.897
558504.979,4569212.872,-268.773
558504.979,4569112.868,-249.219
558504.979,4569012.863,-226.350
558504.979,4568912.859,-202.780
558504.979,4568812.854,-181.876
558504.979,4568712.850,-163.011
558504.979,4568612.845,-144.417
558504.979,4568512.841,-135.747
558504.979,4568412.836,-133.555
558504.979,4568312.832,-133.015
558504.979,4568212.827,-131.659
558504.979,4568112.822,-131.140
558504.979,4568012.818,-131.462
558504.979,4567912.813,-131.561
558504.979,4567412.791,-139.839
558504.979,4567312.786,-140.211
558504.979,4567212.782,-140.583
558504.979,4567112.777,-140.955
558504.979,4567012.773,-141.327
558504.979,4566912.768,-141.699
558504.979,4566812.764,-142.071
558504.979,4566712.759,-142.443
558504.979,4566612.755,-142.816
558504.979,4566512.750,-143.188
558504.979,4566412.746,-143.560
558504.979,4566312.741,-143.932
558504.979,4566212.737,-144.304
558504.979,4566112.732,-144.676
558504.979,4566012.727,-145.048
558504.979,4565912.723,-145.420
558504.979,4565812.718,-145.792
558504.979,4565712.714,-146.164
558504.979,4565612.709,-146.536
558504.979,4565512.705,-146.908
558504.979,4564412.655,-151.000
558504.979,4564312.651,-157.771
558504.979,4564212.646,-162.986
558504.979,4564112.641,-161.245
558504.979,4564012.637,-154.534
558504.979,4563912.632,-146.931
558604.990,4588213.732,-542.200
558604.990,4588113.727,-542.285
558604.990,4588013.723,-543.257
558604.990,4587913.718,-544.865
558604.990,4587813.714,-547.155
558604.990,4587713.709,-550.240
558604.990,4587613.705,-553.353
558604.990,4587513.700,-555.166
558604.990,4587413.696,-554.979
558604.990,4587313.691,-553.602
558604.990,4587213.687,-551.305
558604.990,4587113.682,-546.687
558604.990,4587013.678,-541.070
558604.990,4586913.673,-540.517
558604.990,4586813.669,-545.833
558604.990,4586713.664,-551.749
558604.990,4586613.659,-556.073
558604.990,4586513.655,-558.614
558604.990,4586413.650,-559.177
558604.990,4586313.646,-558.566
558604.990,4586213.641,-557.617
558604.990,4586113.637,-556.729
558604.990,4586013.632,-555.808
558604.990,4585913.628,-554.639
558604.990,4585813.623,-551.924
558604.990,4585713.619,-546.240
558604.990,4585613.614,-538.303
558604.990,4585513.610,-530.620
558604.990,4585413.605,-525.577
558604.990,4585313.601,-523.550
558604.990,4585213.596,-522.616
558604.990,4585113.592,-521.097
558604.990,4585013.587,-519.948
558604.990,4584913.583,-520.769
558604.990,4584813.578,-523.136
558604.990,4584713.574,-525.186
558604.990,4584613.569,-527.503
558604.990,4584513.564,-531.343
558604.990,4584413.560,-532.944
558604.990,4584313.555,-527.625
558604.990,4584213.551,-517.612
558604.990,4584113.546,-509.432
558604.990,4584013.542,-506.053
558604.990,4583913.537,-505.753
558604.990,4583813.533,-505.789
558604.990,4583713.528,-503.589
558604.990,4583613.524,-497.068
558604.990,4583513.519,-486.661
558604.990,4583413.515,-475.848
558604.990,4583313.510,-467.701
558604.990,4583213.506,-462.553
558604.990,4583113.501,-459.419
558604.990,4583013.497,-457.577
558604.990,4582913.492,-456.563
558604.990,4582813.488,-455.853
558604.990,4582713.483,-455.122
558604.990,4582613.479,-454.500
558604.990,4582513.474,-454.042
558604.990,4582413.469,-453.575
558604.990,4582313.465,-453.060
558604.990,4582213.460,-452.236
558604.990,4582113.456,-450.149
558604.990,4582013.451,-446.134
558604.990,4581913.447,-441.083
558604.990,4581813.442,-436.320
558604.990,4581713.438,-432.288
558604.990,4581613.433,-428.963
558604.990,4581513.429,-426.218
558604.990,4581413.424,-423.765
558604.990,4581313.420,-421.690
558604.990,4581213.415,-420.167
558604.990,4581113.411,-418.849
558604.990,4581013.406,-417.392
558604.990,4580913.402,-415.697
558604.990,4580813.397,-413.759
558604.990,4580713.393,-411.520
558604.990,4580613.388,-408.980
558604.990,4580513.383,-406.247
558604.990,4580413.379,-403.534
558604.990,4580313.374,-400.887
558604.990,4580213.370,-398.223
558604.990,4580113.365,-395.728
558604.990,4580013.361,-393.480
558604.990,4579913.356,-391.325
558604.990,4579813.352,-389.219
558604.990,4579713.347,-387.359
558604.990,4579613.343,-385.862
558604.990,4579513.338,-384.651
558604.990,4579413.334,-383.848
558604.990,4579313.329,-383.636
558604.990,4579213.325,-384.541
558604.990,4579113.320,-388.475
558604.990,4579013.316,-397.266
558604.990,4578913.311,-408.068
558604.990,4578813.307,-416.245
558604.990,4578713.302,-420.126
558604.990,4578613.298,-421.637
558604.990,4578513.293,-423.650
558604.990,4578413.288,-426.373
558604.990,4578313.284,-428.851
558604.990,4578213.279,-428.985
558604.990,4578113.275,-425.421
558604.990,4578013.270,-422.723
558604.990,4577913.266,-427.392
558604.990,4577813.261,-438.754
558604.990,4577713.257,-450.253
558604.990,4577613.252,-464.493
558604.990,4577513.248,-483.342
558604.990,4577413.243,-500.181
558604.990,4577313.239,-508.094
558604.990,4577213.234,-509.559
558604.990,4577113.230,-509.735
558604.990,4577013.225,-506.518
558604.990,4576913.221,-498.361
558604.990,4576813.216,-472.689
558604.990,4576713.212,-440.653
558604.990,4576613.207,-415.781
558604.990,4576513.203,-399.048
558604.990,4576413.198,-384.257
558604.990,4576313.193,-367.507
558604.990,4576213.189,-349.270
558604.990,4576113.184,-332.912
558604.990,4576013.180,-319.074
558604.990,4575913.175,-306.890
558604.990,4575813.171,-296.911
558604.990,4575713.166,-289.162
558604.990,4575613.162,-283.214
558604.990,4575513.157,-278.622
558604.990,4575413.153,-275.056
558604.990,4575313.148,-272.028
558604.990,4575213.144,-268.377
558604.990,4575113.139,-263.636
558604.990,4575013.135,-257.738
558604.990,4574913.130,-251.586
558604.990,4574813.126,-244.789
558604.990,4574713.121,-236.967
558604.990,4574613.117,-229.239
558604.990,4574513.112,-221.366
558604.990,4574413.108,-213.159
558604.990,4574313.103,-205.486
558604.990,4574213.098,-198.526
558604.990,4574113.094,-191.834
558604.990,4574013.089,-185.916
558604.990,4573913.085,-181.336
558604.990,4573813.080,-178.357
558604.990,4573713.076,-177.956
558604.990,4573613.071,-181.867
558604.990,4573513.067,-192.234
558604.990,4573413.062,-205.041
558604.990,4573313.058,-216.426
558604.990,4573213.053,-225.166
558604.990,4573113.049,-230.703
558604.990,4573013.044,-233.136
558604.990,4572913.040,-234.967
558604.990,4572813.035,-236.173
558604.990,4572713.031,-229.453
558604.990,4572613.026,-211.672
558604.990,4572513.022,-207.645
558604.990,4572413.017,-225.800
558604.990,4572313.012,-245.470
558604.990,4572213.008,-258.926
558604.990,4572113.003,-267.540
558604.990,4572012.999,-273.979
558604.990,4571912.994,-283.517
558604.990,4571812.990,-295.306
558604.990,4571712.985,-311.590
558604.990,4571612.981,-335.511
558604.990,4571512.976,-356.496
558604.990,4571412.972,-376.303
558604.990,4571312.967,-409.861
558604.990,4571212.963,-442.454
558604.990,4571112.958,-456.609
558604.990,4571012.954,-458.265
558604.990,4570912.949,-458.401
558604.990,4570812.945,-458.975
558604.990,4570712.940,-459.157
558604.990,4570612.936,-457.502
558604.990,4570512.931,-452.266
558604.990,4570412.927,-447.044
558604.990,4570312.922,-443.877
558604.990,4570212.917,-437.880
558604.990,4570112.913,-429.124
558604.990,4570012.908,-425.759
558604.990,4569912.904,-419.282
558604.990,4569812.899,-400.345
558604.990,4569712.895,-381.226
558604.990,4569612.890,-357.061
558604.990,4569512.886,-324.616
558604.990,4569412.881,-300.243
558604.990,4569312.877,-280.056
558604.990,4569212.872,-263.238
558604.990,4569112.868,-244.379
558604.990,4569012.863,-221.311
558604.990,4568912.859,-197.162
558604.990,4568812.854,-175.791
558604.990,4568712.850,-157.750
558604.990,4568612.845,-142.729
558604.990,4568512.841,-135.403
558604.990,4568412.836,-133.100
558604.990,4568312.832,-133.082
558604.990,4568212.827,-131.629
558604.990,4568112.822,-131.160
558604.990,4568012.818,-131.569
558604.990,4567912.813,-131.947
558604.990,4567512.795,-138.455
558604.990,4567412.791,-139.050
558604.990,4567312.786,-139.645
558604.990,4567212.782,-140.240
558604.990,4567112.777,-140.835
558604.990,4567012.773,-141.430
558604.990,4566912.768,-142.025
558604.990,4566812.764,-142.621
558604.990,4566712.759,-143.216
558604.990,4566612.755,-143.811
558604.990,4566512.750,-144.406
558604.990,4566412.746,-145.001
558604.990,4566312.741,-145.596
558604.990,4566212.737,-146.191
558604.990,4566112.732,-146.786
558604.990,4566012.727,-147.381
558604.990,4565912.723,-147.976
558604.990,4565812.718,-148.571
558604.990,4565712.714,-149.166
558604.990,4565612.709,-149.761
558604.990,4565512.705,-150.356
558604.990,4565412.700,-150.951
558604.990,4564512.660,-156.306
558604.990,4564412.655,-160.816
558604.990,4564312.651,-165.829
558604.990,4564212.646,-168.578
558604.990,4564112.641,-165.824
558604.990,4564012.637,-158.163
558604.990,4563912.632,-149.743
558705.000,4588213.732,-542.966
558705.000,4588113.727,-542.671
558705.000,4588013.723,-543.665
558705.000,4587913.718,-546.356
558705.000,4587813.714,-549.883
558705.000,4587713.709,-553.406
558705.000,4587613.705,-556.308
558705.000,4587513.700,-557.667
558705.000,4587413.696,-557.220
558705.000,4587313.691,-555.649
558705.000,4587213.687,-552.508
558705.000,4587113.682,-547.010
558705.000,4587013.678,-543.606
558705.000,4586913.673,-547.057
558705.000,4586813.669,-553.970
558705.000,4586713.664,-558.593
558705.000,4586613.659,-560.166
558705.000,4586513.655,-560.317
558705.000,4586413.650,-559.840
558705.000,4586313.646,-559.012
558705.000,4586213.641,-557.908
558705.000,4586113.637,-556.656
558705.000,4586013.632,-555.322
558705.000,4585913.628,-553.822
558705.000,4585813.623,-551.878
558705.000,4585713.619,-548.953
558705.000,4585613.614,-544.553
558705.000,4585513.610,-539.048
558705.000,4585413.605,-534.022
558705.000,4585313.601,-530.754
558705.000,4585213.596,-528.708
558705.000,4585113.592,-526.788
558705.000,4585013.587,-525.481
558705.000,4584913.583,-525.871
558705.000,4584813.578,-527.303
558705.000,4584713.574,-528.310
558705.000,4584613.569,-529.829
558705.000,4584513.564,-532.948
558705.000,4584413.560,-534.056
558705.000,4584313.555,-529.270
558705.000,4584213.551,-520.512
558705.000,4584113.546,-512.863
558705.000,4584013.542,-509.007
558705.000,4583913.537,-507.696
558705.000,4583813.533,-505.918
558705.000,4583713.528,-500.469
558705.000,4583613.524,-490.466
558705.000,4583513.519,-479.141
558705.000,4583413.515,-470.580
558705.000,4583313.510,-465.867
558705.000,4583213.506,-463.649
558705.000,4583113.501,-462.514
558705.000,4583013.497,-461.720
558705.000,4582913.492,-461.085
558705.000,4582813.488,-460.548
558705.000,4582713.483,-459.948
558705.000,4582613.479,-459.304
558705.000,4582513.474,-458.630
558705.000,4582413.469,-457.751
558705.000,4582313.465,-456.360
558705.000,4582213.460,-454.135
558705.000,4582113.456,-450.763
558705.000,4582013.451,-446.349
558705.000,4581913.447,-441.745
558705.000,4581813.442,-437.736
558705.000,4581713.438,-434.414
558705.000,4581613.433,-431.564
558705.000,4581513.429,-428.934
558705.000,4581413.424,-426.405
558705.000,4581313.420,-424.205
558705.000,4581213.415,-422.477
558705.000,4581113.411,-421.200
558705.000,4581013.406,-420.153
558705.000,4580913.402,-418.871
558705.000,4580813.397,-417.080
558705.000,4580713.393,-414.700
558705.000,4580613.388,-411.933
558705.000,4580513.383,-409.013
558705.000,4580413.379,-406.101
558705.000,4580313.374,-403.242
558705.000,4580213.370,-400.542
558705.000,4580113.365,-398.118
558705.000,4580013.361,-395.936
558705.000,4579913.356,-393.825
558705.000,4579813.352,-391.729
558705.000,4579713.347,-389.771
558705.000,4579613.343,-388.241
558705.000,4579513.338,-387.246
558705.000,4579413.334,-386.793
558705.000,4579313.329,-386.854
558705.000,4579213.325,-387.534
558705.000,4579113.320,-390.539
558705.000,4579013.316,-398.265
558705.000,4578913.311,-409.431
558705.000,4578813.307,-418.611
558705.000,4578713.302,-423.158
558705.000,4578613.298,-424.828
558705.000,4578513.293,-426.715
558705.000,4578413.288,-430.181
558705.000,4578313.284,-434.417
558705.000,4578213.279,-436.702
558705.000,4578113.275,-435.768
558705.000,4578013.270,-434.120
558705.000,4577913.266,-437.152
558705.000,4577813.261,-446.194
558705.000,4577713.257,-456.951
558705.000,4577613.252,-473.390
558705.000,4577513.248,-493.067
558705.000,4577413.243,-507.142
558705.000,4577313.239,-512.954
558705.000,4577213.234,-514.602
558705.000,4577113.230,-513.034
558705.000,4577013.225,-506.306
558705.000,4576913.221,-490.618
558705.000,4576813.216,-458.301
558705.000,4576713.212,-429.562
558705.000,4576613.207,-411.076
558705.000,4576513.203,-399.659
558705.000,4576413.198,-387.995
558705.000,4576313.193,-373.369
558705.000,4576213.189,-356.679
558705.000,4576113.184,-341.585
558705.000,4576013.180,-328.008
558705.000,4575913.175,-315.031
558705.000,4575813.171,-303.788
558705.000,4575713.166,-295.134
558705.000,4575613.162,-288.604
558705.000,4575513.157,-283.797
558705.000,4575413.153,-279.924
558705.000,4575313.148,-276.797
558705.000,4575213.144,-273.653
558705.000,4575113.139,-270.105
558705.000,4575013.135,-265.867
558705.000,4574913.130,-260.784
558705.000,4574813.126,-254.964
558705.000,4574713.121,-248.033
558705.000,4574613.117,-240.946
558705.000,4574513.112,-233.361
558705.000,4574413.108,-224.831
558705.000,4574313.103,-216.408
558705.000,4574213.098,-208.861
558705.000,4574113.094,-201.743
558705.000,4574013.089,-195.441
558705.000,4573913.085,-190.501
558705.000,4573813.080,-187.630
558705.000,4573713.076,-188.728
558705.000,4573613.071,-196.652
558705.000,4573513.067,-213.230
558705.000,4573413.062,-228.595
558705.000,4573313.058,-238.405
558705.000,4573213.053,-245.140
558705.000,4573113.049,-249.038
558705.000,4573013.044,-250.156
558705.000,4572913.040,-251.216
558705.000,4572813.035,-250.978
558705.000,4572713.031,-242.739
558705.000,4572613.026,-223.105
558705.000,4572513.022,-209.033
558705.000,4572413.017,-216.716
558705.000,4572313.012,-231.102
558705.000,4572213.008,-242.706
558705.000,4572113.003,-249.894
558705.000,4572012.999,-256.312
558705.000,4571912.994,-266.151
558705.000,4571812.990,-283.769
558705.000,4571712.985,-307.390
558705.000,4571612.981,-331.030
558705.000,4571512.976,-343.639
558705.000,4571412.972,-360.363
558705.000,4571312.967,-398.172
558705.000,4571212.963,-437.038
558705.000,4571112.958,-457.212
558705.000,4571012.954,-460.887
558705.000,4570912.949,-460.318
558705.000,4570812.945,-462.032
558705.000,4570712.940,-464.700
558705.000,4570612.936,-462.505
558705.000,4570512.931,-454.530
558705.000,4570412.927,-448.243
558705.000,4570312.922,-443.898
558705.000,4570212.917,-435.355
558705.000,4570112.913,-426.869
558705.000,4570012.908,-425.378
558705.000,4569912.904,-419.525
558705.000,4569812.899,-401.372
558705.000,4569712.895,-382.129
558705.000,4569612.890,-357.541
558705.000,4569512.886,-324.159
558705.000,4569412.881,-298.012
558705.000,4569312.877,-276.896
558705.000,4569212.872,-259.994
558705.000,4569112.868,-243.089
558705.000,4569012.863,-222.932
558705.000,4568912.859,-200.954
558705.000,4568812.854,-180.074
558705.000,4568712.850,-162.210
558705.000,4568612.845,-148.486
558705.000,4568512.841,-140.653
558705.000,4568412.836,-135.869
558705.000,4568312.832,-133.149
558705.000,4568212.827,-131.600
558705.000,4568112.822,-131.180
558705.000,4568012.818,-131.677
558705.000,4567912.813,-132.334
558705.000,4567612.800,-136.725
558705.000,4567512.795,-137.579
558705.000,4567412.791,-138.433
558705.000,4567312.786,-139.288
558705.000,4567212.782,-140.142
558705.000,4567112.777,-140.996
558705.000,4567012.773,-141.850
558705.000,4566912.768,-142.704
558705.000,4566812.764,-143.558
558705.000,4566712.759,-144.413
558705.000,4566612.755,-145.267
558705.000,4566512.750,-146.121
558705.000,4566412.746,-146.975
558705.000,4566312.741,-147.829
558705.000,4566212.737,-148.684
558705.000,4566112.732,-149.538
558705.000,4566012.727,-150.392
558705.000,4565912.723,-151.246
558705.000,4565812.718,-152.100
558705.000,4565712.714,-152.954
558705.000,4565612.709,-153.809
558705.000,4565512.705,-154.663
558705.000,4565412.700,-155.517
558705.000,4565312.696,-156.371
558705.000,4565212.691,-157.225
558705.000,4564612.664,-162.350
558705.000,4564512.660,-167.581
558705.000,4564412.655,-172.317
558705.000,4564312.651,-173.618
558705.000,4564212.646,-173.994
558705.000,4564112.641,-169.433
558705.000,4564012.637,-158.840
558705.000,4563912.632,-147.855
558805.010,4588213.732,-543.419
558805.010,4588113.727,-544.655
558805.010,4588013.723,-547.007
558805.010,4587913.718,-549.772
558805.010,4587813.714,-553.096
558805.010,4587713.709,-556.265
558805.010,4587613.705,-558.764
558805.010,4587513.700,-560.004
558805.010,4587413.696,-559.461
558805.010,4587313.691,-557.560
558805.010,4587213.687,-553.743
558805.010,4587113.682,-548.880
558805.010,4587013.678,-548.503
558805.010,4586913.673,-553.700
558805.010,4586813.669,-558.898
558805.010,4586713.664,-561.112
558805.010,4586613.659,-561.309
558805.010,4586513.655,-560.884
558805.010,4586413.650,-560.061
558805.010,4586313.646,-559.055
558805.010,4586213.641,-557.899
558805.010,4586113.637,-556.392
558805.010,4586013.632,-554.446
558805.010,4585913.628,-552.405
558805.010,4585813.623,-550.323
558805.010,4585713.619,-547.995
558805.010,4585613.614,-545.086
558805.010,4585513.610,-541.620
558805.010,4585413.605,-538.045
558805.010,4585313.601,-534.878
558805.010,4585213.596,-532.123
558805.010,4585113.592,-530.130
558805.010,4585013.587,-529.442
558805.010,4584913.583,-529.973
558805.010,4584813.578,-530.661
558805.010,4584713.574,-531.001
558805.010,4584613.569,-532.438
558805.010,4584513.564,-535.435
558805.010,4584413.560,-536.119
558805.010,4584313.555,-531.979
558805.010,4584213.551,-525.048
558805.010,4584113.546,-518.027
558805.010,4584013.542,-512.562
558805.010,4583913.537,-508.762
558805.010,4583813.533,-504.106
558805.010,4583713.528,-495.622
558805.010,4583613.524,-484.523
558805.010,4583513.519,-475.296
558805.010,4583413.515,-470.276
558805.010,4583313.510,-468.266
558805.010,4583213.506,-467.288
558805.010,4583113.501,-466.534
558805.010,4583013.497,-465.890
558805.010,4582913.492,-465.368
558805.010,4582813.488,-464.977
558805.010,4582713.483,-464.504
558805.010,4582613.479,-463.724
558805.010,4582513.474,-462.600
558805.010,4582413.469,-460.916
558805.010,4582313.465,-458.208
558805.010,4582213.460,-454.367
558805.010,4582113.456,-449.857
558805.010,4582013.451,-445.450
558805.010,4581913.447,-441.757
558805.010,4581813.442,-438.968
558805.010,4581713.438,-436.828
558805.010,4581613.433,-434.693
558805.010,4581513.429,-432.077
558805.010,4581413.424,-429.357
558805.010,4581313.420,-427.082
558805.010,4581213.415,-425.334
558805.010,4581113.411,-424.151
558805.010,4581013.406,-423.224
558805.010,4580913.402,-422.012
558805.010,4580813.397,-420.117
558805.010,4580713.393,-417.508
558805.010,4580613.388,-414.479
558805.010,4580513.383,-411.385
558805.010,4580413.379,-408.339
558805.010,4580313.374,-405.372
558805.010,4580213.370,-402.660
558805.010,4580113.365,-400.252
558805.010,4580013.361,-398.276
558805.010,4579913.356,-396.438
558805.010,4579813.352,-394.496
558805.010,4579713.347,-392.652
558805.010,4579613.343,-391.181
558805.010,4579513.338,-390.102
558805.010,4579413.334,-389.667
558805.010,4579313.329,-389.753
558805.010,4579213.325,-390.283
558805.010,4579113.320,-392.501
558805.010,4579013.316,-398.892
558805.010,4578913.311,-409.240
558805.010,4578813.307,-417.881
558805.010,4578713.302,-421.587
558805.010,4578613.298,-421.640
558805.010,4578513.293,-422.870
558805.010,4578413.288,-428.143
558805.010,4578313.284,-435.625
558805.010,4578213.279,-441.136
558805.010,4578113.275,-442.979
558805.010,4578013.270,-442.722
558805.010,4577913.266,-445.013
558805.010,4577813.261,-453.014
558805.010,4577713.257,-464.205
558805.010,4577613.252,-481.474
558805.010,4577513.248,-501.993
558805.010,4577413.243,-514.529
558805.010,4577313.239,-518.912
558805.010,4577213.234,-519.183
558805.010,4577113.230,-514.268
558805.010,4577013.225,-501.284
558805.010,4576913.221,-475.571
558805.010,4576813.216,-442.900
558805.010,4576713.212,-421.839
558805.010,4576613.207,-410.929
558805.010,4576513.203,-403.165
558805.010,4576413.198,-392.768
558805.010,4576313.193,-379.231
558805.010,4576213.189,-364.417
558805.010,4576113.184,-350.770
558805.010,4576013.180,-337.571
558805.010,4575913.175,-324.049
558805.010,4575813.171,-311.946
558805.010,4575713.166,-302.124
558805.010,4575613.162,-294.802
558805.010,4575513.157,-289.377
558805.010,4575413.153,-285.307
558805.010,4575313.148,-282.012
558805.010,4575213.144,-279.233
558805.010,4575113.139,-276.337
558805.010,4575013.135,-273.084
558805.010,4574913.130,-268.903
558805.010,4574813.126,-263.808
558805.010,4574713.121,-257.635
558805.010,4574613.117,-250.732
558805.010,4574513.112,-243.029
558805.010,4574413.108,-234.035
558805.010,4574313.103,-224.831
558805.010,4574213.098,-216.738
558805.010,4574113.094,-209.233
558805.010,4574013.089,-202.643
558805.010,4573913.085,-197.710
558805.010,4573813.080,-196.122
558805.010,4573713.076,-200.547
558805.010,4573613.071,-213.723
558805.010,4573513.067,-233.956
558805.010,4573413.062,-249.376
558805.010,4573313.058,-256.425
558805.010,4573213.053,-259.987
558805.010,4573113.049,-261.942
558805.010,4573013.044,-262.189
558805.010,4572913.040,-262.293
558805.010,4572813.035,-260.325
558805.010,4572713.031,-250.563
558805.010,4572613.026,-229.547
558805.010,4572513.022,-207.034
558805.010,4572413.017,-199.819
558805.010,4572313.012,-203.927
558805.010,4572213.008,-217.860
558805.010,4572113.003,-233.347
558805.010,4572012.999,-247.722
558805.010,4571912.994,-261.316
558805.010,4571812.990,-280.758
558805.010,4571712.985,-302.962
558805.010,4571612.981,-318.320
558805.010,4571512.976,-323.343
558805.010,4571412.972,-343.176
558805.010,4571312.967,-384.904
558805.010,4571212.963,-428.607
558805.010,4571112.958,-456.638
558805.010,4571012.954,-463.569
558805.010,4570912.949,-462.808
558805.010,4570812.945,-464.787
558805.010,4570712.940,-468.499
558805.010,4570612.936,-466.657
558805.010,4570512.931,-458.071
558805.010,4570412.927,-450.227
558805.010,4570312.922,-442.616
558805.010,4570212.917,-433.432
558805.010,4570112.913,-427.433
558805.010,4570012.908,-427.166
558805.010,4569912.904,-420.991
558805.010,4569812.899,-401.580
558805.010,4569712.895,-381.519
558805.010,4569612.890,-358.502
558805.010,4569512.886,-327.398
558805.010,4569412.881,-299.280
558805.010,4569312.877,-275.184
558805.010,4569212.872,-256.097
558805.010,4569112.868,-240.733
558805.010,4569012.863,-223.040
558805.010,4568912.859,-203.129
558805.010,4568812.854,-184.207
558805.010,4568712.850,-169.570
558805.010,4568612.845,-160.849
558805.010,4568512.841,-153.576
558805.010,4568412.836,-144.920
558805.010,4568312.832,-137.188
558805.010,4568212.827,-132.948
558805.010,4568112.822,-131.200
558805.010,4568012.818,-131.785
558805.010,4567912.813,-132.721
558805.010,4567812.809,-133.526
558805.010,4567712.804,-134.302
558805.010,4567612.800,-135.077
558805.010,4567512.795,-135.853
558805.010,4567412.791,-136.628
558805.010,4567312.786,-137.404
558805.010,4567212.782,-138.179
558805.010,4567112.777,-138.954
558805.010,4567012.773,-139.730
558805.010,4566912.768,-140.505
558805.010,4566812.764,-141.281
558805.010,4566712.759,-142.056
558805.010,4566612.755,-142.832
558805.010,4566512.750,-143.607
558805.010,4566412.746,-144.382
558805.010,4566312.741,-145.158
558805.010,4566212.737,-145.933
558805.010,4566112.732,-146.709
558805.010,4566012.727,-147.484
558805.010,4565912.723,-148.260
558805.010,4565812.718,-149.035
558805.010,4565712.714,-149.811
558805.010,4565612.709,-150.586
558805.010,4565512.705,-151.361
558805.010,4565412.700,-152.137
558805.010,4565312.696,-152.912
558805.010,4565212.691,-153.688
558805.010,4565112.687,-154.463
558805.010,4564812.673,-156.790
558805.010,4564712.669,-166.991
558805.010,4564612.664,-172.108
558805.010,4564512.660,-179.719
558805.010,4564412.655,-181.710
558805.010,4564312.651,-181.068
558805.010,4564212.646,-179.446
558805.010,4564112.641,-172.553
558805.010,4564012.637,-158.104
558805.010,4563912.632,-143.248
558905.020,4588213.732,-550.909
558905.020,4588113.727,-551.470
558905.020,4588013.723,-552.320
558905.020,4587913.718,-553.979
558905.020,4587813.714,-556.336
558905.020,4587713.709,-558.506
558905.020,4587613.705,-560.276
558905.020,4587513.700,-561.376
558905.020,4587413.696,-561.044
558905.020,4587313.691,-559.195
558905.020,4587213.687,-555.831
558905.020,4587113.682,-552.953
558905.020,4587013.678,-554.380
558905.020,4586913.673,-558.695
558905.020,4586813.669,-561.376
558905.020,4586713.664,-561.942
558905.020,4586613.659,-561.737
558905.020,4586513.655,-561.279
558905.020,4586413.650,-560.388
558905.020,4586313.646,-559.208
558905.020,4586213.641,-557.847
558905.020,4586113.637,-556.012
558905.020,4586013.632,-553.700
558905.020,4585913.628,-551.355
558905.020,4585813.623,-549.190
558905.020,4585713.619,-547.033
558905.020,4585613.614,-544.620
558905.020,4585513.610,-542.027
558905.020,4585413.605,-539.228
558905.020,4585313.601,-536.382
558905.020,4585213.596,-533.905
558905.020,4585113.592,-532.665
558905.020,4585013.587,-532.824
558905.020,4584913.583,-533.429
558905.020,4584813.578,-533.649
558905.020,4584713.574,-533.994
558905.020,4584613.569,-535.907
558905.020,4584513.564,-538.690
558905.020,4584413.560,-538.518
558905.020,4584313.555,-534.264
558905.020,4584213.551,-528.474
558905.020,4584113.546,-522.347
558905.020,4584013.542,-515.810
558905.020,4583913.537,-509.028
558905.020,4583813.533,-500.807
558905.020,4583713.528,-490.431
558905.020,4583613.524,-480.799
558905.020,4583513.519,-474.993
558905.020,4583413.515,-472.693
558905.020,4583313.510,-471.958
558905.020,4583213.506,-471.414
558905.020,4583113.501,-470.774
558905.020,4583013.497,-470.165
558905.020,4582913.492,-469.636
558905.020,4582813.488,-469.185
558905.020,4582713.483,-468.499
558905.020,4582613.479,-467.149
558905.020,4582513.474,-465.045
558905.020,4582413.469,-462.122
558905.020,4582313.465,-458.162
558905.020,4582213.460,-453.372
558905.020,4582113.456,-448.594
558905.020,4582013.451,-444.749
558905.020,4581913.447,-442.109
558905.020,4581813.442,-440.381
558905.020,4581713.438,-439.116
558905.020,4581613.433,-437.542
558905.020,4581513.429,-435.107
558905.020,4581413.424,-432.355
558905.020,4581313.420,-429.976
558905.020,4581213.415,-428.275
558905.020,4581113.411,-427.173
558905.020,4581013.406,-426.196
558905.020,4580913.402,-424.826
558905.020,4580813.397,-422.758
558905.020,4580713.393,-420.037
558905.020,4580613.388,-416.864
558905.020,4580513.383,-413.535
558905.020,4580413.379,-410.363
558905.020,4580313.374,-407.418
558905.020,4580213.370,-404.836
558905.020,4580113.365,-402.484
558905.020,4580013.361,-400.499
558905.020,4579913.356,-398.885
558905.020,4579813.352,-397.312
558905.020,4579713.347,-395.839
558905.020,4579613.343,-394.365
558905.020,4579513.338,-393.081
558905.020,4579413.334,-392.410
558905.020,4579313.329,-392.280
558905.020,4579213.325,-392.614
558905.020,4579113.320,-394.257
558905.020,4579013.316,-399.364
558905.020,4578913.311,-408.035
558905.020,4578813.307,-414.673
558905.020,4578713.302,-415.797
558905.020,4578613.298,-413.582
558905.020,4578513.293,-414.481
558905.020,4578413.288,-422.159
558905.020,4578313.284,-433.903
558905.020,4578213.279,-443.239
558905.020,4578113.275,-447.783
558905.020,4578013.270,-449.526
558905.020,4577913.266,-452.470
558905.020,4577813.261,-460.580
558905.020,4577713.257,-472.146
558905.020,4577613.252,-489.080
558905.020,4577513.248,-509.150
558905.020,4577413.243,-520.640
558905.020,4577313.239,-524.407
558905.020,4577213.234,-522.130
558905.020,4577113.230,-512.010
558905.020,4577013.225,-488.830
558905.020,4576913.221,-456.224
558905.020,4576813.216,-430.601
558905.020,4576713.212,-419.357
558905.020,4576613.207,-414.183
558905.020,4576513.203,-407.904
558905.020,4576413.198,-397.487
558905.020,4576313.193,-383.633
558905.020,4576213.189,-369.496
558905.020,4576113.184,-356.397
558905.020,4576013.180,-343.109
558905.020,4575913.175,-329.706
558905.020,4575813.171,-317.683
558905.020,4575713.166,-307.394
558905.020,4575613.162,-300.072
558905.020,4575513.157,-294.721
558905.020,4575413.153,-290.881
558905.020,4575313.148,-287.625
558905.020,4575213.144,-285.218
558905.020,4575113.139,-282.924
558905.020,4575013.135,-280.014
558905.020,4574913.130,-276.455
558905.020,4574813.126,-271.784
558905.020,4574713.121,-265.898
558905.020,4574613.117,-258.785
558905.020,4574513.112,-250.500
558905.020,4574413.108,-240.909
558905.020,4574313.103,-231.127
558905.020,4574213.098,-222.716
558905.020,4574113.094,-214.957
558905.020,4574013.089,-208.354
558905.020,4573913.085,-203.800
558905.020,4573813.080,-204.699
558905.020,4573713.076,-213.638
558905.020,4573613.071,-231.477
558905.020,4573513.067,-251.730
558905.020,4573413.062,-265.018
558905.020,4573313.058,-270.043
558905.020,4573213.053,-271.352
558905.020,4573113.049,-271.837
558905.020,4573013.044,-271.288
558905.020,4572913.040,-270.255
558905.020,4572813.035,-266.854
558905.020,4572713.031,-256.015
558905.020,4572613.026,-234.159
558905.020,4572513.022,-206.811
558905.020,4572413.017,-186.958
558905.020,4572313.012,-181.299
558905.020,4572213.008,-198.820
558905.020,4572113.003,-223.548
558905.020,4572012.999,-244.432
558905.020,4571912.994,-260.449
558905.020,4571812.990,-274.485
558905.020,4571712.985,-289.066
558905.020,4571612.981,-300.565
558905.020,4571512.976,-310.112
558905.020,4571412.972,-336.656
558905.020,4571312.967,-376.094
558905.020,4571212.963,-419.342
558905.020,4571112.958,-454.658
558905.020,4571012.954,-466.601
558905.020,4570912.949,-466.079
558905.020,4570812.945,-468.082
558905.020,4570712.940,-472.844
558905.020,4570612.936,-471.536
558905.020,4570512.931,-462.347
558905.020,4570412.927,-452.367
558905.020,4570312.922,-441.270
558905.020,4570212.917,-432.182
558905.020,4570112.913,-428.976
558905.020,4570012.908,-428.994
558905.020,4569912.904,-422.168
558905.020,4569812.899,-401.437
558905.020,4569712.895,-380.485
558905.020,4569612.890,-358.273
558905.020,4569512.886,-328.931
558905.020,4569412.881,-300.899
558905.020,4569312.877,-274.164
558905.020,4569212.872,-252.086
558905.020,4569112.868,-236.354
558905.020,4569012.863,-219.245
558905.020,4568912.859,-199.883
558905.020,4568812.854,-183.804
558905.020,4568712.850,-177.393
558905.020,4568612.845,-179.242
558905.020,4568512.841,-174.445
558905.020,4568412.836,-162.354
558905.020,4568312.832,-148.823
558905.020,4568212.827,-138.109
558905.020,4568112.822,-132.085
558905.020,4568012.818,-131.892
558905.020,4567912.813,-133.108
558905.020,4567812.809,-135.072
558905.020,4567712.804,-136.067
558905.020,4567612.800,-137.063
558905.020,4567512.795,-138.058
558905.020,4567412.791,-139.054
558905.020,4567312.786,-140.049
558905.020,4567212.782,-141.045
558905.020,4567112.777,-142.040
558905.020,4567012.773,-143.036
558905.020,4566912.768,-144.031
558905.020,4566812.764,-145.026
558905.020,4566712.759,-146.022
558905.020,4566612.755,-147.017
558905.020,4566512.750,-148.013
558905.020,4566412.746,-149.008
558905.020,4566312.741,-150.004
558905.020,4566212.737,-150.999
558905.020,4566112.732,-151.995
558905.020,4566012.727,-152.990
558905.020,4565912.723,-153.986
558905.020,4565812.718,-154.981
558905.020,4565712.714,-155.976
558905.020,4565612.709,-156.972
558905.020,4565512.705,-157.967
558905.020,4565412.700,-158.963
558905.020,4565312.696,-159.958
558905.020,4565212.691,-160.954
558905.020,4565112.687,-161.949
558905.020,4564912.678,-163.940
558905.020,4564812.673,-168.137
558905.020,4564712.669,-176.689
558905.020,4564612.664,-185.126
558905.020,4564512.660,-190.023
558905.020,4564412.655,-189.541
558905.020,4564312.651,-187.423
558905.020,4564212.646,-183.604
558905.020,4564112.641,-175.282
558905.020,4564012.637,-160.117
558905.020,4563912.632,-144.543
559005.030,4588213.732,-558.400
559005.030,4588113.727,-556.165
559005.030,4588013.723,-556.054
559005.030,4587913.718,-557.464
559005.030,4587813.714,-559.063
559005.030,4587713.709,-560.339
559005.030,4587613.705,-561.557
559005.030,4587513.700,-562.392
559005.030,4587413.696,-562.017
559005.030,4587313.691,-560.338
559005.030,4587213.687,-558.082
559005.030,4587113.682,-557.040
559005.030,4587013.678,-558.496
559005.030,4586913.673,-561.009
559005.030,4586813.669,-562.239
559005.030,4586713.664,-562.268
559005.030,4586613.659,-561.995
559005.030,4586513.655,-561.537
559005.030,4586413.650,-560.646
559005.030,4586313.646,-559.365
559005.030,4586213.641,-557.746
559005.030,4586113.637,-555.594
559005.030,4586013.632,-553.160
559005.030,4585913.628,-550.910
559005.030,4585813.623,-548.956
559005.030,4585713.619,-547.027
559005.030,4585613.614,-545.062
559005.030,4585513.610,-543.068
559005.030,4585413.605,-540.803
559005.030,4585313.601,-538.290
559005.030,4585213.596,-536.440
559005.030,4585113.592,-535.973
559005.030,4585013.587,-536.286
559005.030,4584913.583,-536.401
559005.030,4584813.578,-536.500
559005.030,4584713.574,-537.643
559005.030,4584613.569,-540.221
559005.030,4584513.564,-541.801
559005.030,4584413.560,-539.335
559005.030,4584313.555,-533.755
559005.030,4584213.551,-528.383
559005.030,4584113.546,-523.743
559005.030,4584013.542,-517.537
559005.030,4583913.537,-508.227
559005.030,4583813.533,-496.962
559005.030,4583713.528,-486.770
559005.030,4583613.524,-480.232
559005.030,4583513.519,-477.398
559005.030,4583413.515,-476.400
559005.030,4583313.510,-475.952
559005.030,4583213.506,-475.605
559005.030,4583113.501,-475.214
559005.030,4583013.497,-474.682
559005.030,4582913.492,-473.896
559005.030,4582813.488,-472.821
559005.030,4582713.483,-471.216
559005.030,4582613.479,-468.726
559005.030,4582513.474,-465.409
559005.030,4582413.469,-461.447
559005.030,4582313.465,-456.897
559005.030,4582213.460,-452.278
559005.030,4582113.456,-448.326
559005.030,4582013.451,-445.446
559005.030,4581913.447,-443.563
559005.030,4581813.442,-442.284
559005.030,4581713.438,-441.150
559005.030,4581613.433,-439.624
559005.030,4581513.429,-437.390
559005.030,4581413.424,-434.881
559005.030,4581313.420,-432.686
559005.030,4581213.415,-431.082
559005.030,4581113.411,-429.974
559005.030,4581013.406,-428.885
559005.030,4580913.402,-427.319
559005.030,4580813.397,-425.111
559005.030,4580713.393,-422.369
559005.030,4580613.388,-419.167
559005.030,4580513.383,-415.779
559005.030,4580413.379,-412.655
559005.030,4580313.374,-409.823
559005.030,4580213.370,-407.340
559005.030,4580113.365,-405.132
559005.030,4580013.361,-403.105
559005.030,4579913.356,-401.394
559005.030,4579813.352,-400.026
559005.030,4579713.347,-398.926
559005.030,4579613.343,-397.526
559005.030,4579513.338,-396.060
559005.030,4579413.334,-395.042
559005.030,4579313.329,-394.596
559005.030,4579213.325,-394.503
559005.030,4579113.320,-395.411
559005.030,4579013.316,-398.651
559005.030,4578913.311,-404.251
559005.030,4578813.307,-407.981
559005.030,4578713.302,-406.990
559005.030,4578613.298,-404.694
559005.030,4578513.293,-407.116
559005.030,4578413.288,-416.649
559005.030,4578313.284,-431.027
559005.030,4578213.279,-443.610
559005.030,4578113.275,-450.997
559005.030,4578013.270,-455.235
559005.030,4577913.266,-460.056
559005.030,4577813.261,-468.963
559005.030,4577713.257,-481.244
559005.030,4577613.252,-498.134
559005.030,4577513.248,-516.410
559005.030,4577413.243,-526.112
559005.030,4577313.239,-527.528
559005.030,4577213.234,-521.084
559005.030,4577113.230,-502.874
559005.030,4577013.225,-470.178
559005.030,4576913.221,-439.746
559005.030,4576813.216,-425.083
559005.030,4576713.212,-421.987
559005.030,4576613.207,-419.473
559005.030,4576513.203,-412.513
559005.030,4576413.198,-401.096
559005.030,4576313.193,-386.188
559005.030,4576213.189,-371.547
559005.030,4576113.184,-357.637
559005.030,4576013.180,-343.059
559005.030,4575913.175,-329.691
559005.030,4575813.171,-318.359
559005.030,4575713.166,-309.139
559005.030,4575613.162,-302.955
559005.030,4575513.157,-298.806
559005.030,4575413.153,-296.053
559005.030,4575313.148,-293.546
559005.030,4575213.144,-291.448
559005.030,4575113.139,-289.727
559005.030,4575013.135,-286.807
559005.030,4574913.130,-283.445
559005.030,4574813.126,-278.772
559005.030,4574713.121,-272.732
559005.030,4574613.117,-265.490
559005.030,4574513.112,-256.874
559005.030,4574413.108,-246.901
559005.030,4574313.103,-236.814
559005.030,4574213.098,-228.026
559005.030,4574113.094,-220.245
559005.030,4574013.089,-214.079
559005.030,4573913.085,-210.260
559005.030,4573813.080,-213.790
559005.030,4573713.076,-227.491
559005.030,4573613.071,-248.122
559005.030,4573513.067,-265.760
559005.030,4573413.062,-275.867
559005.030,4573313.058,-279.791
559005.030,4573213.053,-280.297
559005.030,4573113.049,-279.766
559005.030,4573013.044,-278.307
559005.030,4572913.040,-276.251
559005.030,4572813.035,-272.097
559005.030,4572713.031,-261.248
559005.030,4572613.026,-240.407
559005.030,4572513.022,-212.147
559005.030,4572413.017,-186.966
559005.030,4572313.012,-178.149
559005.030,4572213.008,-194.716
559005.030,4572113.003,-218.271
559005.030,4572012.999,-237.962
559005.030,4571912.994,-252.430
559005.030,4571812.990,-262.640
559005.030,4571712.985,-274.740
559005.030,4571612.981,-289.344
559005.030,4571512.976,-304.394
559005.030,4571412.972,-334.409
559005.030,4571312.967,-370.876
559005.030,4571212.963,-408.671
559005.030,4571112.958,-448.582
559005.030,4571012.954,-469.130
559005.030,4570912.949,-470.495
559005.030,4570812.945,-472.048
559005.030,4570712.940,-478.571
559005.030,4570612.936,-477.165
559005.030,4570512.931,-465.590
559005.030,4570412.927,-454.618
559005.030,4570312.922,-442.272
559005.030,4570212.917,-432.799
559005.030,4570112.913,-430.695
559005.030,4570012.908,-430.496
559005.030,4569912.904,-422.706
559005.030,4569812.899,-400.695
559005.030,4569712.895,-378.582
559005.030,4569612.890,-355.689
559005.030,4569512.886,-325.857
559005.030,4569412.881,-298.173
559005.030,4569312.877,-272.659
559005.030,4569212.872,-251.073
559005.030,4569112.868,-234.645
559005.030,4569012.863,-217.637
559005.030,4568912.859,-198.313
559005.030,4568812.854,-184.884
559005.030,4568712.850,-187.598
559005.030,4568612.845,-198.998
559005.030,4568512.841,-197.445
559005.030,4568412.836,-184.585
559005.030,4568312.832,-167.444
559005.030,4568212.827,-148.546
559005.030,4568112.822,-134.876
559005.030,4568012.818,-132.000
559005.030,4567912.813,-133.495
559005.030,4567812.809,-134.656
559005.030,4567712.804,-135.984
559005.030,4567612.800,-137.311
559005.030,4567512.795,-138.639
559005.030,4567412.791,-139.967
559005.030,4567312.786,-141.295
559005.030,4567212.782,-142.623
559005.030,4567112.777,-143.951
559005.030,4567012.773,-145.279
559005.030,4566912.768,-146.607
559005.030,4566812.764,-147.934
559005.030,4566712.759,-149.262
559005.030,4566612.755,-150.590
559005.030,4566512.750,-151.918
559005.030,4566412.746,-153.246
559005.030,4566312.741,-154.574
559005.030,4566212.737,-155.902
559005.030,4566112.732,-157.229
559005.030,4566012.727,-158.557
559005.030,4565912.723,-159.885
559005.030,4565812.718,-161.213
559005.030,4565712.714,-162.541
559005.030,4565612.709,-163.869
559005.030,4565512.705,-165.197
559005.030,4565412.700,-166.524
559005.030,4565312.696,-167.852
559005.030,4565212.691,-169.180
559005.030,4565112.687,-170.508
559005.030,4565012.682,-171.836
559005.030,4564912.678,-175.135
559005.030,4564812.673,-181.523
559005.030,4564712.669,-189.686
559005.030,4564612.664,-197.110
559005.030,4564512.660,-198.380
559005.030,4564412.655,-195.457
559005.030,4564312.651,-191.524
559005.030,4564212.646,-185.563
