557906.607,4587816.046,-553.100
558106.688,4587816.046,-553.265
558306.768,4587816.046,-552.979
558306.768,4587616.010,-553.125
558506.848,4587816.046,-552.978
558506.848,4587616.010,-553.483
558506.848,4587415.973,-554.827
558506.848,4587215.937,-556.170
558506.848,4587015.901,-557.513
558506.848,4586815.865,-558.857
558506.848,4586615.829,-560.200
558506.848,4586415.793,-559.491
558506.848,4586215.756,-558.017
558706.929,4588016.082,-554.900
558706.929,4587816.046,-554.314
558706.929,4587616.010,-555.631
558706.929,4587415.973,-555.634
558706.929,4587215.937,-557.367
558706.929,4587015.901,-559.100
558706.929,4586815.865,-559.815
558706.929,4586615.829,-560.454
558706.929,4586415.793,-559.556
558706.929,4586215.756,-557.713
558706.929,4586015.720,-556.186
558907.009,4588216.118,-560.100
558907.009,4588016.082,-556.783
558907.009,4587816.046,-557.292
558907.009,4587616.010,-559.122
558907.009,4587415.973,-558.876
558907.009,4587215.937,-558.336
558907.009,4587015.901,-559.672
558907.009,4586815.865,-560.758
558907.009,4586615.829,-561.134
558907.009,4586415.793,-559.953
558907.009,4586215.756,-557.984
558907.009,4586015.720,-556.928
559107.090,4588416.154,-568.400
559107.090,4588216.118,-562.482
559107.090,4588016.082,-560.467
559107.090,4587816.046,-561.506
559107.090,4587616.010,-562.682
559107.090,4587415.973,-562.118
559107.090,4587215.937,-561.146
559107.090,4587015.901,-561.142
559107.090,4586815.865,-562.060
559107.090,4586615.829,-561.956
559107.090,4586415.793,-560.337
559107.090,4586215.756,-558.998
559107.090,4586015.720,-557.670
559307.170,4588616.190,-577.400
559307.170,4588416.154,-570.842
559307.170,4588216.118,-567.000
559307.170,4588016.082,-566.148
559307.170,4587816.046,-566.663
559307.170,4587616.010,-566.795
559307.170,4587415.973,-565.713
559307.170,4587215.937,-564.606
559307.170,4587015.901,-564.495
559307.170,4586815.865,-564.487
559307.170,4586615.829,-563.530
559307.170,4586415.793,-561.597
559307.170,4586215.756,-560.012
559307.170,4586015.720,-558.413
559507.251,4588816.227,-583.600
559507.251,4588616.190,-579.544
559507.251,4588416.154,-575.667
559507.251,4588216.118,-573.556
559507.251,4588016.082,-572.927
559507.251,4587816.046,-572.579
559507.251,4587616.010,-571.722
559507.251,4587415.973,-570.706
559507.251,4587215.937,-570.254
559507.251,4587015.901,-570.168
559507.251,4586815.865,-569.134
559507.251,4586615.829,-566.993
559507.251,4586415.793,-564.641
559507.251,4586215.756,-562.532
559507.251,4586015.720,-560.350
559507.251,4585815.684,-558.476
559507.251,4585615.648,-557.170
559507.251,4585415.612,-555.547
559507.251,4585215.576,-553.923
559507.251,4585015.539,-552.300
559707.331,4588816.227,-584.719
559707.331,4588616.190,-583.078
559707.331,4588416.154,-581.523
559707.331,4588216.118,-580.632
559707.331,4588016.082,-579.743
559707.331,4587816.046,-578.215
559707.331,4587616.010,-576.687
559707.331,4587415.973,-576.093
559707.331,4587215.937,-576.442
559707.331,4587015.901,-576.670
559707.331,4586815.865,-575.318
559707.331,4586615.829,-572.396
559707.331,4586415.793,-569.016
559707.331,4586215.756,-565.882
559707.331,4586015.720,-563.156
559707.331,4585815.684,-560.704
559707.331,4585615.648,-558.119
559707.331,4585415.612,-556.153
559707.331,4585215.576,-554.763
559707.331,4585015.539,-553.479
559907.411,4589016.263,-585.600
559907.411,4588816.227,-585.692
559907.411,4588616.190,-585.716
559907.411,4588416.154,-586.128
559907.411,4588216.118,-586.545
559907.411,4588016.082,-585.092
559907.411,4587816.046,-582.505
559907.411,4587616.010,-581.137
559907.411,4587415.973,-581.221
559907.411,4587215.937,-581.636
559907.411,4587015.901,-581.710
559907.411,4586815.865,-580.663
559907.411,4586615.829,-577.633
559907.411,4586415.793,-572.756
559907.411,4586215.756,-567.332
559907.411,4586015.720,-563.456
559907.411,4585815.684,-561.672
559907.411,4585615.648,-560.033
559907.411,4585415.612,-557.681
559907.411,4585215.576,-555.885
559907.411,4585015.539,-554.658
559907.411,4583815.322,-557.075
559907.411,4583615.286,-556.999
559907.411,4583415.250,-556.923
559907.411,4583215.214,-556.847
559907.411,4583015.178,-556.771
559907.411,4582815.142,-556.695
559907.411,4582615.105,-556.620
559907.411,4582415.069,-556.544
559907.411,4582215.033,-556.468
559907.411,4582014.997,-556.392
559907.411,4581814.961,-556.316
559907.411,4581614.925,-556.241
559907.411,4581414.888,-556.165
559907.411,4581214.852,-556.089
559907.411,4581014.816,-556.013
559907.411,4580814.780,-555.937
559907.411,4580614.744,-555.861
559907.411,4580414.708,-555.786
559907.411,4580214.671,-555.710
559907.411,4580014.635,-555.634
559907.411,4579814.599,-555.558
559907.411,4579614.563,-555.482
559907.411,4579414.527,-555.407
559907.411,4577814.238,-554.800
560107.492,4588816.227,-586.608
560107.492,4588616.190,-586.992
560107.492,4588416.154,-589.032
560107.492,4588216.118,-590.447
560107.492,4588016.082,-588.265
560107.492,4587816.046,-585.571
560107.492,4587616.010,-585.232
560107.492,4587415.973,-585.938
560107.492,4587215.937,-585.887
560107.492,4587015.901,-585.129
560107.492,4586815.865,-583.983
560107.492,4586615.829,-580.559
560107.492,4586415.793,-575.124
560107.492,4586215.756,-568.110
560107.492,4586015.720,-562.367
560107.492,4585815.684,-560.589
560107.492,4585615.648,-560.538
560107.492,4585415.612,-558.090
560107.492,4585215.576,-557.008
560107.492,4585015.539,-555.837
560107.492,4584015.359,-559.673
560107.492,4583815.322,-559.564
560107.492,4583615.286,-559.456
560107.492,4583415.250,-559.348
560107.492,4583215.214,-559.240
560107.492,4583015.178,-559.131
560107.492,4582815.142,-559.023
560107.492,4582615.105,-558.915
560107.492,4582415.069,-558.807
560107.492,4582215.033,-558.699
560107.492,4582014.997,-558.590
560107.492,4581814.961,-558.482
560107.492,4581614.925,-558.374
560107.492,4581414.888,-558.266
560107.492,4581214.852,-558.157
560107.492,4581014.816,-558.049
560107.492,4580814.780,-557.941
560107.492,4580614.744,-557.833
560107.492,4580414.708,-557.725
560107.492,4580214.671,-557.616
560107.492,4580014.635,-557.508
560107.492,4579814.599,-557.400
560107.492,4579614.563,-557.292
560107.492,4578014.274,-556.426
560107.492,4577814.238,-556.452
560307.572,4588416.154,-592.639
560307.572,4588216.118,-592.528
560307.572,4588016.082,-589.558
560307.572,4587816.046,-587.758
560307.572,4587616.010,-588.677
560307.572,4587415.973,-589.970
560307.572,4587215.937,-589.410
560307.572,4587015.901,-587.799
560307.572,4586815.865,-586.138
560307.572,4586615.829,-581.457
560307.572,4586415.793,-575.092
560307.572,4586215.756,-567.773
560307.572,4586015.720,-563.747
560307.572,4585815.684,-561.785
560307.572,4585615.648,-561.135
560307.572,4585415.612,-558.499
560307.572,4585215.576,-558.130
560307.572,4585015.539,-557.017
560307.572,4584215.395,-574.905
560307.572,4584015.359,-574.359
560307.572,4583815.322,-573.814
560307.572,4583615.286,-573.268
560307.572,4583415.250,-572.722
560307.572,4583215.214,-572.176
560307.572,4583015.178,-571.630
560307.572,4582815.142,-571.084
560307.572,4582615.105,-570.538
560307.572,4582415.069,-569.992
560307.572,4582215.033,-569.446
560307.572,4582014.997,-568.900
560307.572,4581814.961,-568.354
560307.572,4581614.925,-567.808
560307.572,4581414.888,-567.262
560307.572,4581214.852,-566.716
560307.572,4581014.816,-566.170
560307.572,4580814.780,-565.624
560307.572,4580614.744,-565.078
560307.572,4578214.310,-558.526
560307.572,4578014.274,-557.132
560307.572,4577814.238,-558.104
560507.653,4588416.154,-596.786
560507.653,4588216.118,-590.680
560507.653,4588016.082,-588.821
560507.653,4587816.046,-588.842
560507.653,4587616.010,-591.031
560507.653,4587415.973,-592.756
560507.653,4587215.937,-591.969
560507.653,4587015.901,-590.341
560507.653,4586815.865,-588.500
560507.653,4586615.829,-582.385
560507.653,4586415.793,-575.060
560507.653,4586215.756,-567.435
560507.653,4586015.720,-565.127
560507.653,4585815.684,-562.981
560507.653,4585615.648,-561.731
560507.653,4585415.612,-558.907
560507.653,4585215.576,-559.252
560507.653,4585015.539,-558.196
560507.653,4584215.395,-575.923
560507.653,4584015.359,-575.384
560507.653,4583815.322,-574.846
560507.653,4583615.286,-574.307
560507.653,4583415.250,-573.769
560507.653,4583215.214,-573.230
560507.653,4583015.178,-572.692
560507.653,4582815.142,-572.153
560507.653,4582615.105,-571.615
560507.653,4582415.069,-571.076
560507.653,4582215.033,-570.538
560507.653,4582014.997,-569.999
560507.653,4581814.961,-569.461
560507.653,4581614.925,-568.922
560507.653,4581414.888,-568.384
560507.653,4581214.852,-567.845
560507.653,4581014.816,-567.307
560507.653,4580814.780,-566.768
560507.653,4580614.744,-566.230
560507.653,4578214.310,-559.768
560507.653,4578014.274,-558.404
560507.653,4577814.238,-559.757
560707.733,4588416.154,-600.934
560707.733,4588216.118,-587.800
560707.733,4588016.082,-588.115
560707.733,4587816.046,-589.925
560707.733,4587616.010,-593.160
560707.733,4587415.973,-594.875
560707.733,4587215.937,-594.276
560707.733,4587015.901,-593.294
560707.733,4586815.865,-591.377
560707.733,4586615.829,-584.089
560707.733,4586415.793,-575.027
560707.733,4586215.756,-567.098
560707.733,4586015.720,-566.508
560707.733,4585815.684,-564.176
560707.733,4585615.648,-562.327
560707.733,4585415.612,-559.316
560707.733,4585215.576,-560.375
560707.733,4585015.539,-559.375
560707.733,4584215.395,-577.702
560707.733,4584015.359,-577.170
560707.733,4583815.322,-576.638
560707.733,4583615.286,-576.106
560707.733,4583415.250,-575.573
560707.733,4583215.214,-575.041
560707.733,4583015.178,-574.509
560707.733,4582815.142,-573.977
560707.733,4582615.105,-573.445
560707.733,4582415.069,-572.912
560707.733,4582215.033,-572.380
560707.733,4582014.997,-571.848
560707.733,4581814.961,-571.316
560707.733,4581614.925,-570.784
560707.733,4581414.888,-570.251
560707.733,4581214.852,-569.719
560707.733,4581014.816,-569.187
560707.733,4580814.780,-568.655
560707.733,4580614.744,-568.123
560707.733,4578214.310,-561.736
560707.733,4578014.274,-559.764
560707.733,4577814.238,-561.409
560907.814,4588416.154,-605.081
560907.814,4588216.118,-593.919
560907.814,4588016.082,-588.400
560907.814,4587816.046,-593.286
560907.814,4587616.010,-596.377
560907.814,4587415.973,-597.645
560907.814,4587215.937,-597.081
560907.814,4587015.901,-596.648
560907.814,4586815.865,-594.443
560907.814,4586615.829,-586.313
560907.814,4586415.793,-574.995
560907.814,4586215.756,-566.761
560907.814,4586015.720,-567.888
560907.814,4585815.684,-565.372
560907.814,4585615.648,-562.923
560907.814,4585415.612,-559.725
560907.814,4585215.576,-561.497
560907.814,4585015.539,-560.554
560907.814,4584215.395,-566.059
560907.814,4584015.359,-565.989
560907.814,4583815.322,-565.919
560907.814,4583615.286,-565.849
560907.814,4583415.250,-565.778
560907.814,4583215.214,-565.708
560907.814,4583015.178,-565.638
560907.814,4582815.142,-565.568
560907.814,4582615.105,-565.498
560907.814,4582415.069,-565.428
560907.814,4582215.033,-565.358
560907.814,4582014.997,-565.287
560907.814,4581814.961,-565.217
560907.814,4581614.925,-565.147
560907.814,4581414.888,-565.077
560907.814,4581214.852,-565.007
560907.814,4581014.816,-564.937
560907.814,4580814.780,-564.866
560907.814,4580614.744,-564.796
560907.814,4580414.708,-564.726
560907.814,4580214.671,-564.656
560907.814,4578214.310,-563.954
560907.814,4578014.274,-561.864
560907.814,4577814.238,-563.061
561107.894,4588416.154,-609.228
561107.894,4588216.118,-600.037
561107.894,4588016.082,-596.328
561107.894,4587816.046,-597.000
561107.894,4587616.010,-603.496
561107.894,4587415.973,-602.597
561107.894,4587215.937,-600.524
561107.894,4587015.901,-599.858
561107.894,4586815.865,-597.357
561107.894,4586615.829,-589.155
561107.894,4586415.793,-579.165
561107.894,4586215.756,-572.694
561107.894,4586015.720,-569.269
561107.894,4585815.684,-566.568
561107.894,4585615.648,-563.520
561107.894,4585415.612,-560.134
561107.894,4585215.576,-562.619
561107.894,4585015.539,-561.733
561107.894,4584415.431,-561.552
561107.894,4584215.395,-561.835
561107.894,4584015.359,-562.119
561107.894,4583815.322,-562.402
561107.894,4583615.286,-562.686
561107.894,4583415.250,-562.969
561107.894,4583215.214,-563.253
561107.894,4583015.178,-563.537
561107.894,4582815.142,-563.820
561107.894,4582615.105,-564.104
561107.894,4582415.069,-564.387
561107.894,4582215.033,-564.671
561107.894,4582014.997,-564.954
561107.894,4581814.961,-565.238
561107.894,4581614.925,-565.522
561107.894,4581414.888,-565.805
561107.894,4581214.852,-566.089
561107.894,4581014.816,-566.372
561107.894,4580814.780,-566.656
561107.894,4580614.744,-566.940
561107.894,4580414.708,-567.223
561107.894,4580214.671,-567.507
561107.894,4580014.635,-567.790
561107.894,4579814.599,-568.074
561107.894,4579614.563,-568.357
561107.894,4579414.527,-568.641
561107.894,4578414.346,-570.059
561107.894,4578214.310,-567.769
561107.894,4578014.274,-565.399
561107.894,4577814.238,-564.713
561307.974,4588416.154,-613.375
561307.974,4588216.118,-606.156
561307.974,4588016.082,-604.255
561307.974,4587816.046,-606.857
561307.974,4587616.010,-615.522
561307.974,4587415.973,-609.291
561307.974,4587215.937,-604.789
561307.974,4587015.901,-602.981
561307.974,4586815.865,-599.949
561307.974,4586615.829,-592.074
561307.974,4586415.793,-583.234
561307.974,4586215.756,-577.619
561307.974,4586015.720,-574.263
561307.974,4585815.684,-571.027
561307.974,4585615.648,-567.126
561307.974,4585415.612,-562.784
561307.974,4585215.576,-563.742
561307.974,4585015.539,-562.912
561307.974,4584415.431,-564.470
561307.974,4584215.395,-564.807
561307.974,4584015.359,-565.144
561307.974,4583815.322,-565.482
561307.974,4583615.286,-565.819
561307.974,4583415.250,-566.156
561307.974,4583215.214,-566.494
561307.974,4583015.178,-566.831
561307.974,4582815.142,-567.168
561307.974,4582615.105,-567.505
561307.974,4582415.069,-567.843
561307.974,4582215.033,-568.180
561307.974,4582014.997,-568.517
561307.974,4581814.961,-568.854
561307.974,4581614.925,-569.192
561307.974,4581414.888,-569.529
561307.974,4581214.852,-569.866
561307.974,4581014.816,-570.204
561307.974,4580814.780,-570.541
561307.974,4580614.744,-570.878
561307.974,4580414.708,-571.215
561307.974,4580214.671,-571.553
561307.974,4580014.635,-571.890
561307.974,4579814.599,-572.227
561307.974,4579614.563,-572.565
561307.974,4579414.527,-572.902
561307.974,4578414.346,-574.588
561307.974,4578214.310,-572.643
561307.974,4578014.274,-569.915
561307.974,4577814.238,-566.365
561307.974,4577614.201,-569.016
561307.974,4577414.165,-568.567
561307.974,4577214.129,-568.117
561307.974,4577014.093,-567.668
561307.974,4576814.057,-567.219
561307.974,4576614.021,-566.769
561307.974,4576413.984,-566.320
561307.974,4576213.948,-565.870
561307.974,4576013.912,-565.421
561307.974,4575813.876,-564.971
561307.974,4575613.840,-564.522
561307.974,4575413.804,-564.073
561307.974,4575213.767,-563.623
561307.974,4575013.731,-563.174
561307.974,4574813.695,-562.724
561307.974,4574613.659,-562.275
561307.974,4574413.623,-561.826
561307.974,4574213.587,-561.376
561307.974,4574013.550,-560.927
561307.974,4573813.514,-560.477
561307.974,4573613.478,-560.028
561307.974,4573413.442,-559.578
561307.974,4573213.406,-559.129
561307.974,4573013.370,-558.680
561307.974,4572813.333,-558.230
561307.974,4572613.297,-557.781
561307.974,4572413.261,-557.331
561307.974,4572213.225,-556.882
561307.974,4572013.189,-556.433
561307.974,4571613.116,-555.534
561508.055,4588416.154,-617.523
561508.055,4588216.118,-612.275
561508.055,4588016.082,-612.183
561508.055,4587816.046,-616.713
561508.055,4587616.010,-621.492
561508.055,4587415.973,-615.193
561508.055,4587215.937,-610.064
561508.055,4587015.901,-606.945
561508.055,4586815.865,-602.613
561508.055,4586615.829,-594.540
561508.055,4586415.793,-586.165
561508.055,4586215.756,-580.751
561508.055,4586015.720,-577.241
561508.055,4585815.684,-573.591
561508.055,4585615.648,-569.158
561508.055,4585415.612,-564.703
561508.055,4585215.576,-564.864
561508.055,4585015.539,-564.091
561508.055,4584415.431,-566.265
561508.055,4584215.395,-566.578
561508.055,4584015.359,-566.890
561508.055,4583815.322,-567.203
561508.055,4583615.286,-567.515
561508.055,4583415.250,-567.828
561508.055,4583215.214,-568.140
561508.055,4583015.178,-568.453
561508.055,4582815.142,-568.765
561508.055,4582615.105,-569.078
561508.055,4582415.069,-569.390
561508.055,4582215.033,-569.703
561508.055,4582014.997,-570.015
561508.055,4581814.961,-570.328
561508.055,4581614.925,-570.640
561508.055,4581414.888,-570.953
561508.055,4581214.852,-571.265
561508.055,4581014.816,-571.578
561508.055,4580814.780,-571.890
561508.055,4580614.744,-572.203
561508.055,4580414.708,-572.515
561508.055,4580214.671,-572.828
561508.055,4580014.635,-573.140
561508.055,4579814.599,-573.453
561508.055,4579614.563,-573.765
561508.055,4579414.527,-574.078
561508.055,4578414.346,-575.640
561508.055,4578214.310,-576.122
561508.055,4578014.274,-574.077
561508.055,4577814.238,-568.017
561508.055,4577614.201,-572.887
561508.055,4577414.165,-572.292
561508.055,4577214.129,-571.698
561508.055,4577014.093,-571.103
561508.055,4576814.057,-570.508
561508.055,4576614.021,-569.914
561508.055,4576413.984,-569.319
561508.055,4576213.948,-568.724
561508.055,4576013.912,-568.129
561508.055,4575813.876,-567.535
561508.055,4575613.840,-566.940
561508.055,4575413.804,-566.345
561508.055,4575213.767,-565.751
561508.055,4575013.731,-565.156
561508.055,4574813.695,-564.561
561508.055,4574613.659,-563.966
561508.055,4574413.623,-563.372
561508.055,4574213.587,-562.777
561508.055,4574013.550,-562.182
561508.055,4573813.514,-561.588
561508.055,4573613.478,-560.993
561508.055,4573413.442,-560.398
561508.055,4573213.406,-559.803
561508.055,4573013.370,-559.209
561508.055,4572813.333,-558.614
561508.055,4572613.297,-558.019
561508.055,4572413.261,-557.424
561508.055,4572213.225,-556.830
561508.055,4572013.189,-556.235
561508.055,4571613.116,-555.046
561708.135,4588416.154,-621.670
561708.135,4588216.118,-618.394
561708.135,4588016.082,-620.111
561708.135,4587816.046,-626.570
561708.135,4587616.010,-624.384
561708.135,4587415.973,-620.388
561708.135,4587215.937,-616.524
561708.135,4587015.901,-612.343
561708.135,4586815.865,-605.788
561708.135,4586615.829,-597.030
561708.135,4586415.793,-588.999
561708.135,4586215.756,-583.549
561708.135,4586015.720,-579.746
561708.135,4585815.684,-576.006
561708.135,4585615.648,-571.821
561708.135,4585415.612,-568.105
561708.135,4585215.576,-565.986
561708.135,4585015.539,-565.271
561708.135,4584815.503,-564.606
561708.135,4584615.467,-562.771
561708.135,4584415.431,-563.119
561708.135,4584215.395,-563.467
561708.135,4584015.359,-563.816
561708.135,4583815.322,-564.164
561708.135,4583615.286,-564.512
561708.135,4583415.250,-564.860
561708.135,4583215.214,-565.209
561708.135,4583015.178,-565.557
561708.135,4582815.142,-565.905
561708.135,4582615.105,-566.254
561708.135,4582415.069,-566.602
561708.135,4582215.033,-566.950
561708.135,4582014.997,-567.298
561708.135,4581814.961,-567.647
561708.135,4581614.925,-567.995
561708.135,4581414.888,-568.343
561708.135,4581214.852,-568.692
561708.135,4581014.816,-569.040
561708.135,4580814.780,-569.388
561708.135,4580614.744,-569.736
561708.135,4580414.708,-570.085
561708.135,4580214.671,-570.433
561708.135,4580014.635,-570.781
561708.135,4579814.599,-571.130
561708.135,4579614.563,-571.478
561708.135,4579414.527,-571.826
561708.135,4579214.491,-572.174
561708.135,4579014.454,-572.523
561708.135,4578814.418,-572.871
561708.135,4578614.382,-573.219
561708.135,4578414.346,-573.568
561708.135,4578214.310,-577.871
561708.135,4578014.274,-577.104
561708.135,4577814.238,-569.670
561708.135,4577614.201,-575.723
561708.135,4577414.165,-575.032
561708.135,4577214.129,-574.342
561708.135,4577014.093,-573.651
561708.135,4576814.057,-572.961
561708.135,4576614.021,-572.270
561708.135,4576413.984,-571.579
561708.135,4576213.948,-570.889
561708.135,4576013.912,-570.198
561708.135,4575813.876,-569.507
561708.135,4575613.840,-568.817
561708.135,4575413.804,-568.126
561708.135,4575213.767,-567.435
561708.135,4575013.731,-566.745
561708.135,4574813.695,-566.054
561708.135,4574613.659,-565.363
561708.135,4574413.623,-564.673
561708.135,4574213.587,-563.982
561708.135,4574013.550,-563.291
561708.135,4573813.514,-562.601
561708.135,4573613.478,-561.910
561708.135,4573413.442,-561.219
561708.135,4573213.406,-560.529
561708.135,4573013.370,-559.838
561708.135,4572813.333,-559.148
561708.135,4572613.297,-558.457
561708.135,4572413.261,-557.766
561708.135,4572213.225,-557.076
561708.135,4572013.189,-556.385
561708.135,4571813.153,-555.694
561908.216,4588416.154,-625.817
561908.216,4588216.118,-624.512
561908.216,4588016.082,-628.039
561908.216,4587816.046,-628.991
561908.216,4587616.010,-627.885
561908.216,4587415.973,-625.402
561908.216,4587215.937,-623.429
561908.216,4587015.901,-618.476
561908.216,4586815.865,-609.154
561908.216,4586615.829,-599.579
561908.216,4586415.793,-592.392
561908.216,4586215.756,-587.339
561908.216,4586015.720,-583.470
561908.216,4585815.684,-579.959
561908.216,4585615.648,-576.565
561908.216,4585415.612,-573.685
561908.216,4585215.576,-571.883
561908.216,4585015.539,-570.929
561908.216,4584815.503,-569.760
561908.216,4584615.467,-567.378
561908.216,4584415.431,-567.563
561908.216,4584215.395,-567.748
561908.216,4584015.359,-567.933
561908.216,4583815.322,-568.118
561908.216,4583615.286,-568.303
561908.216,4583415.250,-568.488
561908.216,4583215.214,-568.673
561908.216,4583015.178,-568.858
561908.216,4582815.142,-569.043
561908.216,4582615.105,-569.228
561908.216,4582415.069,-569.413
561908.216,4582215.033,-569.598
561908.216,4582014.997,-569.783
561908.216,4581814.961,-569.968
561908.216,4581614.925,-570.153
561908.216,4581414.888,-570.338
561908.216,4581214.852,-570.523
561908.216,4581014.816,-570.708
561908.216,4580814.780,-570.893
561908.216,4580614.744,-571.078
561908.216,4580414.708,-571.263
561908.216,4580214.671,-571.448
561908.216,4580014.635,-571.633
561908.216,4579814.599,-571.818
561908.216,4579614.563,-572.003
561908.216,4579414.527,-572.188
561908.216,4579214.491,-572.373
561908.216,4579014.454,-572.558
561908.216,4578814.418,-572.743
561908.216,4578614.382,-572.928
561908.216,4578414.346,-573.113
561908.216,4578214.310,-580.238
561908.216,4578014.274,-579.708
561908.216,4577814.238,-571.322
561908.216,4577614.201,-578.385
561908.216,4577414.165,-577.724
561908.216,4577214.129,-577.063
561908.216,4577014.093,-576.401
561908.216,4576814.057,-575.740
561908.216,4576614.021,-575.078
561908.216,4576413.984,-574.417
561908.216,4576213.948,-573.756
561908.216,4576013.912,-573.094
561908.216,4575813.876,-572.433
561908.216,4575613.840,-571.772
561908.216,4575413.804,-571.110
561908.216,4575213.767,-570.449
561908.216,4575013.731,-569.788
561908.216,4574813.695,-569.126
561908.216,4574613.659,-568.465
561908.216,4574413.623,-567.804
561908.216,4574213.587,-567.142
561908.216,4574013.550,-566.481
561908.216,4573813.514,-565.820
561908.216,4573613.478,-565.158
561908.216,4573413.442,-564.497
561908.216,4573213.406,-563.836
561908.216,4573013.370,-563.174
561908.216,4572813.333,-562.513
561908.216,4572613.297,-561.852
561908.216,4572413.261,-561.190
561908.216,4572213.225,-560.529
561908.216,4572013.189,-559.868
561908.216,4571813.153,-556.542
562108.296,4588416.154,-629.965
562108.296,4588216.118,-630.631
562108.296,4588016.082,-631.030
562108.296,4587816.046,-632.353
562108.296,4587616.010,-630.727
562108.296,4587415.973,-629.374
562108.296,4587215.937,-629.439
562108.296,4587015.901,-623.555
562108.296,4586815.865,-611.695
562108.296,4586615.829,-601.674
562108.296,4586415.793,-595.752
562108.296,4586215.756,-591.744
562108.296,4586015.720,-588.333
562108.296,4585815.684,-585.166
562108.296,4585615.648,-582.334
562108.296,4585415.612,-580.004
562108.296,4585215.576,-578.180
562108.296,4585015.539,-576.491
562108.296,4584815.503,-574.383
562108.296,4584615.467,-571.383
562108.296,4584415.431,-567.615
562108.296,4584215.395,-563.450
562108.296,4584015.359,-563.521
562108.296,4583815.322,-563.591
562108.296,4583615.286,-563.662
562108.296,4583415.250,-563.733
562108.296,4583215.214,-563.804
562108.296,4583015.178,-563.874
562108.296,4582815.142,-563.945
562108.296,4582615.105,-564.016
562108.296,4582415.069,-564.087
562108.296,4582215.033,-564.157
562108.296,4582014.997,-564.228
562108.296,4581814.961,-564.299
562108.296,4581614.925,-564.370
562108.296,4581414.888,-564.440
562108.296,4581214.852,-564.511
562108.296,4581014.816,-564.582
562108.296,4580814.780,-564.653
562108.296,4580614.744,-564.723
562108.296,4580414.708,-564.794
562108.296,4580214.671,-564.865
562108.296,4580014.635,-564.935
562108.296,4579814.599,-565.006
562108.296,4579614.563,-565.077
562108.296,4579414.527,-565.148
562108.296,4579214.491,-565.218
562108.296,4579014.454,-565.289
562108.296,4578814.418,-565.360
562108.296,4578614.382,-565.431
562108.296,4578414.346,-577.240
562108.296,4578214.310,-583.861
562108.296,4578014.274,-582.293
562108.296,4577814.238,-572.974
562108.296,4577614.201,-572.907
562108.296,4577414.165,-572.840
562108.296,4577214.129,-572.773
562108.296,4577014.093,-572.706
562108.296,4576814.057,-572.639
562108.296,4576614.021,-572.573
562108.296,4576413.984,-572.506
562108.296,4576213.948,-572.439
562108.296,4576013.912,-572.372
562108.296,4575813.876,-572.305
562108.296,4575613.840,-572.238
562108.296,4575413.804,-572.171
562108.296,4575213.767,-572.104
562108.296,4575013.731,-572.038
562108.296,4574813.695,-571.971
562108.296,4574613.659,-571.904
562108.296,4574413.623,-571.837
562108.296,4574213.587,-571.770
562108.296,4574013.550,-571.703
562108.296,4573813.514,-571.636
562108.296,4573613.478,-571.569
562108.296,4573413.442,-571.502
562108.296,4573213.406,-571.436
562108.296,4573013.370,-571.369
562108.296,4572813.333,-571.302
562108.296,4572613.297,-571.235
562108.296,4572413.261,-571.168
562108.296,4572213.225,-566.577
562108.296,4572013.189,-562.222
562308.376,4588416.154,-634.112
562308.376,4588216.118,-633.642
562308.376,4588016.082,-635.323
562308.376,4587816.046,-635.464
562308.376,4587616.010,-632.887
562308.376,4587415.973,-633.307
562308.376,4587215.937,-634.327
562308.376,4587015.901,-626.451
562308.376,4586815.865,-613.217
562308.376,4586615.829,-603.872
562308.376,4586415.793,-599.156
562308.376,4586215.756,-596.009
562308.376,4586015.720,-593.003
562308.376,4585815.684,-590.026
562308.376,4585615.648,-587.581
562308.376,4585415.612,-585.797
562308.376,4585215.576,-584.108
562308.376,4585015.539,-581.789
562308.376,4584815.503,-578.755
562308.376,4584615.467,-575.194
562308.376,4584415.431,-571.372
562308.376,4584215.395,-567.532
562308.376,4584015.359,-563.856
562308.376,4583815.322,-560.566
562308.376,4583615.286,-560.641
562308.376,4583415.250,-560.715
562308.376,4583215.214,-560.790
562308.376,4583015.178,-560.865
562308.376,4582815.142,-560.940
562308.376,4582615.105,-561.014
562308.376,4582415.069,-561.089
562308.376,4582215.033,-561.164
562308.376,4582014.997,-561.238
562308.376,4581814.961,-561.313
562308.376,4581614.925,-561.388
562308.376,4581414.888,-561.462
562308.376,4581214.852,-561.537
562308.376,4581014.816,-561.612
562308.376,4580814.780,-561.687
562308.376,4580614.744,-561.761
562308.376,4580414.708,-561.836
562308.376,4580214.671,-561.911
562308.376,4580014.635,-561.985
562308.376,4579814.599,-562.060
562308.376,4579614.563,-562.135
562308.376,4579414.527,-562.210
562308.376,4579214.491,-562.284
562308.376,4579014.454,-562.359
562308.376,4578814.418,-562.434
562308.376,4578614.382,-571.208
562308.376,4578414.346,-582.124
562308.376,4578214.310,-587.216
562308.376,4578014.274,-585.614
562308.376,4577814.238,-577.693
562308.376,4577614.201,-570.383
562308.376,4577414.165,-575.351
562308.376,4577214.129,-580.319
562308.376,4577014.093,-585.287
562308.376,4576814.057,-590.255
562308.376,4576614.021,-595.222
562308.376,4576413.984,-600.190
562308.376,4576213.948,-605.158
562308.376,4576013.912,-610.126
562308.376,4575813.876,-615.093
562308.376,4575613.840,-620.061
562308.376,4575413.804,-625.029
562308.376,4575213.767,-620.872
562308.376,4575013.731,-617.701
562308.376,4574813.695,-614.530
562308.376,4574613.659,-611.359
562308.376,4574413.623,-608.187
562308.376,4574213.587,-605.016
562308.376,4574013.550,-601.845
562308.376,4573813.514,-598.674
562308.376,4573613.478,-595.503
562308.376,4573413.442,-592.332
562308.376,4573213.406,-589.161
562308.376,4573013.370,-585.990
562308.376,4572813.333,-582.818
562308.376,4572613.297,-579.647
562308.376,4572413.261,-576.476
562308.376,4572213.225,-570.397
562508.457,4588416.154,-635.363
562508.457,4588216.118,-636.932
562508.457,4588016.082,-639.503
562508.457,4587816.046,-637.907
562508.457,4587616.010,-635.274
562508.457,4587415.973,-638.097
562508.457,4587215.937,-638.511
562508.457,4587015.901,-627.943
562508.457,4586815.865,-614.576
562508.457,4586615.829,-606.598
562508.457,4586415.793,-602.666
562508.457,4586215.756,-599.787
562508.457,4586015.720,-596.917
562508.457,4585815.684,-594.268
562508.457,4585615.648,-592.459
562508.457,4585415.612,-591.160
562508.457,4585215.576,-589.322
562508.457,4585015.539,-586.415
562508.457,4584815.503,-582.794
562508.457,4584615.467,-578.874
562508.457,4584415.431,-575.077
562508.457,4584215.395,-571.613
562508.457,4584015.359,-568.250
562508.457,4583815.322,-564.891
562508.457,4583615.286,-561.694
562508.457,4583415.250,-561.774
562508.457,4583215.214,-561.853
562508.457,4583015.178,-561.933
562508.457,4582815.142,-562.013
562508.457,4582615.105,-562.093
562508.457,4582415.069,-562.172
562508.457,4582215.033,-562.252
562508.457,4582014.997,-562.332
562508.457,4581814.961,-562.411
562508.457,4581614.925,-562.491
562508.457,4581414.888,-562.571
562508.457,4581214.852,-562.651
562508.457,4581014.816,-562.730
562508.457,4580814.780,-562.810
562508.457,4580614.744,-562.890
562508.457,4580414.708,-562.970
562508.457,4580214.671,-563.049
562508.457,4580014.635,-563.129
562508.457,4579814.599,-563.209
562508.457,4579614.563,-563.289
562508.457,4579414.527,-563.368
562508.457,4579214.491,-563.448
562508.457,4579014.454,-563.528
562508.457,4578814.418,-567.846
562508.457,4578614.382,-577.739
562508.457,4578414.346,-586.911
562508.457,4578214.310,-590.755
562508.457,4578014.274,-589.353
562508.457,4577814.238,-583.217
562508.457,4577614.201,-575.746
562508.457,4577414.165,-581.340
562508.457,4577214.129,-586.934
562508.457,4577014.093,-592.528
562508.457,4576814.057,-598.122
562508.457,4576614.021,-603.716
562508.457,4576413.984,-609.310
562508.457,4576213.948,-614.904
562508.457,4576013.912,-620.498
562508.457,4575813.876,-626.092
562508.457,4575613.840,-635.462
562508.457,4575413.804,-637.058
562508.457,4575213.767,-634.781
562508.457,4575013.731,-630.734
562508.457,4574813.695,-620.388
562508.457,4574613.659,-617.061
562508.457,4574413.623,-613.734
562508.457,4574213.587,-610.406
562508.457,4574013.550,-607.079
562508.457,4573813.514,-603.752
562508.457,4573613.478,-600.425
562508.457,4573413.442,-597.098
562508.457,4573213.406,-593.771
562508.457,4573013.370,-590.444
562508.457,4572813.333,-587.117
562508.457,4572613.297,-583.789
562508.457,4572413.261,-574.659
562508.457,4572213.225,-571.030
562708.537,4588416.154,-635.500
562708.537,4588216.118,-640.869
562708.537,4588016.082,-643.697
562708.537,4587816.046,-640.554
562708.537,4587616.010,-638.466
562708.537,4587415.973,-642.887
562708.537,4587215.937,-641.960
562708.537,4587015.901,-629.458
562708.537,4586815.865,-616.768
562708.537,4586615.829,-610.089
562708.537,4586415.793,-606.446
562708.537,4586215.756,-603.497
562708.537,4586015.720,-600.807
562708.537,4585815.684,-598.726
562708.537,4585615.648,-597.585
562708.537,4585415.612,-596.338
562708.537,4585215.576,-593.910
562708.537,4585015.539,-590.498
562708.537,4584815.503,-586.654
562708.537,4584615.467,-582.576
562708.537,4584415.431,-578.822
562708.537,4584215.395,-575.802
562708.537,4584015.359,-572.774
562708.537,4583815.322,-569.056
562708.537,4583615.286,-565.344
562708.537,4583415.250,-565.509
562708.537,4583215.214,-565.675
562708.537,4583015.178,-565.840
562708.537,4582815.142,-566.006
562708.537,4582615.105,-566.171
562708.537,4582415.069,-566.337
562708.537,4582215.033,-566.502
562708.537,4582014.997,-566.667
562708.537,4581814.961,-566.833
562708.537,4581614.925,-566.998
562708.537,4581414.888,-567.164
562708.537,4581214.852,-567.329
562708.537,4581014.816,-567.495
562708.537,4580814.780,-567.660
562708.537,4580614.744,-567.826
562708.537,4580414.708,-567.991
562708.537,4580214.671,-568.157
562708.537,4580014.635,-568.322
562708.537,4579814.599,-568.488
562708.537,4579614.563,-568.653
562708.537,4579414.527,-568.819
562708.537,4579214.491,-568.984
562708.537,4579014.454,-569.150
562708.537,4578814.418,-574.930
562708.537,4578614.382,-584.921
562708.537,4578414.346,-592.131
562708.537,4578214.310,-595.038
562708.537,4578014.274,-593.466
562708.537,4577814.238,-587.805
562708.537,4577614.201,-579.951
562708.537,4577414.165,-571.500
562708.537,4577214.129,-580.034
562708.537,4577014.093,-588.569
562708.537,4576814.057,-597.103
562708.537,4576614.021,-605.637
562708.537,4576413.984,-614.171
562708.537,4576213.948,-622.706
562708.537,4576013.912,-631.240
562708.537,4575813.876,-639.774
562708.537,4575613.840,-644.843
562708.537,4575413.804,-637.993
562708.537,4575213.767,-630.337
562708.537,4575013.731,-628.970
562708.537,4574813.695,-628.961
562708.537,4574613.659,-617.211
562708.537,4574413.623,-613.970
562708.537,4574213.587,-610.729
562708.537,4574013.550,-607.488
562708.537,4573813.514,-604.247
562708.537,4573613.478,-601.006
562708.537,4573413.442,-597.765
562708.537,4573213.406,-594.524
562708.537,4573013.370,-591.283
562708.537,4572813.333,-588.042
562708.537,4572613.297,-584.801
562708.537,4572413.261,-572.965
562908.618,4588216.118,-647.200
562908.618,4588016.082,-646.849
562908.618,4587816.046,-642.238
562908.618,4587616.010,-640.883
562908.618,4587415.973,-645.070
562908.618,4587215.937,-642.888
562908.618,4587015.901,-630.128
562908.618,4586815.865,-619.400
562908.618,4586615.829,-614.115
562908.618,4586415.793,-610.648
562908.618,4586215.756,-607.641
562908.618,4586015.720,-605.287
562908.618,4585815.684,-603.740
562908.618,4585615.648,-602.707
562908.618,4585415.612,-601.053
562908.618,4585215.576,-598.186
562908.618,4585015.539,-594.645
562908.618,4584815.503,-590.814
562908.618,4584615.467,-586.739
562908.618,4584415.431,-582.987
562908.618,4584215.395,-579.964
562908.618,4584015.359,-576.865
562908.618,4583815.322,-572.588
562908.618,4583615.286,-572.534
562908.618,4583415.250,-572.481
562908.618,4583215.214,-572.428
562908.618,4583015.178,-572.374
562908.618,4582815.142,-572.321
562908.618,4582615.105,-572.268
562908.618,4582415.069,-572.214
562908.618,4582215.033,-572.161
562908.618,4582014.997,-572.108
562908.618,4581814.961,-572.055
562908.618,4581614.925,-572.001
562908.618,4581414.888,-571.948
562908.618,4581214.852,-571.895
562908.618,4581014.816,-571.841
562908.618,4580814.780,-571.788
562908.618,4580614.744,-571.735
562908.618,4580414.708,-571.681
562908.618,4580214.671,-571.628
562908.618,4580014.635,-571.575
562908.618,4579814.599,-571.521
562908.618,4579614.563,-571.468
562908.618,4579414.527,-571.415
562908.618,4579214.491,-571.362
562908.618,4579014.454,-571.308
562908.618,4578814.418,-581.156
562908.618,4578614.382,-592.572
562908.618,4578414.346,-598.372
562908.618,4578214.310,-599.773
562908.618,4578014.274,-596.600
562908.618,4577814.238,-600.787
562908.618,4577614.201,-604.974
562908.618,4577414.165,-609.161
562908.618,4577214.129,-613.348
562908.618,4577014.093,-617.535
562908.618,4576814.057,-621.722
562908.618,4576614.021,-625.909
562908.618,4576413.984,-630.097
562908.618,4576213.948,-634.284
562908.618,4576013.912,-638.471
562908.618,4575813.876,-642.658
562908.618,4575613.840,-644.224
562908.618,4575413.804,-637.172
562908.618,4575213.767,-626.024
562908.618,4575013.731,-621.725
562908.618,4574813.695,-625.234
562908.618,4574613.659,-625.441
562908.618,4574413.623,-616.011
562908.618,4574213.587,-612.331
562908.618,4574013.550,-608.650
562908.618,4573813.514,-604.970
562908.618,4573613.478,-601.289
562908.618,4573413.442,-597.609
562908.618,4573213.406,-593.928
562908.618,4573013.370,-590.248
562908.618,4572813.333,-586.567
562908.618,4572613.297,-585.502
562908.618,4572413.261,-575.797
563108.698,4587816.046,-640.400
563108.698,4587616.010,-640.819
563108.698,4587415.973,-643.470
563108.698,4587215.937,-636.768
563108.698,4587015.901,-626.248
563108.698,4586815.865,-620.857
563108.698,4586615.829,-618.289
563108.698,4586415.793,-615.580
563108.698,4586215.756,-612.759
563108.698,4586015.720,-610.679
563108.698,4585815.684,-609.283
563108.698,4585615.648,-607.840
563108.698,4585415.612,-605.497
563108.698,4585215.576,-602.313
563108.698,4585015.539,-598.869
563108.698,4584815.503,-595.145
563108.698,4584615.467,-591.251
563108.698,4584415.431,-587.346
563108.698,4584215.395,-583.809
563108.698,4584015.359,-583.183
563108.698,4583815.322,-582.557
563108.698,4583615.286,-581.931
563108.698,4583415.250,-581.305
563108.698,4583215.214,-580.679
563108.698,4583015.178,-580.053
563108.698,4582815.142,-579.427
563108.698,4582615.105,-578.801
563108.698,4582415.069,-578.175
563108.698,4582215.033,-577.549
563108.698,4582014.997,-576.923
563108.698,4581814.961,-576.297
563108.698,4581614.925,-575.671
563108.698,4581414.888,-575.044
563108.698,4581214.852,-574.418
563108.698,4581014.816,-573.792
563108.698,4580814.780,-573.166
563108.698,4580614.744,-572.540
563108.698,4580414.708,-571.914
563108.698,4580214.671,-571.288
563108.698,4580014.635,-570.662
563108.698,4579814.599,-570.036
563108.698,4579614.563,-569.410
563108.698,4579414.527,-568.784
563108.698,4579214.491,-568.158
563108.698,4579014.454,-567.532
563108.698,4578814.418,-582.777
563108.698,4578614.382,-598.109
563108.698,4578414.346,-604.133
563108.698,4578214.310,-604.423
563108.698,4578014.274,-607.621
563108.698,4577814.238,-610.819
563108.698,4577614.201,-614.018
563108.698,4577414.165,-617.216
563108.698,4577214.129,-620.414
563108.698,4577014.093,-623.612
563108.698,4576814.057,-626.810
563108.698,4576614.021,-630.008
563108.698,4576413.984,-633.206
563108.698,4576213.948,-636.404
563108.698,4576013.912,-639.602
563108.698,4575813.876,-642.800
563108.698,4575613.840,-642.944
563108.698,4575413.804,-640.806
563108.698,4575213.767,-632.119
563108.698,4575013.731,-621.677
563108.698,4574813.695,-619.604
563108.698,4574613.659,-624.727
563108.698,4574413.623,-625.942
563108.698,4574213.587,-614.650
563108.698,4574013.550,-610.900
563108.698,4573813.514,-607.150
563108.698,4573613.478,-603.400
563108.698,4573413.442,-599.650
563108.698,4573213.406,-595.900
563108.698,4573013.370,-592.150
563108.698,4572813.333,-588.400
563108.698,4572613.297,-587.715
563108.698,4572413.261,-582.988
563308.779,4587215.937,-620.300
563308.779,4587015.901,-620.864
563308.779,4586815.865,-622.145
563308.779,4586615.829,-622.823
563308.779,4586415.793,-621.357
563308.779,4586215.756,-618.921
563308.779,4586015.720,-616.987
563308.779,4585815.684,-615.379
563308.779,4585615.648,-613.333
563308.779,4585415.612,-610.413
563308.779,4585215.576,-606.870
563308.779,4585015.539,-603.208
563308.779,4584815.503,-599.323
563308.779,4584615.467,-595.426
563308.779,4584415.431,-590.966
563308.779,4584215.395,-589.826
563308.779,4584015.359,-588.686
563308.779,4583815.322,-587.545
563308.779,4583615.286,-586.405
563308.779,4583415.250,-585.265
563308.779,4583215.214,-584.125
563308.779,4583015.178,-582.985
563308.779,4582815.142,-581.844
563308.779,4582615.105,-580.704
563308.779,4582415.069,-579.564
563308.779,4582215.033,-578.424
563308.779,4582014.997,-577.283
563308.779,4581814.961,-576.143
563308.779,4581614.925,-575.003
563308.779,4581414.888,-573.863
563308.779,4581214.852,-572.722
563308.779,4581014.816,-571.582
563308.779,4580814.780,-570.442
563308.779,4580614.744,-569.302
563308.779,4580414.708,-568.162
563308.779,4580214.671,-567.021
563308.779,4580014.635,-565.881
563308.779,4579814.599,-564.741
563308.779,4579614.563,-563.601
563308.779,4579414.527,-562.460
563308.779,4579214.491,-561.320
563308.779,4579014.454,-560.180
563308.779,4578814.418,-577.542
563308.779,4578614.382,-600.201
563308.779,4578414.346,-607.846
563308.779,4578214.310,-606.800
563508.859,4587015.901,-621.800
563508.859,4586815.865,-625.455
563508.859,4586615.829,-627.833
563508.859,4586415.793,-627.024
563508.859,4586215.756,-625.148
563508.859,4586015.720,-623.500
563508.859,4585815.684,-621.584
563508.859,4585615.648,-618.801
563508.859,4585415.612,-615.425
563508.859,4585215.576,-611.610
563508.859,4585015.539,-607.506
563508.859,4584815.503,-603.238
563508.859,4584615.467,-601.405
563508.859,4584415.431,-599.572
563508.859,4584215.395,-597.739
563508.859,4584015.359,-595.906
563508.859,4583815.322,-594.073
563508.859,4583615.286,-592.241
563508.859,4583415.250,-590.408
563508.859,4583215.214,-588.575
563508.859,4583015.178,-586.742
563508.859,4582815.142,-584.909
563508.859,4582615.105,-583.076
563508.859,4582415.069,-581.243
563508.859,4582215.033,-579.410
563508.859,4582014.997,-577.577
563508.859,4581814.961,-575.744
563508.859,4581614.925,-573.911
563508.859,4581414.888,-572.078
563508.859,4581214.852,-570.245
563508.859,4581014.816,-568.413
563508.859,4580814.780,-566.580
563508.859,4580614.744,-564.747
563508.859,4580414.708,-562.914
563508.859,4580214.671,-561.081
563508.859,4580014.635,-559.248
563508.859,4579814.599,-557.415
563508.859,4579614.563,-555.582
563508.859,4579414.527,-553.749
563508.859,4579214.491,-551.916
563508.859,4579014.454,-555.028
563508.859,4578814.418,-569.873
563508.859,4578614.382,-603.394
563508.859,4578414.346,-610.403
563708.939,4586815.865,-632.259
563708.939,4586615.829,-631.811
563708.939,4586415.793,-630.882
563708.939,4586215.756,-629.987
563708.939,4586015.720,-628.785
563708.939,4585815.684,-626.619
563708.939,4585615.648,-623.290
563708.939,4585415.612,-619.479
563708.939,4585215.576,-615.493
563708.939,4585015.539,-611.210
563708.939,4584815.503,-607.017
563708.939,4584615.467,-607.168
563708.939,4584415.431,-607.319
563708.939,4584215.395,-607.470
563708.939,4584015.359,-607.621
563708.939,4583815.322,-607.772
563708.939,4583615.286,-607.924
563708.939,4583415.250,-608.075
563708.939,4583215.214,-608.226
563708.939,4583015.178,-608.377
563708.939,4582815.142,-608.528
563708.939,4582615.105,-608.679
563708.939,4582415.069,-608.830
563708.939,4582215.033,-608.981
563708.939,4582014.997,-609.132
563708.939,4581814.961,-609.283
563708.939,4581614.925,-609.434
563708.939,4581414.888,-609.585
563708.939,4581214.852,-609.736
563708.939,4581014.816,-609.887
563708.939,4580814.780,-610.038
563708.939,4580614.744,-610.189
563708.939,4580414.708,-610.340
563708.939,4580214.671,-610.492
563708.939,4580014.635,-610.643
563708.939,4579814.599,-610.794
563708.939,4579614.563,-610.945
563708.939,4579414.527,-611.096
563708.939,4579214.491,-611.247
563708.939,4579014.454,-611.398
563708.939,4578814.418,-611.549
563708.939,4578614.382,-611.700
563708.939,4578414.346,-611.700
563909.020,4586815.865,-632.400
563909.020,4586615.829,-632.409
563909.020,4586415.793,-632.350
563909.020,4586215.756,-632.357
563909.020,4586015.720,-631.699
563909.020,4585815.684,-629.692
563909.020,4585615.648,-626.358
563909.020,4585415.612,-622.347
563909.020,4585215.576,-618.310
563909.020,4585015.539,-614.222
564109.100,4586615.829,-632.500
564109.100,4586415.793,-632.572
564109.100,4586215.756,-632.810
564109.100,4586015.720,-632.213
564109.100,4585815.684,-630.695
564109.100,4585615.648,-627.814
564109.100,4585415.612,-623.872
564109.100,4585215.576,-620.102
564109.100,4585015.539,-616.760
564309.181,4586015.720,-630.700
564309.181,4585815.684,-630.562
564309.181,4585615.648,-627.374
564309.181,4585415.612,-623.566
564309.181,4585215.576,-620.376
564309.181,4585015.539,-618.215
564509.261,4585615.648,-622.000
564509.261,4585415.612,-621.933
564509.261,4585215.576,-619.115
564709.341,4585215.576,-613.200
