509235.250,4281305.500,-205.112
509235.250,4281205.500,-191.293
509235.250,4281105.500,-167.854
509335.250,4283605.500,-684.921
509335.250,4283505.500,-637.846
509335.250,4283405.500,-591.545
509335.250,4283305.500,-543.792
509335.250,4283205.500,-493.172
509335.250,4283105.500,-432.275
509335.250,4283005.500,-362.498
509335.250,4282905.500,-309.575
509335.250,4282805.500,-269.711
509335.250,4282705.500,-218.406
509335.250,4282605.500,-182.742
509335.250,4282505.500,-161.422
509335.250,4281905.500,-167.736
509335.250,4281805.500,-209.566
509335.250,4281705.500,-236.892
509335.250,4281605.500,-236.030
509335.250,4281505.500,-233.095
509335.250,4281405.500,-227.183
509335.250,4281305.500,-218.300
509335.250,4281205.500,-199.302
509335.250,4281105.500,-174.187
509335.250,4281005.500,-157.856
509435.250,4283605.500,-687.299
509435.250,4283505.500,-641.903
509435.250,4283405.500,-594.330
509435.250,4283305.500,-542.788
509435.250,4283205.500,-488.091
509435.250,4283105.500,-430.391
509435.250,4283005.500,-376.197
509435.250,4282905.500,-339.189
509435.250,4282805.500,-292.862
509435.250,4282705.500,-238.816
509435.250,4282605.500,-193.886
509435.250,4282005.500,-161.263
509435.250,4281905.500,-178.659
509435.250,4281805.500,-220.147
509435.250,4281705.500,-234.892
509435.250,4281605.500,-235.766
509435.250,4281505.500,-235.388
509435.250,4281405.500,-233.825
509435.250,4281305.500,-231.925
509435.250,4281205.500,-222.394
509435.250,4281105.500,-196.624
509435.250,4281005.500,-167.347
509535.250,4283605.500,-689.887
509535.250,4283505.500,-655.409
509535.250,4283405.500,-610.574
509535.250,4283305.500,-563.884
509535.250,4283205.500,-519.153
509535.250,4283105.500,-475.241
509535.250,4283005.500,-434.338
509535.250,4282905.500,-388.646
509535.250,4282805.500,-341.034
509535.250,4282705.500,-289.932
509535.250,4282605.500,-237.203
509535.250,4282505.500,-186.487
509535.250,4282205.500,-163.291
509535.250,4282105.500,-173.677
509535.250,4282005.500,-176.095
509535.250,4281905.500,-188.208
509535.250,4281805.500,-213.144
509535.250,4281705.500,-218.304
509535.250,4281605.500,-218.624
509535.250,4281505.500,-230.831
509535.250,4281405.500,-233.591
509535.250,4281305.500,-233.430
509535.250,4281205.500,-227.848
509535.250,4281105.500,-209.841
509535.250,4281005.500,-180.895
509635.250,4283505.500,-669.638
509635.250,4283405.500,-627.669
509635.250,4283305.500,-587.948
509635.250,4283205.500,-547.772
509635.250,4283105.500,-507.926
509635.250,4283005.500,-463.686
509635.250,4282905.500,-413.189
509635.250,4282805.500,-363.050
509635.250,4282705.500,-307.213
509635.250,4282605.500,-248.944
509635.250,4282505.500,-194.331
509635.250,4282305.500,-164.108
509635.250,4282205.500,-176.505
509635.250,4282105.500,-209.855
509635.250,4282005.500,-231.510
509635.250,4281905.500,-220.595
509635.250,4281805.500,-235.595
509635.250,4281705.500,-252.695
509635.250,4281605.500,-207.057
509635.250,4281505.500,-213.330
509635.250,4281405.500,-217.294
509635.250,4281305.500,-224.812
509635.250,4281205.500,-220.764
509635.250,4281105.500,-207.827
509635.250,4281005.500,-183.677
509735.250,4283505.500,-674.300
509735.250,4283405.500,-639.145
509735.250,4283305.500,-604.825
509735.250,4283205.500,-568.591
509735.250,4283105.500,-530.288
509735.250,4283005.500,-475.780
509735.250,4282905.500,-407.238
509735.250,4282805.500,-357.770
509735.250,4282705.500,-291.398
509735.250,4282605.500,-234.321
509735.250,4282505.500,-192.998
509735.250,4282405.500,-171.662
509735.250,4282305.500,-166.077
509735.250,4282205.500,-195.900
509735.250,4282105.500,-237.646
509735.250,4282005.500,-262.220
509735.250,4281905.500,-255.099
509735.250,4281805.500,-253.682
509735.250,4281705.500,-254.148
509735.250,4281605.500,-233.492
509735.250,4281505.500,-202.443
509735.250,4281405.500,-206.658
509735.250,4281305.500,-213.057
509735.250,4281205.500,-212.133
509735.250,4281105.500,-201.514
509735.250,4281005.500,-183.982
509835.250,4283505.500,-686.608
509835.250,4283405.500,-657.190
509835.250,4283305.500,-623.957
509835.250,4283205.500,-587.626
509835.250,4283105.500,-544.804
509835.250,4283005.500,-494.013
509835.250,4282905.500,-439.401
509835.250,4282805.500,-386.729
509835.250,4282705.500,-325.002
509835.250,4282605.500,-268.360
509835.250,4282505.500,-243.018
509835.250,4282405.500,-220.273
509835.250,4282305.500,-208.427
509835.250,4282205.500,-235.057
509835.250,4282105.500,-272.152
509835.250,4282005.500,-286.979
509835.250,4281905.500,-275.164
509835.250,4281805.500,-255.976
509835.250,4281705.500,-242.108
509835.250,4281605.500,-235.223
509835.250,4281505.500,-196.680
509835.250,4281405.500,-201.074
509835.250,4281305.500,-195.130
509835.250,4281205.500,-201.055
509835.250,4281105.500,-190.573
509835.250,4281005.500,-176.558
509935.250,4283505.500,-696.470
509935.250,4283405.500,-671.717
509935.250,4283305.500,-637.189
509935.250,4283205.500,-598.836
509935.250,4283105.500,-557.778
509935.250,4283005.500,-514.085
509935.250,4282905.500,-471.558
509935.250,4282805.500,-428.072
509935.250,4282705.500,-379.923
509935.250,4282605.500,-327.409
509935.250,4282505.500,-302.342
509935.250,4282405.500,-293.779
509935.250,4282305.500,-283.736
509935.250,4282205.500,-310.290
509935.250,4282105.500,-325.177
509935.250,4282005.500,-311.016
509935.250,4281905.500,-276.808
509935.250,4281805.500,-246.194
509935.250,4281705.500,-219.493
509935.250,4281605.500,-219.233
509935.250,4281505.500,-188.004
509935.250,4281405.500,-177.977
509935.250,4281305.500,-181.101
509935.250,4281205.500,-188.364
509935.250,4281105.500,-184.274
509935.250,4281005.500,-176.822
509935.250,4280905.500,-163.576
509935.250,4278605.500,-154.040
509935.250,4278505.500,-159.808
510035.250,4283405.500,-679.233
510035.250,4283305.500,-645.552
510035.250,4283205.500,-607.344
510035.250,4283105.500,-570.014
510035.250,4283005.500,-531.326
510035.250,4282905.500,-493.699
510035.250,4282805.500,-458.045
510035.250,4282705.500,-421.564
510035.250,4282605.500,-381.324
510035.250,4282505.500,-357.067
510035.250,4282405.500,-352.568
510035.250,4282305.500,-359.515
510035.250,4282205.500,-363.978
510035.250,4282105.500,-357.083
510035.250,4282005.500,-314.406
510035.250,4281905.500,-264.880
510035.250,4281805.500,-236.838
510035.250,4281705.500,-218.628
510035.250,4281605.500,-215.028
510035.250,4281505.500,-214.077
510035.250,4281405.500,-184.078
510035.250,4281305.500,-184.439
510035.250,4281205.500,-206.295
510035.250,4281105.500,-203.194
510035.250,4281005.500,-186.038
510035.250,4278905.500,-154.560
510035.250,4278805.500,-153.922
510035.250,4278705.500,-167.664
510035.250,4278605.500,-172.043
510035.250,4278505.500,-173.193
510135.250,4283405.500,-683.178
510135.250,4283305.500,-651.374
510135.250,4283205.500,-615.196
510135.250,4283105.500,-580.220
510135.250,4283005.500,-544.302
510135.250,4282905.500,-510.697
510135.250,4282805.500,-479.162
510135.250,4282705.500,-457.996
510135.250,4282605.500,-437.069
510135.250,4282505.500,-408.187
510135.250,4282405.500,-406.057
510135.250,4282305.500,-408.168
510135.250,4282205.500,-397.944
510135.250,4282105.500,-368.543
510135.250,4282005.500,-321.461
510135.250,4281905.500,-284.093
510135.250,4281805.500,-270.990
510135.250,4281705.500,-255.356
510135.250,4281605.500,-233.988
510135.250,4281505.500,-240.487
510135.250,4281405.500,-246.263
510135.250,4281305.500,-219.253
510135.250,4281205.500,-226.258
510135.250,4281105.500,-208.945
510135.250,4281005.500,-177.721
510135.250,4278805.500,-161.243
510135.250,4278705.500,-173.726
510135.250,4278605.500,-191.741
510135.250,4278505.500,-183.355
510135.250,4278405.500,-162.734
510235.250,4283405.500,-686.107
510235.250,4283305.500,-654.501
510235.250,4283205.500,-620.684
510235.250,4283105.500,-587.077
510235.250,4283005.500,-555.931
510235.250,4282905.500,-529.563
510235.250,4282805.500,-510.985
510235.250,4282705.500,-496.457
510235.250,4282605.500,-478.772
510235.250,4282505.500,-457.273
510235.250,4282405.500,-445.814
510235.250,4282305.500,-437.893
510235.250,4282205.500,-415.944
510235.250,4282105.500,-382.722
510235.250,4282005.500,-345.509
510235.250,4281905.500,-325.177
510235.250,4281805.500,-326.428
510235.250,4281705.500,-310.613
510235.250,4281605.500,-292.476
510235.250,4281505.500,-282.684
510235.250,4281405.500,-267.094
510235.250,4281305.500,-256.857
510235.250,4281205.500,-238.302
510235.250,4281105.500,-208.742
510235.250,4281005.500,-169.560
510235.250,4278805.500,-161.233
510235.250,4278705.500,-196.596
510235.250,4278605.500,-211.893
510235.250,4278505.500,-207.469
510235.250,4278405.500,-176.077
510335.250,4283405.500,-684.018
510335.250,4283305.500,-655.231
510335.250,4283205.500,-626.918
510335.250,4283105.500,-599.293
510335.250,4283005.500,-574.014
510335.250,4282905.500,-552.207
510335.250,4282805.500,-538.108
510335.250,4282705.500,-527.900
510335.250,4282605.500,-517.324
510335.250,4282505.500,-500.243
510335.250,4282405.500,-478.373
510335.250,4282305.500,-459.363
510335.250,4282205.500,-426.976
510335.250,4282105.500,-399.856
510335.250,4282005.500,-390.991
510335.250,4281905.500,-377.765
510335.250,4281805.500,-362.046
510335.250,4281705.500,-339.730
510335.250,4281605.500,-316.319
510335.250,4281505.500,-301.583
510335.250,4281405.500,-273.043
510335.250,4281305.500,-253.438
510335.250,4281205.500,-236.305
510335.250,4281105.500,-190.498
510335.250,4278805.500,-152.481
510335.250,4278705.500,-195.495
510335.250,4278605.500,-230.091
510335.250,4278505.500,-223.093
510335.250,4278405.500,-183.012
510435.250,4283505.500,-698.059
510435.250,4283405.500,-678.893
510435.250,4283305.500,-652.668
510435.250,4283205.500,-628.783
510435.250,4283105.500,-605.641
510435.250,4283005.500,-588.417
510435.250,4282905.500,-584.915
510435.250,4282805.500,-572.981
510435.250,4282705.500,-557.142
510435.250,4282605.500,-538.687
510435.250,4282505.500,-517.802
510435.250,4282405.500,-495.772
510435.250,4282305.500,-473.105
510435.250,4282205.500,-451.597
510435.250,4282105.500,-432.843
510435.250,4282005.500,-415.522
510435.250,4281905.500,-391.317
510435.250,4281805.500,-367.105
510435.250,4281705.500,-332.994
510435.250,4281605.500,-301.230
510435.250,4281505.500,-265.221
510435.250,4281405.500,-242.792
510435.250,4281305.500,-238.364
510435.250,4281205.500,-224.778
510435.250,4281105.500,-184.420
510435.250,4278905.500,-177.915
510435.250,4278805.500,-207.697
510435.250,4278705.500,-248.970
510435.250,4278605.500,-259.657
510435.250,4278505.500,-228.897
510435.250,4276205.500,-158.195
510535.250,4283305.500,-672.849
510535.250,4283205.500,-660.733
510535.250,4283105.500,-641.877
510535.250,4283005.500,-623.025
510535.250,4282905.500,-606.837
510535.250,4282805.500,-585.160
510535.250,4282705.500,-562.812
510535.250,4282605.500,-541.381
510535.250,4282505.500,-519.239
510535.250,4282405.500,-497.728
510535.250,4282305.500,-477.419
510535.250,4282205.500,-459.418
510535.250,4282105.500,-441.113
510535.250,4282005.500,-417.290
510535.250,4281905.500,-377.917
510535.250,4281805.500,-346.175
510535.250,4281705.500,-299.355
510535.250,4281605.500,-267.875
510535.250,4281505.500,-231.860
510535.250,4281405.500,-213.802
510535.250,4281305.500,-221.189
510535.250,4279905.500,-150.540
510535.250,4279805.500,-187.932
510535.250,4279705.500,-192.554
510535.250,4279605.500,-181.420
510535.250,4279505.500,-177.132
510535.250,4279005.500,-175.271
510535.250,4278905.500,-222.241
510535.250,4278805.500,-231.605
510535.250,4278705.500,-269.022
510535.250,4278605.500,-280.832
510535.250,4278505.500,-233.779
510535.250,4278405.500,-176.807
510535.250,4276905.500,-154.330
510535.250,4276805.500,-155.248
510535.250,4276705.500,-159.802
510535.250,4276605.500,-158.038
510535.250,4276305.500,-168.115
510535.250,4276205.500,-165.615
510635.250,4283305.500,-690.150
510635.250,4283205.500,-675.761
510635.250,4283105.500,-654.442
510635.250,4283005.500,-630.107
510635.250,4282905.500,-609.584
510635.250,4282805.500,-586.078
510635.250,4282705.500,-563.278
510635.250,4282605.500,-541.922
510635.250,4282505.500,-522.572
510635.250,4282405.500,-503.211
510635.250,4282305.500,-483.601
510635.250,4282205.500,-464.690
510635.250,4282105.500,-435.959
510635.250,4282005.500,-404.621
510635.250,4281905.500,-364.952
510635.250,4281805.500,-310.723
510635.250,4281705.500,-260.721
510635.250,4281605.500,-218.824
510635.250,4281505.500,-189.126
510635.250,4280005.500,-165.679
510635.250,4279905.500,-170.895
510635.250,4279805.500,-196.558
510635.250,4279705.500,-193.038
510635.250,4279605.500,-181.724
510635.250,4279505.500,-179.465
510635.250,4279405.500,-177.603
510635.250,4279005.500,-209.581
510635.250,4278905.500,-230.889
510635.250,4278805.500,-247.156
510635.250,4278705.500,-290.568
510635.250,4278605.500,-283.760
510635.250,4278505.500,-235.942
510635.250,4278405.500,-178.576
510635.250,4276905.500,-159.698
510635.250,4276805.500,-189.272
510635.250,4276705.500,-195.556
510635.250,4276605.500,-193.006
510635.250,4276505.500,-172.261
510635.250,4276405.500,-194.108
510635.250,4276305.500,-207.661
510635.250,4276205.500,-167.443
510735.250,4283305.500,-693.980
510735.250,4283205.500,-675.852
510735.250,4283105.500,-654.102
510735.250,4283005.500,-629.674
510735.250,4282905.500,-607.331
510735.250,4282805.500,-585.678
510735.250,4282705.500,-564.366
510735.250,4282605.500,-546.321
510735.250,4282505.500,-529.507
510735.250,4282405.500,-508.465
510735.250,4282305.500,-480.652
510735.250,4282205.500,-452.199
510735.250,4282105.500,-414.632
510735.250,4282005.500,-377.625
510735.250,4281905.500,-337.973
510735.250,4281805.500,-281.076
510735.250,4281705.500,-230.287
510735.250,4280005.500,-167.243
510735.250,4279905.500,-187.010
510735.250,4279805.500,-200.817
510735.250,4279705.500,-206.458
510735.250,4279605.500,-209.878
510735.250,4279505.500,-189.457
510735.250,4279405.500,-167.983
510735.250,4279105.500,-160.202
510735.250,4279005.500,-198.308
510735.250,4278905.500,-224.021
510735.250,4278805.500,-256.885
510735.250,4278705.500,-308.373
510735.250,4278605.500,-300.990
510735.250,4278505.500,-249.501
510735.250,4278405.500,-198.530
510735.250,4278305.500,-170.142
510735.250,4278205.500,-157.990
510735.250,4276905.500,-187.935
510735.250,4276805.500,-213.089
510735.250,4276705.500,-224.198
510735.250,4276605.500,-219.285
510735.250,4276505.500,-215.772
510735.250,4276405.500,-231.833
510735.250,4276305.500,-234.073
510735.250,4276205.500,-191.805
510835.250,4283405.500,-696.976
510835.250,4283305.500,-687.658
510835.250,4283205.500,-669.426
510835.250,4283105.500,-649.451
510835.250,4283005.500,-626.224
510835.250,4282905.500,-603.438
510835.250,4282805.500,-584.439
510835.250,4282705.500,-567.524
510835.250,4282605.500,-542.738
510835.250,4282505.500,-515.933
510835.250,4282405.500,-492.589
510835.250,4282305.500,-460.488
510835.250,4282205.500,-426.494
510835.250,4282105.500,-392.417
510835.250,4282005.500,-353.296
510835.250,4281905.500,-304.833
510835.250,4281805.500,-268.368
510835.250,4281705.500,-219.078
510835.250,4280005.500,-168.950
510835.250,4279905.500,-204.351
510835.250,4279805.500,-226.376
510835.250,4279705.500,-233.649
510835.250,4279605.500,-231.131
510835.250,4279505.500,-210.374
510835.250,4279405.500,-169.899
510835.250,4279205.500,-151.507
510835.250,4279105.500,-163.848
510835.250,4279005.500,-188.988
510835.250,4278905.500,-217.311
510835.250,4278805.500,-251.771
510835.250,4278705.500,-315.379
510835.250,4278605.500,-324.097
510835.250,4278505.500,-272.119
510835.250,4278405.500,-225.977
510835.250,4278305.500,-200.402
510835.250,4278205.500,-177.714
510835.250,4278105.500,-159.610
510835.250,4277905.500,-152.170
510835.250,4276905.500,-177.239
510835.250,4276805.500,-207.078
510835.250,4276705.500,-231.058
510835.250,4276605.500,-230.109
510835.250,4276505.500,-213.506
510835.250,4276405.500,-240.030
510835.250,4276305.500,-217.477
510835.250,4276205.500,-187.734
510835.250,4276105.500,-167.210
510935.250,4283605.500,-697.240
510935.250,4283505.500,-685.041
510935.250,4283405.500,-670.504
510935.250,4283305.500,-661.883
510935.250,4283205.500,-654.207
510935.250,4283105.500,-641.327
510935.250,4283005.500,-618.431
510935.250,4282905.500,-593.870
510935.250,4282805.500,-574.307
510935.250,4282705.500,-551.142
510935.250,4282605.500,-524.475
510935.250,4282505.500,-494.305
510935.250,4282405.500,-466.328
510935.250,4282305.500,-430.398
510935.250,4282205.500,-397.353
510935.250,4282105.500,-355.934
510935.250,4282005.500,-323.627
510935.250,4281905.500,-287.451
510935.250,4281805.500,-237.483
510935.250,4280105.500,-157.499
510935.250,4280005.500,-177.903
510935.250,4279905.500,-204.762
510935.250,4279805.500,-244.000
510935.250,4279705.500,-258.722
510935.250,4279605.500,-254.086
510935.250,4279505.500,-236.301
510935.250,4279405.500,-206.962
510935.250,4279305.500,-188.413
510935.250,4279205.500,-187.930
510935.250,4279105.500,-200.895
510935.250,4279005.500,-220.832
510935.250,4278905.500,-241.491
510935.250,4278805.500,-267.209
510935.250,4278705.500,-326.480
510935.250,4278605.500,-343.529
510935.250,4278505.500,-303.215
510935.250,4278405.500,-260.242
510935.250,4278305.500,-218.807
510935.250,4278205.500,-181.323
510935.250,4278105.500,-190.401
510935.250,4278005.500,-184.224
510935.250,4277905.500,-170.933
510935.250,4277705.500,-175.483
510935.250,4277005.500,-150.332
510935.250,4276905.500,-165.488
510935.250,4276805.500,-194.595
510935.250,4276705.500,-233.476
510935.250,4276605.500,-250.405
510935.250,4276505.500,-243.681
510935.250,4276405.500,-253.686
510935.250,4276305.500,-211.602
510935.250,4276205.500,-173.473
510935.250,4276105.500,-158.213
511035.250,4283605.500,-697.917
511035.250,4283505.500,-686.197
511035.250,4283405.500,-671.280
511035.250,4283305.500,-663.020
511035.250,4283205.500,-647.523
511035.250,4283105.500,-622.391
511035.250,4283005.500,-601.765
511035.250,4282905.500,-578.968
511035.250,4282805.500,-554.985
511035.250,4282705.500,-533.182
511035.250,4282605.500,-508.304
511035.250,4282505.500,-476.306
511035.250,4282405.500,-430.677
511035.250,4282305.500,-382.506
511035.250,4282205.500,-348.747
511035.250,4282105.500,-305.133
511035.250,4282005.500,-262.392
511035.250,4281905.500,-228.658
511035.250,4281805.500,-180.742
511035.250,4280205.500,-161.687
511035.250,4280105.500,-170.298
511035.250,4280005.500,-193.723
511035.250,4279905.500,-231.421
511035.250,4279805.500,-258.634
511035.250,4279705.500,-281.466
511035.250,4279605.500,-280.289
511035.250,4279505.500,-274.522
511035.250,4279405.500,-258.195
511035.250,4279305.500,-244.218
511035.250,4279205.500,-245.014
511035.250,4279105.500,-257.013
511035.250,4279005.500,-270.167
511035.250,4278905.500,-276.939
511035.250,4278805.500,-292.807
511035.250,4278705.500,-345.335
511035.250,4278605.500,-359.463
511035.250,4278505.500,-330.874
511035.250,4278405.500,-268.983
511035.250,4278305.500,-218.911
511035.250,4278205.500,-180.049
511035.250,4278105.500,-213.794
511035.250,4278005.500,-228.565
511035.250,4277905.500,-191.585
511035.250,4277805.500,-191.100
511035.250,4277705.500,-187.816
511035.250,4277005.500,-153.011
511035.250,4276905.500,-169.194
511035.250,4276805.500,-195.740
511035.250,4276705.500,-225.407
511035.250,4276605.500,-260.196
511035.250,4276505.500,-272.343
511035.250,4276405.500,-267.600
511035.250,4276305.500,-217.673
511035.250,4276205.500,-194.521
511035.250,4276105.500,-176.708
511035.250,4276005.500,-158.332
511135.250,4283405.500,-683.793
511135.250,4283305.500,-660.540
511135.250,4283205.500,-635.395
511135.250,4283105.500,-613.673
511135.250,4283005.500,-595.509
511135.250,4282905.500,-573.900
511135.250,4282805.500,-540.616
511135.250,4282705.500,-518.875
511135.250,4282605.500,-489.417
511135.250,4282505.500,-445.550
511135.250,4282405.500,-387.540
511135.250,4282305.500,-338.260
511135.250,4282205.500,-298.480
511135.250,4282105.500,-261.665
511135.250,4282005.500,-220.158
511135.250,4280305.500,-159.783
511135.250,4280205.500,-183.127
511135.250,4280105.500,-207.240
511135.250,4280005.500,-226.351
511135.250,4279905.500,-252.356
511135.250,4279805.500,-277.632
511135.250,4279705.500,-303.173
511135.250,4279605.500,-304.793
511135.250,4279505.500,-313.794
511135.250,4279405.500,-305.595
511135.250,4279305.500,-299.698
511135.250,4279205.500,-301.511
511135.250,4279105.500,-301.662
511135.250,4279005.500,-307.642
511135.250,4278905.500,-310.788
511135.250,4278805.500,-316.046
511135.250,4278705.500,-350.585
511135.250,4278605.500,-376.445
511135.250,4278505.500,-354.055
511135.250,4278405.500,-288.202
511135.250,4278305.500,-231.831
511135.250,4278205.500,-194.938
511135.250,4278105.500,-229.468
511135.250,4278005.500,-262.744
511135.250,4277905.500,-226.382
511135.250,4277805.500,-229.027
511135.250,4277705.500,-178.222
511135.250,4277305.500,-155.614
511135.250,4277205.500,-165.930
511135.250,4277105.500,-160.741
511135.250,4277005.500,-155.140
511135.250,4276905.500,-172.030
511135.250,4276805.500,-200.495
511135.250,4276705.500,-224.823
511135.250,4276605.500,-258.634
511135.250,4276505.500,-284.917
511135.250,4276405.500,-286.098
511135.250,4276305.500,-244.477
511135.250,4276205.500,-225.725
511135.250,4276105.500,-202.375
511135.250,4276005.500,-182.442
511135.250,4275905.500,-164.604
511135.250,4275605.500,-150.605
511235.250,4283505.500,-691.636
511235.250,4283405.500,-674.262
511235.250,4283305.500,-652.298
511235.250,4283205.500,-629.577
511235.250,4283105.500,-608.850
511235.250,4283005.500,-586.526
511235.250,4282905.500,-558.713
511235.250,4282805.500,-512.876
511235.250,4282705.500,-475.451
511235.250,4282605.500,-445.255
511235.250,4282505.500,-402.822
511235.250,4282405.500,-358.911
511235.250,4282305.500,-315.273
511235.250,4282205.500,-271.898
511235.250,4282105.500,-229.020
511235.250,4282005.500,-182.072
511235.250,4281705.500,-241.327
511235.250,4281605.500,-221.913
511235.250,4280405.500,-167.831
511235.250,4280305.500,-178.706
511235.250,4280205.500,-201.742
511235.250,4280105.500,-230.013
511235.250,4280005.500,-254.652
511235.250,4279905.500,-276.096
511235.250,4279805.500,-295.458
511235.250,4279705.500,-322.948
511235.250,4279605.500,-328.154
511235.250,4279505.500,-337.988
511235.250,4279405.500,-342.402
511235.250,4279305.500,-339.888
511235.250,4279205.500,-338.957
511235.250,4279105.500,-331.063
511235.250,4279005.500,-337.197
511235.250,4278905.500,-337.646
511235.250,4278805.500,-339.754
511235.250,4278705.500,-357.290
511235.250,4278605.500,-389.619
511235.250,4278505.500,-379.802
511235.250,4278405.500,-305.313
511235.250,4278305.500,-246.383
511235.250,4278205.500,-218.854
511235.250,4278105.500,-257.041
511235.250,4278005.500,-290.821
511235.250,4277905.500,-271.043
511235.250,4277805.500,-232.913
511235.250,4277305.500,-168.892
511235.250,4277205.500,-190.420
511235.250,4277105.500,-179.281
511235.250,4277005.500,-171.498
511235.250,4276905.500,-178.042
511235.250,4276805.500,-199.466
511235.250,4276705.500,-228.891
511235.250,4276605.500,-263.270
511235.250,4276505.500,-295.714
511235.250,4276405.500,-304.546
511235.250,4276305.500,-276.164
511235.250,4276205.500,-251.829
511235.250,4276105.500,-224.844
511235.250,4276005.500,-196.953
511235.250,4275905.500,-167.356
511235.250,4275805.500,-153.295
511235.250,4275705.500,-153.260
511235.250,4275605.500,-159.871
511235.250,4275505.500,-160.271
511235.250,4274105.500,-162.210
511335.250,4283505.500,-692.964
511335.250,4283405.500,-671.589
511335.250,4283305.500,-647.268
511335.250,4283205.500,-623.408
511335.250,4283105.500,-596.364
511335.250,4283005.500,-562.975
511335.250,4282905.500,-519.524
511335.250,4282805.500,-466.572
511335.250,4282705.500,-420.819
511335.250,4282605.500,-394.628
511335.250,4282505.500,-367.592
511335.250,4282405.500,-334.521
511335.250,4282305.500,-295.456
511335.250,4282205.500,-255.120
511335.250,4282105.500,-208.844
511335.250,4281605.500,-234.485
511335.250,4280605.500,-163.488
511335.250,4280505.500,-167.842
511335.250,4280405.500,-185.917
511335.250,4280305.500,-210.274
511335.250,4280205.500,-228.346
511335.250,4280105.500,-257.382
511335.250,4280005.500,-266.304
511335.250,4279905.500,-286.573
511335.250,4279805.500,-315.635
511335.250,4279705.500,-340.101
511335.250,4279605.500,-351.977
511335.250,4279505.500,-358.799
511335.250,4279405.500,-370.832
511335.250,4279305.500,-368.363
511335.250,4279205.500,-364.965
511335.250,4279105.500,-354.658
511335.250,4279005.500,-361.790
511335.250,4278905.500,-362.568
511335.250,4278805.500,-367.475
511335.250,4278705.500,-376.826
511335.250,4278605.500,-404.673
511335.250,4278505.500,-402.124
511335.250,4278405.500,-319.806
511335.250,4278305.500,-265.980
511335.250,4278205.500,-258.049
511335.250,4278105.500,-304.189
511335.250,4278005.500,-315.304
511335.250,4277905.500,-272.098
511335.250,4277805.500,-204.450
511335.250,4277705.500,-174.620
511335.250,4277605.500,-158.273
511335.250,4277405.500,-156.215
511335.250,4277305.500,-172.151
511335.250,4277205.500,-205.255
511335.250,4277105.500,-209.124
511335.250,4277005.500,-195.498
511335.250,4276905.500,-192.897
511335.250,4276805.500,-190.924
511335.250,4276705.500,-219.335
511335.250,4276605.500,-257.829
511335.250,4276505.500,-297.362
511335.250,4276405.500,-317.221
511335.250,4276305.500,-298.773
511335.250,4276205.500,-263.642
511335.250,4276105.500,-229.779
511335.250,4276005.500,-190.922
511335.250,4275905.500,-166.172
511335.250,4275805.500,-165.966
511335.250,4275705.500,-164.134
511335.250,4275605.500,-176.662
511335.250,4275505.500,-172.823
511335.250,4274805.500,-157.118
511335.250,4274705.500,-165.685
511335.250,4274105.500,-170.218
511435.250,4283605.500,-697.520
511435.250,4283505.500,-689.045
511435.250,4283405.500,-665.523
511435.250,4283305.500,-633.833
511435.250,4283205.500,-598.278
511435.250,4283105.500,-562.076
511435.250,4283005.500,-520.561
511435.250,4282905.500,-477.922
511435.250,4282805.500,-428.344
511435.250,4282705.500,-376.551
511435.250,4282605.500,-349.862
511435.250,4282505.500,-331.095
511435.250,4282405.500,-304.497
511435.250,4282305.500,-268.585
511435.250,4282205.500,-232.504
511435.250,4282105.500,-193.800
511435.250,4280805.500,-159.381
511435.250,4280705.500,-166.218
511435.250,4280605.500,-186.115
511435.250,4280505.500,-195.425
511435.250,4280405.500,-209.127
511435.250,4280305.500,-240.213
511435.250,4280205.500,-256.006
511435.250,4280105.500,-292.371
511435.250,4280005.500,-296.362
511435.250,4279905.500,-303.505
511435.250,4279805.500,-320.101
511435.250,4279705.500,-354.308
511435.250,4279605.500,-374.582
511435.250,4279505.500,-380.134
511435.250,4279405.500,-392.044
511435.250,4279305.500,-397.639
511435.250,4279205.500,-385.734
511435.250,4279105.500,-379.767
511435.250,4279005.500,-384.849
511435.250,4278905.500,-386.751
511435.250,4278805.500,-390.472
511435.250,4278705.500,-399.701
511435.250,4278605.500,-425.215
511435.250,4278505.500,-425.211
511435.250,4278405.500,-343.659
511435.250,4278305.500,-303.355
511435.250,4278205.500,-305.550
511435.250,4278105.500,-351.002
511435.250,4278005.500,-313.672
511435.250,4277905.500,-255.399
511435.250,4277805.500,-202.400
511435.250,4277705.500,-192.207
511435.250,4277605.500,-179.162
511435.250,4277505.500,-160.857
511435.250,4277405.500,-165.776
511435.250,4277305.500,-189.397
511435.250,4277205.500,-217.405
511435.250,4277105.500,-237.831
511435.250,4277005.500,-216.901
511435.250,4276905.500,-214.305
511435.250,4276805.500,-188.553
511435.250,4276705.500,-204.877
511435.250,4276605.500,-247.028
511435.250,4276505.500,-295.229
511435.250,4276405.500,-329.315
511435.250,4276305.500,-308.399
511435.250,4276205.500,-269.621
511435.250,4276105.500,-233.042
511435.250,4276005.500,-204.835
511435.250,4275905.500,-202.828
511435.250,4275805.500,-197.513
511435.250,4275705.500,-189.009
511435.250,4275605.500,-217.567
511435.250,4275505.500,-170.795
511435.250,4274905.500,-153.130
511435.250,4274805.500,-168.912
511435.250,4274705.500,-181.214
511435.250,4274605.500,-167.957
511435.250,4274405.500,-154.410
511435.250,4274305.500,-156.734
511435.250,4274105.500,-163.251
511535.250,4283605.500,-687.102
511535.250,4283505.500,-666.910
511535.250,4283405.500,-637.856
511535.250,4283305.500,-605.028
511535.250,4283205.500,-560.349
511535.250,4283105.500,-514.262
511535.250,4283005.500,-470.833
511535.250,4282905.500,-429.942
511535.250,4282805.500,-384.436
511535.250,4282705.500,-336.461
511535.250,4282605.500,-297.551
511535.250,4282505.500,-281.587
511535.250,4282405.500,-261.682
511535.250,4282305.500,-236.469
511535.250,4282205.500,-211.195
511535.250,4282105.500,-175.186
511535.250,4280905.500,-175.043
511535.250,4280805.500,-180.271
511535.250,4280705.500,-196.309
511535.250,4280605.500,-212.232
511535.250,4280505.500,-233.960
511535.250,4280405.500,-242.422
511535.250,4280305.500,-270.144
511535.250,4280205.500,-291.476
511535.250,4280105.500,-317.130
511535.250,4280005.500,-329.977
511535.250,4279905.500,-334.983
511535.250,4279805.500,-347.881
511535.250,4279705.500,-366.380
511535.250,4279605.500,-393.485
511535.250,4279505.500,-401.935
511535.250,4279405.500,-409.919
511535.250,4279305.500,-420.605
511535.250,4279205.500,-416.321
511535.250,4279105.500,-403.617
511535.250,4279005.500,-410.161
511535.250,4278905.500,-409.690
511535.250,4278805.500,-410.392
511535.250,4278705.500,-418.919
511535.250,4278605.500,-446.235
511535.250,4278505.500,-452.187
511535.250,4278405.500,-381.169
511535.250,4278305.500,-352.821
511535.250,4278205.500,-362.449
511535.250,4278105.500,-356.384
511535.250,4278005.500,-304.136
511535.250,4277905.500,-252.882
511535.250,4277805.500,-226.730
511535.250,4277705.500,-226.473
511535.250,4277605.500,-207.826
511535.250,4277505.500,-182.649
511535.250,4277405.500,-179.819
511535.250,4277305.500,-202.654
511535.250,4277205.500,-235.729
511535.250,4277105.500,-259.617
511535.250,4277005.500,-239.626
511535.250,4276905.500,-234.420
511535.250,4276805.500,-207.443
511535.250,4276705.500,-194.056
511535.250,4276605.500,-235.629
511535.250,4276505.500,-292.095
511535.250,4276405.500,-337.788
511535.250,4276305.500,-314.355
511535.250,4276205.500,-281.493
511535.250,4276105.500,-260.932
511535.250,4276005.500,-257.366
511535.250,4275905.500,-250.196
511535.250,4275805.500,-225.758
511535.250,4275705.500,-236.767
511535.250,4275605.500,-283.428
511535.250,4275505.500,-171.358
511535.250,4275405.500,-162.726
511535.250,4275105.500,-159.970
511535.250,4275005.500,-159.368
511535.250,4274905.500,-165.509
511535.250,4274805.500,-193.699
511535.250,4274705.500,-216.267
511535.250,4274605.500,-202.738
511535.250,4274505.500,-170.483
511535.250,4274405.500,-174.697
511535.250,4274305.500,-172.145
511535.250,4274205.500,-161.796
511535.250,4274105.500,-157.381
511635.250,4283705.500,-688.773
511635.250,4283605.500,-661.872
511635.250,4283505.500,-629.227
511635.250,4283405.500,-593.324
511635.250,4283305.500,-554.391
511635.250,4283205.500,-514.183
511635.250,4283105.500,-467.016
511635.250,4283005.500,-425.345
511635.250,4282905.500,-389.658
511635.250,4282805.500,-351.873
511635.250,4282705.500,-310.994
511635.250,4282605.500,-276.015
511635.250,4282505.500,-251.237
511635.250,4282405.500,-230.976
511635.250,4282305.500,-207.698
511635.250,4282205.500,-187.614
511635.250,4282105.500,-164.447
511635.250,4282005.500,-159.333
511635.250,4281105.500,-167.522
511635.250,4281005.500,-171.113
511635.250,4280905.500,-180.910
511635.250,4280805.500,-214.358
511635.250,4280705.500,-234.303
511635.250,4280605.500,-243.188
511635.250,4280505.500,-264.969
511635.250,4280405.500,-269.784
511635.250,4280305.500,-294.419
511635.250,4280205.500,-317.389
511635.250,4280105.500,-339.335
511635.250,4280005.500,-356.255
511635.250,4279905.500,-366.462
511635.250,4279805.500,-375.910
511635.250,4279705.500,-387.992
511635.250,4279605.500,-410.414
511635.250,4279505.500,-421.918
511635.250,4279405.500,-429.711
511635.250,4279305.500,-439.040
511635.250,4279205.500,-445.414
511635.250,4279105.500,-428.595
511635.250,4279005.500,-432.723
511635.250,4278905.500,-431.518
511635.250,4278805.500,-428.516
511635.250,4278705.500,-438.286
511635.250,4278605.500,-462.846
511635.250,4278505.500,-472.091
511635.250,4278405.500,-428.132
511635.250,4278305.500,-410.383
511635.250,4278205.500,-362.397
511635.250,4278105.500,-332.643
511635.250,4278005.500,-296.134
511635.250,4277905.500,-265.587
511635.250,4277805.500,-257.806
511635.250,4277705.500,-259.285
511635.250,4277605.500,-243.387
511635.250,4277505.500,-218.006
511635.250,4277405.500,-210.454
511635.250,4277305.500,-224.572
511635.250,4277205.500,-261.077
511635.250,4277105.500,-287.434
511635.250,4277005.500,-268.136
511635.250,4276905.500,-262.685
511635.250,4276805.500,-228.038
511635.250,4276705.500,-206.977
511635.250,4276605.500,-230.732
511635.250,4276505.500,-275.318
511635.250,4276405.500,-343.997
511635.250,4276305.500,-337.711
511635.250,4276205.500,-317.688
511635.250,4276105.500,-307.893
511635.250,4276005.500,-305.891
511635.250,4275905.500,-271.747
511635.250,4275805.500,-242.402
511635.250,4275705.500,-263.273
511635.250,4275605.500,-242.190
511635.250,4275505.500,-191.903
511635.250,4275405.500,-194.625
511635.250,4275305.500,-179.906
511635.250,4275205.500,-162.558
511635.250,4275105.500,-174.267
511635.250,4275005.500,-185.548
511635.250,4274905.500,-193.139
511635.250,4274805.500,-229.233
511635.250,4274705.500,-260.480
511635.250,4274605.500,-243.707
511635.250,4274505.500,-198.718
511635.250,4274405.500,-213.500
511635.250,4274305.500,-200.259
511635.250,4274205.500,-192.557
511635.250,4274105.500,-170.834
511735.250,4283705.500,-669.863
511735.250,4283605.500,-632.401
511735.250,4283505.500,-605.063
511735.250,4283405.500,-574.335
511735.250,4283305.500,-536.344
511735.250,4283205.500,-487.297
511735.250,4283105.500,-452.436
511735.250,4283005.500,-422.739
511735.250,4282905.500,-390.690
511735.250,4282805.500,-357.615
511735.250,4282705.500,-324.314
511735.250,4282605.500,-292.975
511735.250,4282505.500,-264.450
511735.250,4282405.500,-241.682
511735.250,4282305.500,-223.062
511735.250,4282205.500,-206.839
511735.250,4282105.500,-188.543
511735.250,4282005.500,-177.956
511735.250,4281905.500,-169.563
511735.250,4281805.500,-165.326
511735.250,4281705.500,-167.144
511735.250,4281605.500,-162.668
511735.250,4281505.500,-158.579
511735.250,4281405.500,-157.384
511735.250,4281305.500,-161.366
511735.250,4281205.500,-166.291
511735.250,4281105.500,-178.012
511735.250,4281005.500,-204.460
511735.250,4280905.500,-216.541
511735.250,4280805.500,-249.754
511735.250,4280705.500,-269.799
511735.250,4280605.500,-276.546
511735.250,4280505.500,-289.058
511735.250,4280405.500,-300.397
511735.250,4280305.500,-311.386
511735.250,4280205.500,-336.580
511735.250,4280105.500,-360.232
511735.250,4280005.500,-379.545
511735.250,4279905.500,-391.900
511735.250,4279805.500,-402.689
511735.250,4279705.500,-413.344
511735.250,4279605.500,-429.343
511735.250,4279505.500,-440.320
511735.250,4279405.500,-450.872
511735.250,4279305.500,-458.349
511735.250,4279205.500,-467.175
511735.250,4279105.500,-461.444
511735.250,4279005.500,-454.459
511735.250,4278905.500,-457.568
511735.250,4278805.500,-449.343
511735.250,4278705.500,-457.270
511735.250,4278605.500,-475.707
511735.250,4278505.500,-489.299
511735.250,4278405.500,-459.934
511735.250,4278305.500,-408.810
511735.250,4278205.500,-354.209
511735.250,4278105.500,-303.853
511735.250,4278005.500,-290.790
511735.250,4277905.500,-288.665
511735.250,4277805.500,-290.822
511735.250,4277705.500,-288.467
511735.250,4277605.500,-269.592
511735.250,4277505.500,-250.198
511735.250,4277405.500,-246.434
511735.250,4277305.500,-252.717
511735.250,4277205.500,-291.393
511735.250,4277105.500,-318.032
511735.250,4277005.500,-294.070
511735.250,4276905.500,-281.950
511735.250,4276805.500,-246.591
511735.250,4276705.500,-238.779
511735.250,4276605.500,-251.375
511735.250,4276505.500,-259.216
511735.250,4276405.500,-323.181
511735.250,4276305.500,-368.263
511735.250,4276205.500,-353.709
511735.250,4276105.500,-347.252
511735.250,4276005.500,-327.881
511735.250,4275905.500,-293.451
511735.250,4275805.500,-274.129
511735.250,4275705.500,-286.151
511735.250,4275605.500,-241.711
511735.250,4275505.500,-236.297
511735.250,4275405.500,-227.907
511735.250,4275305.500,-214.721
511735.250,4275205.500,-180.623
511735.250,4275105.500,-200.178
511735.250,4275005.500,-231.690
511735.250,4274905.500,-232.287
511735.250,4274805.500,-265.513
511735.250,4274705.500,-293.736
511735.250,4274605.500,-270.656
511735.250,4274505.500,-232.280
511735.250,4274405.500,-248.725
511735.250,4274305.500,-232.905
511735.250,4274205.500,-225.029
511735.250,4274105.500,-209.707
511835.250,4283805.500,-691.214
511835.250,4283705.500,-675.145
511835.250,4283605.500,-647.687
511835.250,4283505.500,-619.356
511835.250,4283405.500,-591.899
511835.250,4283305.500,-562.062
511835.250,4283205.500,-525.429
511835.250,4283105.500,-475.400
511835.250,4283005.500,-444.765
511835.250,4282905.500,-411.833
511835.250,4282805.500,-380.731
511835.250,4282705.500,-350.323
511835.250,4282605.500,-321.487
511835.250,4282505.500,-295.868
511835.250,4282405.500,-273.573
511835.250,4282305.500,-257.681
511835.250,4282205.500,-241.813
511835.250,4282105.500,-225.616
511835.250,4282005.500,-220.242
511835.250,4281905.500,-209.284
511835.250,4281805.500,-201.914
511835.250,4281705.500,-198.956
511835.250,4281605.500,-192.408
511835.250,4281505.500,-190.482
511835.250,4281405.500,-188.599
511835.250,4281305.500,-192.675
511835.250,4281205.500,-197.583
511835.250,4281105.500,-219.338
511835.250,4281005.500,-244.853
511835.250,4280905.500,-252.081
511835.250,4280805.500,-279.900
511835.250,4280705.500,-299.950
511835.250,4280605.500,-311.399
511835.250,4280505.500,-319.958
511835.250,4280405.500,-335.519
511835.250,4280305.500,-336.154
511835.250,4280205.500,-353.308
511835.250,4280105.500,-377.077
511835.250,4280005.500,-398.454
511835.250,4279905.500,-415.980
511835.250,4279805.500,-426.691
511835.250,4279705.500,-439.109
511835.250,4279605.500,-450.974
511835.250,4279505.500,-460.061
511835.250,4279405.500,-468.706
511835.250,4279305.500,-479.357
511835.250,4279205.500,-487.673
511835.250,4279105.500,-490.072
511835.250,4279005.500,-479.129
511835.250,4278905.500,-484.706
511835.250,4278805.500,-474.698
511835.250,4278705.500,-480.495
511835.250,4278605.500,-502.389
511835.250,4278505.500,-509.304
511835.250,4278405.500,-474.474
511835.250,4278305.500,-424.178
511835.250,4278205.500,-365.322
511835.250,4278105.500,-298.898
511835.250,4278005.500,-305.776
511835.250,4277905.500,-324.792
511835.250,4277805.500,-323.199
511835.250,4277705.500,-309.796
511835.250,4277605.500,-291.210
511835.250,4277505.500,-280.008
511835.250,4277405.500,-278.357
511835.250,4277305.500,-290.431
511835.250,4277205.500,-317.408
511835.250,4277105.500,-350.259
511835.250,4277005.500,-324.021
511835.250,4276905.500,-300.198
511835.250,4276805.500,-274.370
511835.250,4276705.500,-271.419
511835.250,4276605.500,-278.074
511835.250,4276505.500,-270.709
511835.250,4276405.500,-299.016
511835.250,4276305.500,-366.415
511835.250,4276205.500,-388.534
511835.250,4276105.500,-368.432
511835.250,4276005.500,-329.859
511835.250,4275905.500,-284.981
511835.250,4275805.500,-303.525
511835.250,4275705.500,-301.128
511835.250,4275605.500,-272.393
511835.250,4275505.500,-277.762
511835.250,4275405.500,-273.881
511835.250,4275305.500,-254.589
511835.250,4275205.500,-220.890
511835.250,4275105.500,-231.757
511835.250,4275005.500,-272.633
511835.250,4274905.500,-274.355
511835.250,4274805.500,-299.373
511835.250,4274705.500,-323.090
511835.250,4274605.500,-299.397
511835.250,4274505.500,-269.505
511835.250,4274405.500,-280.975
511835.250,4274305.500,-266.650
511835.250,4274205.500,-260.648
511835.250,4274105.500,-252.029
511935.250,4283705.500,-691.829
511935.250,4283605.500,-668.410
511935.250,4283505.500,-641.489
511935.250,4283405.500,-615.065
511935.250,4283305.500,-584.512
511935.250,4283205.500,-545.503
511935.250,4283105.500,-502.497
511935.250,4283005.500,-471.079
511935.250,4282905.500,-436.909
511935.250,4282805.500,-406.583
511935.250,4282705.500,-378.624
511935.250,4282605.500,-351.893
511935.250,4282505.500,-329.654
511935.250,4282405.500,-311.633
511935.250,4282305.500,-293.369
511935.250,4282205.500,-279.235
511935.250,4282105.500,-266.829
511935.250,4282005.500,-265.445
511935.250,4281905.500,-251.679
511935.250,4281805.500,-245.389
511935.250,4281705.500,-244.735
511935.250,4281605.500,-240.945
511935.250,4281505.500,-239.944
511935.250,4281405.500,-235.848
511935.250,4281305.500,-229.815
511935.250,4281205.500,-235.891
511935.250,4281105.500,-250.119
511935.250,4281005.500,-282.171
511935.250,4280905.500,-289.521
511935.250,4280805.500,-302.523
511935.250,4280705.500,-326.863
511935.250,4280605.500,-343.406
511935.250,4280505.500,-354.245
511935.250,4280405.500,-366.623
511935.250,4280305.500,-367.648
511935.250,4280205.500,-377.250
511935.250,4280105.500,-393.271
511935.250,4280005.500,-414.455
511935.250,4279905.500,-434.828
511935.250,4279805.500,-449.989
511935.250,4279705.500,-459.922
511935.250,4279605.500,-472.650
511935.250,4279505.500,-481.964
511935.250,4279405.500,-487.478
511935.250,4279305.500,-497.614
511935.250,4279205.500,-507.785
511935.250,4279105.500,-511.996
511935.250,4279005.500,-506.408
511935.250,4278905.500,-506.849
511935.250,4278805.500,-503.008
511935.250,4278705.500,-509.987
511935.250,4278605.500,-528.268
511935.250,4278505.500,-524.804
511935.250,4278405.500,-490.056
511935.250,4278305.500,-425.982
511935.250,4278205.500,-365.445
511935.250,4278105.500,-324.124
511935.250,4278005.500,-337.819
511935.250,4277905.500,-355.634
511935.250,4277805.500,-347.332
511935.250,4277705.500,-326.889
511935.250,4277605.500,-306.743
511935.250,4277505.500,-299.483
511935.250,4277405.500,-303.784
511935.250,4277305.500,-327.193
511935.250,4277205.500,-342.703
511935.250,4277105.500,-379.538
511935.250,4277005.500,-350.287
511935.250,4276905.500,-320.107
511935.250,4276805.500,-303.487
511935.250,4276705.500,-305.783
511935.250,4276605.500,-311.269
511935.250,4276505.500,-301.944
511935.250,4276405.500,-333.529
511935.250,4276305.500,-383.568
511935.250,4276205.500,-410.571
511935.250,4276105.500,-386.511
511935.250,4276005.500,-322.296
511935.250,4275905.500,-275.804
511935.250,4275805.500,-323.391
511935.250,4275705.500,-316.387
511935.250,4275605.500,-306.292
511935.250,4275505.500,-313.334
511935.250,4275405.500,-309.194
511935.250,4275305.500,-286.764
511935.250,4275205.500,-265.259
511935.250,4275105.500,-273.314
511935.250,4275005.500,-304.748
511935.250,4274905.500,-317.290
511935.250,4274805.500,-334.805
511935.250,4274705.500,-349.016
511935.250,4274605.500,-325.728
511935.250,4274505.500,-306.643
511935.250,4274405.500,-313.312
511935.250,4274305.500,-302.835
511935.250,4274205.500,-297.731
511935.250,4274105.500,-295.229
512035.250,4283605.500,-686.404
512035.250,4283505.500,-663.502
512035.250,4283405.500,-632.058
512035.250,4283305.500,-592.601
512035.250,4283205.500,-557.625
512035.250,4283105.500,-526.583
512035.250,4283005.500,-494.882
512035.250,4282905.500,-465.364
512035.250,4282805.500,-433.478
512035.250,4282705.500,-408.189
512035.250,4282605.500,-384.461
512035.250,4282505.500,-365.707
512035.250,4282405.500,-349.433
512035.250,4282305.500,-330.365
512035.250,4282205.500,-317.061
512035.250,4282105.500,-305.828
512035.250,4282005.500,-304.349
512035.250,4281905.500,-292.101
512035.250,4281805.500,-293.136
512035.250,4281705.500,-288.426
512035.250,4281605.500,-286.236
512035.250,4281505.500,-285.397
512035.250,4281405.500,-280.644
512035.250,4281305.500,-269.658
512035.250,4281205.500,-272.491
512035.250,4281105.500,-267.814
512035.250,4281005.500,-309.474
512035.250,4280905.500,-327.084
512035.250,4280805.500,-330.808
512035.250,4280705.500,-345.350
512035.250,4280605.500,-369.568
512035.250,4280505.500,-385.451
512035.250,4280405.500,-397.882
512035.250,4280305.500,-400.061
512035.250,4280205.500,-402.910
512035.250,4280105.500,-414.630
512035.250,4280005.500,-431.376
512035.250,4279905.500,-451.869
512035.250,4279805.500,-470.299
512035.250,4279705.500,-481.819
512035.250,4279605.500,-492.941
512035.250,4279505.500,-503.864
512035.250,4279405.500,-508.651
512035.250,4279305.500,-517.249
512035.250,4279205.500,-524.034
512035.250,4279105.500,-531.612
512035.250,4279005.500,-529.598
512035.250,4278905.500,-529.008
512035.250,4278805.500,-524.501
512035.250,4278705.500,-539.389
512035.250,4278605.500,-548.968
512035.250,4278505.500,-540.548
512035.250,4278405.500,-484.917
512035.250,4278305.500,-433.833
512035.250,4278205.500,-391.314
512035.250,4278105.500,-375.525
512035.250,4278005.500,-377.696
512035.250,4277905.500,-378.581
512035.250,4277805.500,-359.977
512035.250,4277705.500,-340.170
512035.250,4277605.500,-333.155
512035.250,4277505.500,-320.624
512035.250,4277405.500,-326.808
512035.250,4277305.500,-361.779
512035.250,4277205.500,-374.842
512035.250,4277105.500,-406.367
512035.250,4277005.500,-386.075
512035.250,4276905.500,-345.017
512035.250,4276805.500,-338.862
512035.250,4276705.500,-342.265
512035.250,4276605.500,-350.820
512035.250,4276505.500,-365.273
512035.250,4276405.500,-392.855
512035.250,4276305.500,-424.748
512035.250,4276205.500,-431.201
512035.250,4276105.500,-385.475
512035.250,4276005.500,-311.826
512035.250,4275905.500,-288.131
512035.250,4275805.500,-345.623
512035.250,4275705.500,-339.492
512035.250,4275605.500,-338.161
512035.250,4275505.500,-342.290
512035.250,4275405.500,-339.012
512035.250,4275305.500,-319.512
512035.250,4275205.500,-305.525
512035.250,4275105.500,-312.062
512035.250,4275005.500,-335.128
512035.250,4274905.500,-355.930
512035.250,4274805.500,-368.281
512035.250,4274705.500,-369.338
512035.250,4274605.500,-357.625
512035.250,4274505.500,-345.437
512035.250,4274405.500,-347.097
512035.250,4274305.500,-341.123
512035.250,4274205.500,-333.551
512035.250,4274105.500,-332.017
512135.250,4283505.500,-675.257
512135.250,4283405.500,-641.284
512135.250,4283305.500,-608.552
512135.250,4283205.500,-578.327
512135.250,4283105.500,-550.844
512135.250,4283005.500,-521.446
512135.250,4282905.500,-492.107
512135.250,4282805.500,-467.505
512135.250,4282705.500,-439.585
512135.250,4282605.500,-418.002
512135.250,4282505.500,-401.251
512135.250,4282405.500,-386.236
512135.250,4282305.500,-369.121
512135.250,4282205.500,-351.909
512135.250,4282105.500,-343.983
512135.250,4282005.500,-339.971
512135.250,4281905.500,-332.679
512135.250,4281805.500,-334.283
