541235.250,4293705.500,-1575.621
541235.250,4293505.500,-1609.333
541235.250,4293305.500,-1622.753
541235.250,4293105.500,-1636.486
541235.250,4291905.500,-1669.083
541235.250,4291705.500,-1667.024
541235.250,4291505.500,-1669.960
541235.250,4291305.500,-1673.813
541235.250,4291105.500,-1675.553
541235.250,4290905.500,-1688.356
541235.250,4290705.500,-1710.964
541235.250,4290505.500,-1729.856
541235.250,4290305.500,-1737.887
541235.250,4290105.500,-1744.333
541235.250,4289905.500,-1743.419
541235.250,4289705.500,-1743.165
541235.250,4289505.500,-1750.099
541235.250,4289305.500,-1780.849
541235.250,4289105.500,-1819.684
541235.250,4288905.500,-1871.715
541235.250,4288705.500,-1896.141
541235.250,4288505.500,-1916.948
541235.250,4288305.500,-1926.860
541235.250,4288105.500,-1913.245
541235.250,4287905.500,-1841.195
541235.250,4287705.500,-1721.935
541235.250,4287505.500,-1608.450
541235.250,4287305.500,-1571.186
541235.250,4287105.500,-1562.645
541235.250,4286905.500,-1557.597
541235.250,4286705.500,-1569.061
541235.250,4286505.500,-1571.853
541235.250,4286305.500,-1569.288
541235.250,4286105.500,-1569.607
541235.250,4285905.500,-1563.286
541235.250,4285705.500,-1558.923
541235.250,4285505.500,-1569.639
541235.250,4285305.500,-1573.745
541235.250,4285105.500,-1568.568
541235.250,4284905.500,-1559.139
541235.250,4284705.500,-1551.240
541235.250,4284505.500,-1546.094
541235.250,4284305.500,-1540.054
541235.250,4284105.500,-1528.917
541235.250,4283905.500,-1503.142
541235.250,4283705.500,-1471.331
541235.250,4283505.500,-1462.202
541235.250,4283305.500,-1459.940
541235.250,4283105.500,-1456.327
541235.250,4282905.500,-1448.650
541235.250,4282705.500,-1435.223
541235.250,4282505.500,-1427.485
541235.250,4282305.500,-1435.282
541235.250,4282105.500,-1437.846
541235.250,4281905.500,-1429.738
541235.250,4281705.500,-1419.668
541235.250,4281505.500,-1414.390
541235.250,4281305.500,-1405.527
541235.250,4281105.500,-1389.502
541235.250,4280905.500,-1378.490
541235.250,4280705.500,-1372.598
541235.250,4280505.500,-1339.646
541235.250,4280305.500,-1307.951
541235.250,4280105.500,-1284.667
541235.250,4279905.500,-1250.427
541235.250,4279705.500,-1211.039
541235.250,4279505.500,-1184.514
541235.250,4279305.500,-1162.889
541235.250,4279105.500,-1146.619
541235.250,4278905.500,-1125.745
541235.250,4278705.500,-1103.974
541235.250,4278505.500,-1076.972
541235.250,4278305.500,-1059.000
541235.250,4278105.500,-1039.968
541235.250,4277905.500,-1014.922
541235.250,4277705.500,-989.337
541235.250,4277505.500,-966.395
541235.250,4277305.500,-953.381
541235.250,4277105.500,-948.365
541235.250,4276905.500,-944.961
541235.250,4276705.500,-943.856
541235.250,4276505.500,-946.395
541235.250,4276305.500,-952.153
541235.250,4276105.500,-958.328
541235.250,4275905.500,-962.777
541235.250,4275705.500,-966.007
541235.250,4275505.500,-969.957
541235.250,4275305.500,-974.872
541235.250,4275105.500,-981.232
541235.250,4274905.500,-989.009
541235.250,4274705.500,-1004.160
541235.250,4274505.500,-1028.035
541235.250,4274305.500,-1050.233
541235.250,4274105.500,-1059.982
541435.250,4296705.500,-1765.009
541435.250,4296505.500,-1768.472
541435.250,4296305.500,-1765.353
541435.250,4296105.500,-1747.675
541435.250,4295905.500,-1724.068
541435.250,4295705.500,-1705.926
541435.250,4295505.500,-1687.071
541435.250,4295305.500,-1641.466
541435.250,4295105.500,-1633.515
541435.250,4294905.500,-1622.245
541435.250,4294705.500,-1579.820
541435.250,4294505.500,-1534.643
541435.250,4294305.500,-1491.386
541435.250,4294105.500,-1475.336
541435.250,4293905.500,-1489.551
541435.250,4293705.500,-1521.795
541435.250,4293505.500,-1544.743
541435.250,4293305.500,-1566.037
541435.250,4293105.500,-1583.161
541435.250,4291705.500,-1664.674
541435.250,4291505.500,-1666.116
541435.250,4291305.500,-1669.646
541435.250,4291105.500,-1670.272
541435.250,4290905.500,-1668.962
541435.250,4290705.500,-1678.989
541435.250,4290505.500,-1694.670
541435.250,4290305.500,-1709.781
541435.250,4290105.500,-1732.673
541435.250,4289905.500,-1740.479
541435.250,4289705.500,-1738.536
541435.250,4289505.500,-1758.173
541435.250,4289305.500,-1800.440
541435.250,4289105.500,-1846.863
541435.250,4288905.500,-1877.134
541435.250,4288705.500,-1897.965
541435.250,4288505.500,-1917.963
541435.250,4288305.500,-1908.697
541435.250,4288105.500,-1891.012
541435.250,4287905.500,-1825.461
541435.250,4287705.500,-1722.796
541435.250,4287505.500,-1608.142
541435.250,4287305.500,-1565.994
541435.250,4287105.500,-1557.870
541435.250,4286905.500,-1551.049
541435.250,4286705.500,-1548.039
541435.250,4286505.500,-1550.654
541435.250,4286305.500,-1552.673
541435.250,4286105.500,-1548.635
541435.250,4285905.500,-1532.088
541435.250,4285705.500,-1522.617
541435.250,4285505.500,-1547.938
541435.250,4285305.500,-1563.521
541435.250,4285105.500,-1555.797
541435.250,4284905.500,-1545.971
541435.250,4284705.500,-1539.736
541435.250,4284505.500,-1531.426
541435.250,4284305.500,-1522.362
541435.250,4284105.500,-1495.369
541435.250,4283905.500,-1469.374
541435.250,4283705.500,-1458.594
541435.250,4283505.500,-1451.818
541435.250,4283305.500,-1447.481
541435.250,4283105.500,-1445.355
541435.250,4282905.500,-1438.315
541435.250,4282705.500,-1426.846
541435.250,4282505.500,-1415.958
541435.250,4282305.500,-1413.046
541435.250,4282105.500,-1423.821
541435.250,4281905.500,-1421.879
541435.250,4281705.500,-1413.166
541435.250,4281505.500,-1406.084
541435.250,4281305.500,-1395.380
541435.250,4281105.500,-1379.862
541435.250,4280905.500,-1371.615
541435.250,4280705.500,-1365.938
541435.250,4280505.500,-1340.759
541435.250,4280305.500,-1309.701
541435.250,4280105.500,-1277.233
541435.250,4279905.500,-1233.672
541435.250,4279705.500,-1190.853
541435.250,4279505.500,-1159.030
541435.250,4279305.500,-1142.799
541435.250,4279105.500,-1121.670
541435.250,4278905.500,-1097.076
541435.250,4278705.500,-1075.826
541435.250,4278505.500,-1055.184
541435.250,4278305.500,-1038.840
541435.250,4278105.500,-1021.185
541435.250,4277905.500,-995.530
541435.250,4277705.500,-972.088
541435.250,4277505.500,-954.294
541435.250,4277305.500,-943.769
541435.250,4277105.500,-941.334
541435.250,4276905.500,-941.197
541435.250,4276705.500,-941.885
541435.250,4276505.500,-946.788
541435.250,4276305.500,-952.488
541435.250,4276105.500,-957.201
541435.250,4275905.500,-960.215
541435.250,4275705.500,-962.911
541435.250,4275505.500,-966.489
541435.250,4275305.500,-969.980
541435.250,4275105.500,-974.684
541435.250,4274905.500,-980.748
541435.250,4274705.500,-991.503
541435.250,4274505.500,-1016.394
541435.250,4274305.500,-1040.386
541435.250,4274105.500,-1051.877
541635.250,4296705.500,-1730.176
541635.250,4296505.500,-1723.470
541635.250,4296305.500,-1722.841
541635.250,4296105.500,-1708.405
541635.250,4295905.500,-1683.828
541635.250,4295705.500,-1674.243
541635.250,4295505.500,-1663.382
541635.250,4295305.500,-1606.368
541635.250,4295105.500,-1597.455
541635.250,4294905.500,-1598.295
541635.250,4294705.500,-1566.827
541635.250,4294505.500,-1523.569
541635.250,4294305.500,-1465.553
541635.250,4294105.500,-1432.493
541635.250,4293905.500,-1441.726
541635.250,4293705.500,-1461.046
541635.250,4293505.500,-1480.944
541635.250,4293305.500,-1505.803
541635.250,4293105.500,-1527.292
541635.250,4292905.500,-1550.276
541635.250,4291705.500,-1665.274
541635.250,4291505.500,-1665.043
541635.250,4291305.500,-1665.300
541635.250,4291105.500,-1666.184
541635.250,4290905.500,-1664.865
541635.250,4290705.500,-1664.264
541635.250,4290505.500,-1669.945
541635.250,4290305.500,-1687.926
541635.250,4290105.500,-1719.085
541635.250,4289905.500,-1734.238
541635.250,4289705.500,-1738.153
541635.250,4289505.500,-1780.867
541635.250,4289305.500,-1835.333
541635.250,4289105.500,-1866.310
541635.250,4288905.500,-1883.603
541635.250,4288705.500,-1908.284
541635.250,4288505.500,-1903.724
541635.250,4288305.500,-1882.370
541635.250,4288105.500,-1867.649
541635.250,4287905.500,-1810.236
541635.250,4287705.500,-1701.412
541635.250,4287505.500,-1598.095
541635.250,4287305.500,-1561.542
541635.250,4287105.500,-1553.043
541635.250,4286905.500,-1544.776
541635.250,4286705.500,-1538.673
541635.250,4286505.500,-1536.937
541635.250,4286305.500,-1533.304
541635.250,4286105.500,-1523.781
541635.250,4285905.500,-1519.234
541635.250,4285705.500,-1521.853
541635.250,4285505.500,-1530.093
541635.250,4285305.500,-1541.313
541635.250,4285105.500,-1529.105
541635.250,4284905.500,-1509.651
541635.250,4284705.500,-1501.653
541635.250,4284505.500,-1496.399
541635.250,4284305.500,-1478.498
541635.250,4284105.500,-1462.391
541635.250,4283905.500,-1454.551
541635.250,4283705.500,-1449.456
541635.250,4283505.500,-1443.570
541635.250,4283305.500,-1436.566
541635.250,4283105.500,-1429.936
541635.250,4282905.500,-1427.066
541635.250,4282705.500,-1419.124
541635.250,4282505.500,-1411.112
541635.250,4282305.500,-1401.048
541635.250,4282105.500,-1397.369
541635.250,4281905.500,-1403.607
541635.250,4281705.500,-1404.268
541635.250,4281505.500,-1398.680
541635.250,4281305.500,-1386.126
541635.250,4281105.500,-1371.705
541635.250,4280905.500,-1366.795
541635.250,4280705.500,-1351.616
541635.250,4280505.500,-1323.683
541635.250,4280305.500,-1291.463
541635.250,4280105.500,-1257.847
541635.250,4279905.500,-1217.794
541635.250,4279705.500,-1184.600
541635.250,4279505.500,-1144.457
541635.250,4279305.500,-1120.266
541635.250,4279105.500,-1095.707
541635.250,4278905.500,-1069.318
541635.250,4278705.500,-1046.312
541635.250,4278505.500,-1030.009
541635.250,4278305.500,-1014.986
541635.250,4278105.500,-993.859
541635.250,4277905.500,-971.715
541635.250,4277705.500,-953.242
541635.250,4277505.500,-941.002
541635.250,4277305.500,-935.998
541635.250,4277105.500,-937.240
541635.250,4276905.500,-940.892
541635.250,4276705.500,-944.272
541635.250,4276505.500,-949.356
541635.250,4276305.500,-953.886
541635.250,4276105.500,-956.693
541635.250,4275905.500,-958.764
541635.250,4275705.500,-961.578
541635.250,4275505.500,-964.186
541635.250,4275305.500,-966.436
541635.250,4275105.500,-968.298
541635.250,4274905.500,-971.908
541635.250,4274705.500,-981.055
541635.250,4274505.500,-1003.709
541635.250,4274305.500,-1023.748
541635.250,4274105.500,-1038.303
541835.250,4296905.500,-1699.476
541835.250,4296705.500,-1690.500
541835.250,4296505.500,-1677.480
541835.250,4296305.500,-1689.745
541835.250,4296105.500,-1689.963
541835.250,4295905.500,-1669.745
541835.250,4295705.500,-1657.100
541835.250,4295505.500,-1628.559
541835.250,4295305.500,-1567.832
541835.250,4295105.500,-1568.395
541835.250,4294905.500,-1571.207
541835.250,4294705.500,-1544.779
541835.250,4294505.500,-1492.271
541835.250,4294305.500,-1438.113
541835.250,4294105.500,-1407.163
541835.250,4293905.500,-1410.558
541835.250,4293705.500,-1429.483
541835.250,4293505.500,-1448.641
541835.250,4293305.500,-1466.859
541835.250,4293105.500,-1481.646
541835.250,4292905.500,-1502.857
541835.250,4291905.500,-1648.715
541835.250,4291705.500,-1660.450
541835.250,4291505.500,-1660.493
541835.250,4291305.500,-1659.757
541835.250,4291105.500,-1661.315
541835.250,4290905.500,-1661.963
541835.250,4290705.500,-1659.602
541835.250,4290505.500,-1661.208
541835.250,4290305.500,-1678.056
541835.250,4290105.500,-1698.739
541835.250,4289905.500,-1723.667
541835.250,4289705.500,-1748.899
541835.250,4289505.500,-1813.939
541835.250,4289305.500,-1859.384
541835.250,4289105.500,-1880.479
541835.250,4288905.500,-1898.395
541835.250,4288705.500,-1905.637
541835.250,4288505.500,-1885.884
541835.250,4288305.500,-1854.046
541835.250,4288105.500,-1845.020
541835.250,4287905.500,-1805.989
541835.250,4287705.500,-1690.297
541835.250,4287505.500,-1600.127
541835.250,4287305.500,-1562.791
541835.250,4287105.500,-1548.275
541835.250,4286905.500,-1539.493
541835.250,4286705.500,-1532.988
541835.250,4286505.500,-1527.199
541835.250,4286305.500,-1520.528
541835.250,4286105.500,-1515.352
541835.250,4285905.500,-1512.650
541835.250,4285705.500,-1507.767
541835.250,4285505.500,-1499.673
541835.250,4285305.500,-1493.615
541835.250,4285105.500,-1487.176
541835.250,4284905.500,-1480.415
541835.250,4284705.500,-1474.068
541835.250,4284505.500,-1471.243
541835.250,4284305.500,-1464.787
541835.250,4284105.500,-1457.303
541835.250,4283905.500,-1447.762
541835.250,4283705.500,-1438.035
541835.250,4283505.500,-1433.888
541835.250,4283305.500,-1429.201
541835.250,4283105.500,-1421.355
541835.250,4282905.500,-1413.796
541835.250,4282705.500,-1407.149
541835.250,4282505.500,-1402.153
541835.250,4282305.500,-1394.327
541835.250,4282105.500,-1386.410
541835.250,4281905.500,-1378.631
541835.250,4281705.500,-1385.902
541835.250,4281505.500,-1388.849
541835.250,4281305.500,-1375.847
541835.250,4281105.500,-1361.313
541835.250,4280905.500,-1358.431
541835.250,4280705.500,-1347.448
541835.250,4280505.500,-1316.193
541835.250,4280305.500,-1284.010
541835.250,4280105.500,-1247.143
541835.250,4279905.500,-1210.306
541835.250,4279705.500,-1172.168
541835.250,4279505.500,-1131.588
541835.250,4279305.500,-1093.483
541835.250,4279105.500,-1064.992
541835.250,4278905.500,-1039.190
541835.250,4278705.500,-1017.103
541835.250,4278505.500,-1002.105
541835.250,4278305.500,-987.221
541835.250,4278105.500,-966.666
541835.250,4277905.500,-948.697
541835.250,4277705.500,-937.156
541835.250,4277505.500,-931.822
541835.250,4277305.500,-930.937
541835.250,4277105.500,-935.935
541835.250,4276905.500,-944.117
541835.250,4276705.500,-949.416
541835.250,4276505.500,-952.288
541835.250,4276305.500,-954.388
541835.250,4276105.500,-955.799
541835.250,4275905.500,-957.499
541835.250,4275705.500,-960.355
541835.250,4275505.500,-962.214
541835.250,4275305.500,-963.572
541835.250,4275105.500,-965.622
541835.250,4274905.500,-969.315
541835.250,4274705.500,-977.646
541835.250,4274505.500,-989.914
541835.250,4274305.500,-1005.873
541835.250,4274105.500,-1021.539
542035.250,4296905.500,-1668.252
542035.250,4296705.500,-1656.916
542035.250,4296505.500,-1652.370
542035.250,4296305.500,-1673.724
542035.250,4296105.500,-1678.120
542035.250,4295905.500,-1660.562
542035.250,4295705.500,-1634.885
542035.250,4295505.500,-1574.871
542035.250,4295305.500,-1522.904
542035.250,4295105.500,-1526.960
542035.250,4294905.500,-1534.333
542035.250,4294705.500,-1503.315
542035.250,4294505.500,-1460.652
542035.250,4294305.500,-1414.249
542035.250,4294105.500,-1391.137
542035.250,4293905.500,-1389.891
542035.250,4293705.500,-1401.810
542035.250,4293505.500,-1420.083
542035.250,4293305.500,-1442.958
542035.250,4293105.500,-1460.320
542035.250,4292905.500,-1473.711
542035.250,4291905.500,-1616.136
542035.250,4291705.500,-1634.231
542035.250,4291505.500,-1647.169
542035.250,4291305.500,-1653.533
542035.250,4291105.500,-1656.186
542035.250,4290905.500,-1657.772
542035.250,4290705.500,-1657.541
542035.250,4290505.500,-1653.176
542035.250,4290305.500,-1663.971
542035.250,4290105.500,-1688.522
542035.250,4289905.500,-1721.719
542035.250,4289705.500,-1785.569
542035.250,4289505.500,-1834.551
542035.250,4289305.500,-1861.802
542035.250,4289105.500,-1886.810
542035.250,4288905.500,-1901.634
542035.250,4288705.500,-1885.029
542035.250,4288505.500,-1871.397
542035.250,4288305.500,-1839.677
542035.250,4288105.500,-1818.785
542035.250,4287905.500,-1793.070
542035.250,4287705.500,-1684.989
542035.250,4287505.500,-1602.609
542035.250,4287305.500,-1565.067
542035.250,4287105.500,-1545.917
542035.250,4286905.500,-1535.519
542035.250,4286705.500,-1529.329
542035.250,4286505.500,-1521.448
542035.250,4286305.500,-1509.850
542035.250,4286105.500,-1503.417
542035.250,4285905.500,-1504.899
542035.250,4285705.500,-1500.457
542035.250,4285505.500,-1491.387
542035.250,4285305.500,-1486.553
542035.250,4285105.500,-1481.973
542035.250,4284905.500,-1475.304
542035.250,4284705.500,-1466.355
542035.250,4284505.500,-1461.942
542035.250,4284305.500,-1458.659
542035.250,4284105.500,-1450.711
542035.250,4283905.500,-1436.446
542035.250,4283705.500,-1425.768
542035.250,4283505.500,-1420.916
542035.250,4283305.500,-1417.475
542035.250,4283105.500,-1412.792
542035.250,4282905.500,-1405.829
542035.250,4282705.500,-1398.059
542035.250,4282505.500,-1391.816
542035.250,4282305.500,-1386.388
542035.250,4282105.500,-1377.505
542035.250,4281905.500,-1367.510
542035.250,4281705.500,-1365.043
542035.250,4281505.500,-1373.110
542035.250,4281305.500,-1368.530
542035.250,4281105.500,-1357.340
542035.250,4280905.500,-1337.530
542035.250,4280705.500,-1321.267
542035.250,4280505.500,-1297.758
542035.250,4280305.500,-1262.994
542035.250,4280105.500,-1222.961
542035.250,4279905.500,-1185.734
542035.250,4279705.500,-1149.670
542035.250,4279505.500,-1112.610
542035.250,4279305.500,-1073.334
542035.250,4279105.500,-1034.129
542035.250,4278905.500,-1009.312
542035.250,4278705.500,-988.467
542035.250,4278505.500,-973.166
542035.250,4278305.500,-958.638
542035.250,4278105.500,-942.319
542035.250,4277905.500,-931.598
542035.250,4277705.500,-925.973
542035.250,4277505.500,-923.867
542035.250,4277305.500,-927.349
542035.250,4277105.500,-935.468
542035.250,4276905.500,-943.513
542035.250,4276705.500,-950.154
542035.250,4276505.500,-952.009
542035.250,4276305.500,-952.410
542035.250,4276105.500,-953.314
542035.250,4275905.500,-954.611
542035.250,4275705.500,-955.129
542035.250,4275505.500,-955.848
542035.250,4275305.500,-958.127
542035.250,4275105.500,-961.577
542035.250,4274905.500,-966.670
542035.250,4274705.500,-974.363
542035.250,4274505.500,-985.729
542035.250,4274305.500,-998.985
542035.250,4274105.500,-1013.271
542235.250,4296905.500,-1640.668
542235.250,4296705.500,-1639.768
542235.250,4296505.500,-1629.489
542235.250,4296305.500,-1646.042
542235.250,4296105.500,-1648.224
542235.250,4295905.500,-1644.272
542235.250,4295705.500,-1593.235
542235.250,4295505.500,-1520.844
542235.250,4295305.500,-1460.626
542235.250,4295105.500,-1467.039
542235.250,4294905.500,-1484.135
542235.250,4294705.500,-1461.589
542235.250,4294505.500,-1429.917
542235.250,4294305.500,-1397.809
542235.250,4294105.500,-1385.147
542235.250,4293905.500,-1388.043
542235.250,4293705.500,-1396.635
542235.250,4293505.500,-1408.558
542235.250,4293305.500,-1421.683
542235.250,4293105.500,-1439.404
542235.250,4292905.500,-1457.607
542235.250,4292705.500,-1477.693
542235.250,4291905.500,-1578.004
542235.250,4291705.500,-1602.151
542235.250,4291505.500,-1624.890
542235.250,4291305.500,-1643.252
542235.250,4291105.500,-1650.378
542235.250,4290905.500,-1652.013
542235.250,4290705.500,-1652.321
542235.250,4290505.500,-1650.122
542235.250,4290305.500,-1655.310
542235.250,4290105.500,-1680.154
542235.250,4289905.500,-1735.498
542235.250,4289705.500,-1801.082
542235.250,4289505.500,-1834.159
542235.250,4289305.500,-1863.337
542235.250,4289105.500,-1892.600
542235.250,4288905.500,-1893.780
542235.250,4288705.500,-1861.965
542235.250,4288505.500,-1843.750
542235.250,4288305.500,-1824.784
542235.250,4288105.500,-1793.367
542235.250,4287905.500,-1773.397
542235.250,4287705.500,-1668.384
542235.250,4287505.500,-1592.537
542235.250,4287305.500,-1554.142
542235.250,4287105.500,-1537.172
542235.250,4286905.500,-1529.805
542235.250,4286705.500,-1522.596
542235.250,4286505.500,-1514.710
542235.250,4286305.500,-1505.695
542235.250,4286105.500,-1497.005
542235.250,4285905.500,-1495.404
542235.250,4285705.500,-1494.006
542235.250,4285505.500,-1487.785
542235.250,4285305.500,-1479.973
542235.250,4285105.500,-1475.560
542235.250,4284905.500,-1470.971
542235.250,4284705.500,-1459.756
542235.250,4284505.500,-1454.134
542235.250,4284305.500,-1446.925
542235.250,4284105.500,-1437.605
542235.250,4283905.500,-1428.934
542235.250,4283705.500,-1419.794
542235.250,4283505.500,-1412.932
542235.250,4283305.500,-1406.899
542235.250,4283105.500,-1401.492
542235.250,4282905.500,-1396.342
542235.250,4282705.500,-1389.275
542235.250,4282505.500,-1382.512
542235.250,4282305.500,-1375.987
542235.250,4282105.500,-1367.380
542235.250,4281905.500,-1355.938
542235.250,4281705.500,-1346.857
542235.250,4281505.500,-1350.979
542235.250,4281305.500,-1352.873
542235.250,4281105.500,-1337.655
542235.250,4280905.500,-1316.014
542235.250,4280705.500,-1286.773
542235.250,4280505.500,-1255.840
542235.250,4280305.500,-1225.628
542235.250,4280105.500,-1192.901
542235.250,4279905.500,-1160.604
542235.250,4279705.500,-1123.548
542235.250,4279505.500,-1085.704
542235.250,4279305.500,-1042.509
542235.250,4279105.500,-1005.506
542235.250,4278905.500,-979.149
542235.250,4278705.500,-961.070
542235.250,4278505.500,-944.553
542235.250,4278305.500,-933.168
542235.250,4278105.500,-925.727
542235.250,4277905.500,-920.034
542235.250,4277705.500,-916.748
542235.250,4277505.500,-916.747
542235.250,4277305.500,-925.026
542235.250,4277105.500,-934.741
542235.250,4276905.500,-942.147
542235.250,4276705.500,-946.269
542235.250,4276505.500,-945.079
542235.250,4276305.500,-944.876
542235.250,4276105.500,-946.365
542235.250,4275905.500,-947.487
542235.250,4275705.500,-948.897
542235.250,4275505.500,-951.176
542235.250,4275305.500,-953.170
542235.250,4275105.500,-954.574
542235.250,4274905.500,-959.521
542235.250,4274705.500,-968.228
542235.250,4274505.500,-980.583
542235.250,4274305.500,-993.301
542235.250,4274105.500,-1007.483
542435.250,4296905.500,-1610.596
542435.250,4296705.500,-1609.544
542435.250,4296505.500,-1604.104
542435.250,4296305.500,-1602.300
542435.250,4296105.500,-1602.969
542435.250,4295905.500,-1595.489
542435.250,4295705.500,-1550.934
542435.250,4295505.500,-1479.958
542435.250,4295305.500,-1420.810
542435.250,4295105.500,-1408.748
542435.250,4294905.500,-1416.676
542435.250,4294705.500,-1421.086
542435.250,4294505.500,-1404.298
542435.250,4294305.500,-1387.425
542435.250,4294105.500,-1382.947
542435.250,4293905.500,-1386.788
542435.250,4293705.500,-1394.247
542435.250,4293505.500,-1404.644
542435.250,4293305.500,-1414.839
542435.250,4293105.500,-1427.769
542435.250,4292905.500,-1446.028
542435.250,4292705.500,-1468.301
542435.250,4292505.500,-1490.871
542435.250,4292305.500,-1510.868
542435.250,4292105.500,-1537.530
542435.250,4291905.500,-1559.287
542435.250,4291705.500,-1580.746
542435.250,4291505.500,-1606.378
542435.250,4291305.500,-1628.178
542435.250,4291105.500,-1635.861
542435.250,4290905.500,-1639.664
542435.250,4290705.500,-1644.199
542435.250,4290505.500,-1646.303
542435.250,4290305.500,-1659.475
542435.250,4290105.500,-1702.083
542435.250,4289905.500,-1769.762
542435.250,4289705.500,-1812.985
542435.250,4289505.500,-1840.320
542435.250,4289305.500,-1874.936
542435.250,4289105.500,-1888.710
542435.250,4288905.500,-1877.019
542435.250,4288705.500,-1832.418
542435.250,4288505.500,-1809.334
542435.250,4288305.500,-1796.262
542435.250,4288105.500,-1775.037
542435.250,4287905.500,-1740.579
542435.250,4287705.500,-1624.879
542435.250,4287505.500,-1561.083
542435.250,4287305.500,-1541.296
542435.250,4287105.500,-1532.399
542435.250,4286905.500,-1524.088
542435.250,4286705.500,-1515.130
542435.250,4286505.500,-1507.327
542435.250,4286305.500,-1502.101
542435.250,4286105.500,-1491.443
542435.250,4285905.500,-1484.696
542435.250,4285705.500,-1484.239
542435.250,4285505.500,-1479.581
542435.250,4285305.500,-1471.786
542435.250,4285105.500,-1466.409
542435.250,4284905.500,-1462.765
542435.250,4284705.500,-1453.302
542435.250,4284505.500,-1444.102
542435.250,4284305.500,-1437.234
542435.250,4284105.500,-1429.177
542435.250,4283905.500,-1422.134
542435.250,4283705.500,-1414.177
542435.250,4283505.500,-1406.183
542435.250,4283305.500,-1398.562
542435.250,4283105.500,-1391.388
542435.250,4282905.500,-1385.852
542435.250,4282705.500,-1379.896
542435.250,4282505.500,-1373.167
542435.250,4282305.500,-1366.917
542435.250,4282105.500,-1355.306
542435.250,4281905.500,-1340.423
542435.250,4281705.500,-1331.406
542435.250,4281505.500,-1331.344
542435.250,4281305.500,-1332.746
542435.250,4281105.500,-1313.557
542435.250,4280905.500,-1288.565
542435.250,4280705.500,-1249.867
542435.250,4280505.500,-1217.392
542435.250,4280305.500,-1191.498
542435.250,4280105.500,-1164.290
542435.250,4279905.500,-1132.526
542435.250,4279705.500,-1097.570
542435.250,4279505.500,-1058.665
542435.250,4279305.500,-1019.039
542435.250,4279105.500,-982.428
542435.250,4278905.500,-951.518
542435.250,4278705.500,-935.982
542435.250,4278505.500,-927.725
542435.250,4278305.500,-921.231
542435.250,4278105.500,-915.027
542435.250,4277905.500,-909.977
542435.250,4277705.500,-908.355
542435.250,4277505.500,-912.206
542435.250,4277305.500,-924.330
542435.250,4277105.500,-932.309
542435.250,4276905.500,-937.158
542435.250,4276705.500,-937.378
542435.250,4276505.500,-936.058
542435.250,4276305.500,-937.921
542435.250,4276105.500,-942.376
542435.250,4275905.500,-946.007
542435.250,4275705.500,-946.951
542435.250,4275505.500,-948.526
542435.250,4275305.500,-950.412
542435.250,4275105.500,-952.194
542435.250,4274905.500,-955.348
542435.250,4274705.500,-962.955
542435.250,4274505.500,-973.455
542435.250,4274305.500,-985.825
542435.250,4274105.500,-998.781
542635.250,4296905.500,-1575.224
542635.250,4296705.500,-1581.001
542635.250,4296505.500,-1567.273
542635.250,4296305.500,-1552.198
542635.250,4296105.500,-1559.236
542635.250,4295905.500,-1537.757
542635.250,4295705.500,-1507.235
542635.250,4295505.500,-1445.174
542635.250,4295305.500,-1400.704
542635.250,4295105.500,-1389.760
542635.250,4294905.500,-1390.874
542635.250,4294705.500,-1387.815
542635.250,4294505.500,-1384.419
542635.250,4294305.500,-1384.811
542635.250,4294105.500,-1385.369
542635.250,4293905.500,-1388.529
542635.250,4293705.500,-1394.055
542635.250,4293505.500,-1401.698
542635.250,4293305.500,-1409.972
542635.250,4293105.500,-1421.059
542635.250,4292905.500,-1437.667
542635.250,4292705.500,-1460.927
542635.250,4292505.500,-1486.575
542635.250,4292305.500,-1502.216
542635.250,4292105.500,-1519.992
542635.250,4291905.500,-1535.347
542635.250,4291705.500,-1553.028
542635.250,4291505.500,-1578.157
542635.250,4291305.500,-1598.452
542635.250,4291105.500,-1610.565
542635.250,4290905.500,-1622.085
542635.250,4290705.500,-1633.868
542635.250,4290505.500,-1658.467
542635.250,4290305.500,-1718.098
542635.250,4290105.500,-1776.060
542635.250,4289905.500,-1801.011
542635.250,4289705.500,-1808.748
542635.250,4289505.500,-1831.422
542635.250,4289305.500,-1872.562
542635.250,4289105.500,-1869.583
542635.250,4288905.500,-1853.785
542635.250,4288705.500,-1809.991
542635.250,4288505.500,-1785.858
542635.250,4288305.500,-1767.122
542635.250,4288105.500,-1753.036
542635.250,4287905.500,-1724.164
542635.250,4287705.500,-1610.214
542635.250,4287505.500,-1547.005
542635.250,4287305.500,-1533.371
542635.250,4287105.500,-1523.773
542635.250,4286905.500,-1515.388
542635.250,4286705.500,-1508.616
542635.250,4286505.500,-1501.037
542635.250,4286305.500,-1496.463
542635.250,4286105.500,-1487.000
542635.250,4285905.500,-1479.123
542635.250,4285705.500,-1473.209
542635.250,4285505.500,-1466.724
542635.250,4285305.500,-1457.826
542635.250,4285105.500,-1452.193
542635.250,4284905.500,-1447.592
542635.250,4284705.500,-1443.108
542635.250,4284505.500,-1438.066
542635.250,4284305.500,-1430.240
542635.250,4284105.500,-1423.001
542635.250,4283905.500,-1416.213
542635.250,4283705.500,-1409.591
542635.250,4283505.500,-1400.783
542635.250,4283305.500,-1393.995
542635.250,4283105.500,-1385.795
542635.250,4282905.500,-1377.439
542635.250,4282705.500,-1370.213
542635.250,4282505.500,-1364.946
542635.250,4282305.500,-1359.371
542635.250,4282105.500,-1348.442
542635.250,4281905.500,-1334.811
542635.250,4281705.500,-1327.103
542635.250,4281505.500,-1325.190
542635.250,4281305.500,-1312.891
542635.250,4281105.500,-1282.245
542635.250,4280905.500,-1251.917
542635.250,4280705.500,-1219.772
542635.250,4280505.500,-1191.490
542635.250,4280305.500,-1165.199
542635.250,4280105.500,-1135.749
542635.250,4279905.500,-1106.160
542635.250,4279705.500,-1067.849
542635.250,4279505.500,-1031.199
542635.250,4279305.500,-996.141
542635.250,4279105.500,-960.008
542635.250,4278905.500,-939.104
542635.250,4278705.500,-927.254
542635.250,4278505.500,-918.524
542635.250,4278305.500,-911.823
542635.250,4278105.500,-906.001
542635.250,4277905.500,-901.762
542635.250,4277705.500,-900.825
542635.250,4277505.500,-908.376
542635.250,4277305.500,-922.475
542635.250,4277105.500,-929.466
542635.250,4276905.500,-930.748
542635.250,4276705.500,-932.203
542635.250,4276505.500,-934.604
542635.250,4276305.500,-938.805
542635.250,4276105.500,-942.736
542635.250,4275905.500,-944.960
542635.250,4275705.500,-946.462
542635.250,4275505.500,-947.629
542635.250,4275305.500,-948.350
542635.250,4275105.500,-949.800
542635.250,4274905.500,-952.543
542635.250,4274705.500,-958.688
542635.250,4274505.500,-967.907
542635.250,4274305.500,-979.201
542635.250,4274105.500,-992.128
542835.250,4296905.500,-1535.607
542835.250,4296705.500,-1536.150
542835.250,4296505.500,-1520.038
542835.250,4296305.500,-1510.642
542835.250,4296105.500,-1521.670
542835.250,4295905.500,-1504.655
542835.250,4295705.500,-1458.383
542835.250,4295505.500,-1413.990
542835.250,4295305.500,-1389.229
542835.250,4295105.500,-1382.574
542835.250,4294905.500,-1381.147
542835.250,4294705.500,-1382.076
542835.250,4294505.500,-1386.201
542835.250,4294305.500,-1389.487
542835.250,4294105.500,-1390.368
542835.250,4293905.500,-1391.944
542835.250,4293705.500,-1396.299
542835.250,4293505.500,-1400.312
542835.250,4293305.500,-1405.157
542835.250,4293105.500,-1414.619
542835.250,4292905.500,-1431.019
542835.250,4292705.500,-1455.118
542835.250,4292505.500,-1478.909
542835.250,4292305.500,-1498.595
542835.250,4292105.500,-1506.928
542835.250,4291905.500,-1519.275
542835.250,4291705.500,-1535.278
542835.250,4291505.500,-1556.089
542835.250,4291305.500,-1581.586
542835.250,4291105.500,-1599.169
542835.250,4290905.500,-1612.833
542835.250,4290705.500,-1640.589
542835.250,4290505.500,-1707.816
542835.250,4290305.500,-1767.903
542835.250,4290105.500,-1801.767
542835.250,4289905.500,-1810.885
542835.250,4289705.500,-1810.121
542835.250,4289505.500,-1839.605
542835.250,4289305.500,-1867.914
542835.250,4289105.500,-1830.932
542835.250,4288905.500,-1806.357
542835.250,4288705.500,-1777.836
542835.250,4288505.500,-1757.887
542835.250,4288305.500,-1744.111
542835.250,4288105.500,-1733.947
542835.250,4287905.500,-1705.820
542835.250,4287705.500,-1597.488
542835.250,4287505.500,-1539.319
542835.250,4287305.500,-1522.477
542835.250,4287105.500,-1506.382
542835.250,4286905.500,-1498.174
542835.250,4286705.500,-1497.996
542835.250,4286505.500,-1492.154
542835.250,4286305.500,-1486.959
542835.250,4286105.500,-1481.573
542835.250,4285905.500,-1474.011
542835.250,4285705.500,-1465.761
542835.250,4285505.500,-1456.430
542835.250,4285305.500,-1447.926
542835.250,4285105.500,-1439.188
542835.250,4284905.500,-1434.629
542835.250,4284705.500,-1431.695
542835.250,4284505.500,-1427.879
542835.250,4284305.500,-1423.655
542835.250,4284105.500,-1418.603
542835.250,4283905.500,-1410.853
542835.250,4283705.500,-1402.541
542835.250,4283505.500,-1393.657
542835.250,4283305.500,-1386.185
542835.250,4283105.500,-1379.824
542835.250,4282905.500,-1370.580
542835.250,4282705.500,-1362.278
542835.250,4282505.500,-1356.359
542835.250,4282305.500,-1349.780
542835.250,4282105.500,-1339.978
542835.250,4281905.500,-1330.530
542835.250,4281705.500,-1329.920
542835.250,4281505.500,-1317.120
542835.250,4281305.500,-1283.905
542835.250,4281105.500,-1251.351
542835.250,4280905.500,-1219.349
542835.250,4280705.500,-1189.870
542835.250,4280505.500,-1162.292
542835.250,4280305.500,-1135.160
542835.250,4280105.500,-1105.686
542835.250,4279905.500,-1076.465
542835.250,4279705.500,-1039.156
542835.250,4279505.500,-1002.164
542835.250,4279305.500,-975.662
542835.250,4279105.500,-951.538
542835.250,4278905.500,-933.842
542835.250,4278705.500,-920.856
542835.250,4278505.500,-911.368
542835.250,4278305.500,-903.950
542835.250,4278105.500,-898.889
542835.250,4277905.500,-896.029
542835.250,4277705.500,-897.824
542835.250,4277505.500,-908.442
542835.250,4277305.500,-920.017
542835.250,4277105.500,-925.187
542835.250,4276905.500,-928.269
542835.250,4276705.500,-929.603
542835.250,4276505.500,-932.410
542835.250,4276305.500,-936.951
542835.250,4276105.500,-941.076
542835.250,4275905.500,-944.628
542835.250,4275705.500,-946.855
542835.250,4275505.500,-947.731
542835.250,4275305.500,-948.474
542835.250,4275105.500,-949.387
542835.250,4274905.500,-951.474
542835.250,4274705.500,-956.688
542835.250,4274505.500,-965.172
542835.250,4274305.500,-974.701
542835.250,4274105.500,-986.316
543035.250,4296905.500,-1492.305
543035.250,4296705.500,-1491.357
543035.250,4296505.500,-1473.272
543035.250,4296305.500,-1481.343
543035.250,4296105.500,-1489.842
543035.250,4295905.500,-1470.052
543035.250,4295705.500,-1427.229
543035.250,4295505.500,-1392.007
543035.250,4295305.500,-1378.496
543035.250,4295105.500,-1375.384
543035.250,4294905.500,-1375.564
543035.250,4294705.500,-1379.306
543035.250,4294505.500,-1390.394
543035.250,4294305.500,-1395.716
543035.250,4294105.500,-1395.961
543035.250,4293905.500,-1395.850
543035.250,4293705.500,-1398.276
543035.250,4293505.500,-1402.997
543035.250,4293305.500,-1407.613
543035.250,4293105.500,-1417.046
543035.250,4292905.500,-1431.844
543035.250,4292705.500,-1450.315
543035.250,4292505.500,-1475.674
543035.250,4292305.500,-1493.920
543035.250,4292105.500,-1504.945
543035.250,4291905.500,-1510.768
543035.250,4291705.500,-1525.244
543035.250,4291505.500,-1551.135
543035.250,4291305.500,-1580.148
543035.250,4291105.500,-1597.610
543035.250,4290905.500,-1615.844
543035.250,4290705.500,-1685.260
543035.250,4290505.500,-1750.526
543035.250,4290305.500,-1788.322
543035.250,4290105.500,-1812.457
543035.250,4289905.500,-1820.064
543035.250,4289705.500,-1824.753
543035.250,4289505.500,-1850.835
543035.250,4289305.500,-1852.957
543035.250,4289105.500,-1800.010
543035.250,4288905.500,-1775.423
543035.250,4288705.500,-1746.785
543035.250,4288505.500,-1729.154
543035.250,4288305.500,-1720.745
543035.250,4288105.500,-1717.114
543035.250,4287905.500,-1694.139
543035.250,4287705.500,-1589.776
543035.250,4287505.500,-1522.973
543035.250,4287305.500,-1504.627
543035.250,4287105.500,-1496.286
543035.250,4286905.500,-1486.973
543035.250,4286705.500,-1488.578
543035.250,4286505.500,-1485.308
543035.250,4286305.500,-1478.145
543035.250,4286105.500,-1473.338
543035.250,4285905.500,-1466.516
543035.250,4285705.500,-1458.718
543035.250,4285505.500,-1449.558
543035.250,4285305.500,-1441.043
543035.250,4285105.500,-1431.095
543035.250,4284905.500,-1424.607
543035.250,4284705.500,-1420.394
543035.250,4284505.500,-1417.330
543035.250,4284305.500,-1415.792
543035.250,4284105.500,-1411.932
543035.250,4283905.500,-1403.898
543035.250,4283705.500,-1394.905
543035.250,4283505.500,-1385.127
543035.250,4283305.500,-1378.949
543035.250,4283105.500,-1371.284
543035.250,4282905.500,-1361.377
543035.250,4282705.500,-1354.681
543035.250,4282505.500,-1347.643
543035.250,4282305.500,-1341.895
543035.250,4282105.500,-1331.325
543035.250,4281905.500,-1327.504
543035.250,4281705.500,-1322.654
543035.250,4281505.500,-1298.301
543035.250,4281305.500,-1270.135
543035.250,4281105.500,-1230.925
543035.250,4280905.500,-1188.566
543035.250,4280705.500,-1160.442
543035.250,4280505.500,-1136.660
543035.250,4280305.500,-1110.525
543035.250,4280105.500,-1081.835
543035.250,4279905.500,-1044.642
543035.250,4279705.500,-1010.920
543035.250,4279505.500,-984.167
543035.250,4279305.500,-964.517
543035.250,4279105.500,-944.361
543035.250,4278905.500,-927.062
543035.250,4278705.500,-914.409
543035.250,4278505.500,-904.140
543035.250,4278305.500,-897.083
543035.250,4278105.500,-893.320
543035.250,4277905.500,-893.329
543035.250,4277705.500,-897.186
543035.250,4277505.500,-909.231
543035.250,4277305.500,-919.377
543035.250,4277105.500,-924.714
543035.250,4276905.500,-927.128
543035.250,4276705.500,-929.395
543035.250,4276505.500,-930.647
543035.250,4276305.500,-933.516
543035.250,4276105.500,-938.264
543035.250,4275905.500,-942.300
543035.250,4275705.500,-945.479
543035.250,4275505.500,-947.334
543035.250,4275305.500,-948.535
543035.250,4275105.500,-950.154
543035.250,4274905.500,-952.080
543035.250,4274705.500,-956.308
543035.250,4274505.500,-963.809
543035.250,4274305.500,-972.149
543035.250,4274105.500,-982.999
543235.250,4296905.500,-1451.293
543235.250,4296705.500,-1445.654
543235.250,4296505.500,-1450.107
543235.250,4296305.500,-1460.059
543235.250,4296105.500,-1456.154
543235.250,4295905.500,-1433.962
543235.250,4295705.500,-1398.212
543235.250,4295505.500,-1378.568
543235.250,4295305.500,-1372.422
543235.250,4295105.500,-1370.559
543235.250,4294905.500,-1372.238
543235.250,4294705.500,-1379.846
543235.250,4294505.500,-1393.201
543235.250,4294305.500,-1398.167
543235.250,4294105.500,-1399.591
543235.250,4293905.500,-1399.852
543235.250,4293705.500,-1402.060
543235.250,4293505.500,-1406.557
543235.250,4293305.500,-1413.317
543235.250,4293105.500,-1422.365
543235.250,4292905.500,-1436.246
543235.250,4292705.500,-1456.810
543235.250,4292505.500,-1474.033
543235.250,4292305.500,-1485.424
543235.250,4292105.500,-1497.785
543235.250,4291905.500,-1505.600
543235.250,4291705.500,-1515.090
543235.250,4291505.500,-1538.822
543235.250,4291305.500,-1570.145
543235.250,4291105.500,-1593.564
543235.250,4290905.500,-1637.677
543235.250,4290705.500,-1712.939
543235.250,4290505.500,-1777.671
543235.250,4290305.500,-1813.010
543235.250,4290105.500,-1822.311
543235.250,4289905.500,-1827.417
543235.250,4289705.500,-1841.839
543235.250,4289505.500,-1852.035
543235.250,4289305.500,-1833.782
543235.250,4289105.500,-1767.138
543235.250,4288905.500,-1739.074
543235.250,4288705.500,-1717.234
543235.250,4288505.500,-1709.135
543235.250,4288305.500,-1708.075
543235.250,4288105.500,-1706.496
543235.250,4287905.500,-1668.325
543235.250,4287705.500,-1574.823
543235.250,4287505.500,-1524.676
543235.250,4287305.500,-1508.961
543235.250,4287105.500,-1498.756
543235.250,4286905.500,-1488.323
543235.250,4286705.500,-1483.351
543235.250,4286505.500,-1476.388
543235.250,4286305.500,-1470.650
543235.250,4286105.500,-1465.988
543235.250,4285905.500,-1459.686
543235.250,4285705.500,-1450.301
543235.250,4285505.500,-1442.297
543235.250,4285305.500,-1435.140
543235.250,4285105.500,-1425.674
543235.250,4284905.500,-1416.186
543235.250,4284705.500,-1410.999
543235.250,4284505.500,-1409.091
543235.250,4284305.500,-1406.358
543235.250,4284105.500,-1401.714
543235.250,4283905.500,-1394.573
543235.250,4283705.500,-1386.393
543235.250,4283505.500,-1377.451
543235.250,4283305.500,-1371.720
543235.250,4283105.500,-1361.591
543235.250,4282905.500,-1351.833
543235.250,4282705.500,-1346.013
543235.250,4282505.500,-1340.354
543235.250,4282305.500,-1335.062
543235.250,4282105.500,-1328.586
543235.250,4281905.500,-1326.955
543235.250,4281705.500,-1305.273
543235.250,4281505.500,-1274.510
543235.250,4281305.500,-1246.978
543235.250,4281105.500,-1211.760
543235.250,4280905.500,-1172.891
543235.250,4280705.500,-1137.414
543235.250,4280505.500,-1109.019
543235.250,4280305.500,-1080.244
543235.250,4280105.500,-1051.139
543235.250,4279905.500,-1022.847
543235.250,4279705.500,-995.914
543235.250,4279505.500,-973.427
543235.250,4279305.500,-955.516
543235.250,4279105.500,-937.397
543235.250,4278905.500,-920.647
543235.250,4278705.500,-907.290
543235.250,4278505.500,-896.385
543235.250,4278305.500,-890.939
543235.250,4278105.500,-888.260
543235.250,4277905.500,-892.087
543235.250,4277705.500,-898.791
543235.250,4277505.500,-909.311
543235.250,4277305.500,-918.496
543235.250,4277105.500,-922.615
543235.250,4276905.500,-926.675
543235.250,4276705.500,-929.046
543235.250,4276505.500,-931.256
543235.250,4276305.500,-934.253
543235.250,4276105.500,-937.147
543235.250,4275905.500,-940.016
543235.250,4275705.500,-942.522
543235.250,4275505.500,-945.312
543235.250,4275305.500,-947.096
543235.250,4275105.500,-949.293
543235.250,4274905.500,-951.710
543235.250,4274705.500,-956.016
543235.250,4274505.500,-963.555
543235.250,4274305.500,-971.784
543235.250,4274105.500,-982.325
543435.250,4297105.500,-1438.569
543435.250,4296905.500,-1427.458
543435.250,4296705.500,-1420.641
543435.250,4296505.500,-1429.367
543435.250,4296305.500,-1430.803
543435.250,4296105.500,-1414.854
543435.250,4295905.500,-1397.495
543435.250,4295705.500,-1379.332
543435.250,4295505.500,-1371.116
543435.250,4295305.500,-1369.084
543435.250,4295105.500,-1370.079
543435.250,4294905.500,-1373.865
543435.250,4294705.500,-1380.159
543435.250,4294505.500,-1392.621
543435.250,4294305.500,-1401.206
543435.250,4294105.500,-1402.613
543435.250,4293905.500,-1403.226
543435.250,4293705.500,-1406.029
543435.250,4293505.500,-1409.549
543435.250,4293305.500,-1418.424
543435.250,4293105.500,-1427.286
543435.250,4292905.500,-1439.097
543435.250,4292705.500,-1458.593
543435.250,4292505.500,-1474.912
543435.250,4292305.500,-1478.141
543435.250,4292105.500,-1485.667
543435.250,4291905.500,-1498.757
543435.250,4291705.500,-1511.825
543435.250,4291505.500,-1554.261
543435.250,4291305.500,-1611.380
543435.250,4291105.500,-1627.206
543435.250,4290905.500,-1677.113
543435.250,4290705.500,-1734.941
543435.250,4290505.500,-1790.229
543435.250,4290305.500,-1818.924
543435.250,4290105.500,-1826.086
543435.250,4289905.500,-1827.130
543435.250,4289705.500,-1831.271
543435.250,4289505.500,-1831.973
543435.250,4289305.500,-1779.189
543435.250,4289105.500,-1725.721
543435.250,4288905.500,-1711.124
543435.250,4288705.500,-1705.564
543435.250,4288505.500,-1702.719
543435.250,4288305.500,-1695.222
543435.250,4288105.500,-1687.424
543435.250,4287905.500,-1614.931
543435.250,4287705.500,-1546.989
543435.250,4287505.500,-1519.188
543435.250,4287305.500,-1506.208
543435.250,4287105.500,-1494.094
543435.250,4286905.500,-1478.198
543435.250,4286705.500,-1472.872
543435.250,4286505.500,-1468.005
543435.250,4286305.500,-1463.563
543435.250,4286105.500,-1458.632
543435.250,4285905.500,-1451.787
543435.250,4285705.500,-1444.488
543435.250,4285505.500,-1435.620
543435.250,4285305.500,-1428.215
543435.250,4285105.500,-1421.143
543435.250,4284905.500,-1411.306
543435.250,4284705.500,-1404.768
543435.250,4284505.500,-1402.067
543435.250,4284305.500,-1396.879
543435.250,4284105.500,-1387.871
543435.250,4283905.500,-1381.417
543435.250,4283705.500,-1376.010
543435.250,4283505.500,-1370.369
543435.250,4283305.500,-1363.131
543435.250,4283105.500,-1352.927
543435.250,4282905.500,-1343.361
543435.250,4282705.500,-1336.841
543435.250,4282505.500,-1332.735
543435.250,4282305.500,-1330.527
543435.250,4282105.500,-1329.729
543435.250,4281905.500,-1322.734
543435.250,4281705.500,-1293.401
543435.250,4281505.500,-1256.345
543435.250,4281305.500,-1217.497
543435.250,4281105.500,-1184.181
543435.250,4280905.500,-1147.623
543435.250,4280705.500,-1111.984
543435.250,4280505.500,-1082.882
543435.250,4280305.500,-1053.111
543435.250,4280105.500,-1028.224
543435.250,4279905.500,-1007.527
543435.250,4279705.500,-982.551
543435.250,4279505.500,-963.538
543435.250,4279305.500,-941.695
543435.250,4279105.500,-922.644
543435.250,4278905.500,-910.036
543435.250,4278705.500,-899.929
543435.250,4278505.500,-890.892
543435.250,4278305.500,-885.795
543435.250,4278105.500,-886.913
543435.250,4277905.500,-891.485
543435.250,4277705.500,-898.717
543435.250,4277505.500,-908.708
543435.250,4277305.500,-917.151
543435.250,4277105.500,-922.398
543435.250,4276905.500,-925.723
543435.250,4276705.500,-928.454
543435.250,4276505.500,-930.514
543435.250,4276305.500,-933.017
543435.250,4276105.500,-935.675
543435.250,4275905.500,-938.013
543435.250,4275705.500,-940.117
543435.250,4275505.500,-942.584
543435.250,4275305.500,-944.611
543435.250,4275105.500,-947.264
543435.250,4274905.500,-950.083
543435.250,4274705.500,-954.552
543435.250,4274505.500,-962.325
543435.250,4274305.500,-971.029
543435.250,4274105.500,-981.969
543635.250,4297305.500,-1393.874
543635.250,4297105.500,-1411.702
543635.250,4296905.500,-1396.537
543635.250,4296705.500,-1397.226
543635.250,4296505.500,-1402.997
543635.250,4296305.500,-1397.497
543635.250,4296105.500,-1378.022
543635.250,4295905.500,-1371.841
543635.250,4295705.500,-1369.924
543635.250,4295505.500,-1367.564
543635.250,4295305.500,-1367.035
543635.250,4295105.500,-1369.581
543635.250,4294905.500,-1373.338
543635.250,4294705.500,-1379.211
543635.250,4294505.500,-1391.053
543635.250,4294305.500,-1402.789
543635.250,4294105.500,-1405.396
543635.250,4293905.500,-1406.110
543635.250,4293705.500,-1408.769
543635.250,4293505.500,-1413.756
543635.250,4293305.500,-1422.260
543635.250,4293105.500,-1429.464
543635.250,4292905.500,-1439.818
543635.250,4292705.500,-1455.863
543635.250,4292505.500,-1473.823
543635.250,4292305.500,-1478.370
543635.250,4292105.500,-1475.221
543635.250,4291905.500,-1494.351
543635.250,4291705.500,-1558.135
543635.250,4291505.500,-1620.430
543635.250,4291305.500,-1679.746
543635.250,4291105.500,-1711.780
543635.250,4290905.500,-1733.668
543635.250,4290705.500,-1770.544
543635.250,4290505.500,-1798.453
543635.250,4290305.500,-1817.592
543635.250,4290105.500,-1822.665
543635.250,4289905.500,-1816.194
543635.250,4289705.500,-1798.887
543635.250,4289505.500,-1768.465
543635.250,4289305.500,-1723.315
543635.250,4289105.500,-1699.399
543635.250,4288905.500,-1689.644
543635.250,4288705.500,-1687.731
543635.250,4288505.500,-1686.571
543635.250,4288305.500,-1680.498
543635.250,4288105.500,-1661.073
543635.250,4287905.500,-1558.746
543635.250,4287705.500,-1503.637
543635.250,4287505.500,-1492.798
543635.250,4287305.500,-1486.731
543635.250,4287105.500,-1476.930
543635.250,4286905.500,-1464.057
543635.250,4286705.500,-1463.259
543635.250,4286505.500,-1459.763
543635.250,4286305.500,-1455.990
543635.250,4286105.500,-1453.837
543635.250,4285905.500,-1445.803
543635.250,4285705.500,-1437.801
543635.250,4285505.500,-1429.831
543635.250,4285305.500,-1423.028
543635.250,4285105.500,-1413.089
543635.250,4284905.500,-1403.181
543635.250,4284705.500,-1398.418
543635.250,4284505.500,-1394.381
543635.250,4284305.500,-1388.399
543635.250,4284105.500,-1377.820
543635.250,4283905.500,-1370.584
543635.250,4283705.500,-1367.274
543635.250,4283505.500,-1363.220
543635.250,4283305.500,-1353.143
543635.250,4283105.500,-1343.651
543635.250,4282905.500,-1336.585
543635.250,4282705.500,-1330.144
543635.250,4282505.500,-1326.132
543635.250,4282305.500,-1326.862
543635.250,4282105.500,-1326.749
543635.250,4281905.500,-1309.810
543635.250,4281705.500,-1269.316
543635.250,4281505.500,-1235.854
543635.250,4281305.500,-1196.817
543635.250,4281105.500,-1155.423
543635.250,4280905.500,-1123.774
543635.250,4280705.500,-1092.624
