508585.250,4277305.500,-48.927
508585.250,4277255.500,-44.886
508585.250,4277205.500,-39.442
508585.250,4277155.500,-38.128
508585.250,4277105.500,-41.600
508585.250,4276405.500,-21.648
508585.250,4276355.500,-22.840
508585.250,4276305.500,-24.974
508585.250,4276255.500,-29.297
508585.250,4276205.500,-35.228
508585.250,4276155.500,-40.470
508585.250,4276105.500,-43.978
508585.250,4276055.500,-46.469
508585.250,4276005.500,-48.705
508585.250,4275955.500,-50.436
508585.250,4275905.500,-51.555
508585.250,4275855.500,-52.753
508585.250,4275805.500,-54.797
508585.250,4275755.500,-57.306
508585.250,4275705.500,-59.241
508585.250,4275655.500,-60.850
508585.250,4275605.500,-62.497
508585.250,4275555.500,-64.335
508585.250,4275505.500,-66.447
508585.250,4275455.500,-69.194
508585.250,4275405.500,-72.203
508585.250,4275355.500,-73.574
508585.250,4275305.500,-72.813
508585.250,4275255.500,-71.996
508585.250,4275205.500,-71.593
508585.250,4275155.500,-72.151
508585.250,4275105.500,-73.601
508585.250,4275055.500,-75.461
508585.250,4275005.500,-77.248
508585.250,4274955.500,-78.220
508585.250,4274905.500,-79.254
508585.250,4274855.500,-80.114
508585.250,4274805.500,-80.635
508585.250,4274755.500,-80.795
508585.250,4274705.500,-81.040
508585.250,4274655.500,-81.749
508585.250,4274605.500,-82.121
508585.250,4274555.500,-82.708
508585.250,4274505.500,-84.827
508585.250,4274455.500,-86.105
508585.250,4274405.500,-86.964
508585.250,4274355.500,-88.589
508585.250,4274305.500,-90.512
508585.250,4274255.500,-93.203
508585.250,4274205.500,-96.247
508585.250,4274155.500,-98.710
508585.250,4274105.500,-100.826
508635.250,4281005.500,-130.106
508635.250,4280955.500,-92.491
508635.250,4280905.500,-91.831
508635.250,4280855.500,-87.616
508635.250,4280805.500,-84.719
508635.250,4280755.500,-82.215
508635.250,4280705.500,-80.556
508635.250,4280655.500,-79.503
508635.250,4280605.500,-78.339
508635.250,4280555.500,-77.105
508635.250,4280505.500,-77.164
508635.250,4280455.500,-78.537
508635.250,4280405.500,-79.153
508635.250,4280355.500,-79.197
508635.250,4280305.500,-79.897
508635.250,4280255.500,-79.785
508635.250,4280205.500,-79.053
508635.250,4280155.500,-78.616
508635.250,4280105.500,-77.624
508635.250,4280055.500,-76.144
508635.250,4280005.500,-74.728
508635.250,4279955.500,-73.287
508635.250,4279905.500,-71.757
508635.250,4279855.500,-70.368
508635.250,4279805.500,-69.499
508635.250,4279755.500,-69.018
508635.250,4279705.500,-68.734
508635.250,4279655.500,-68.245
508635.250,4279605.500,-67.364
508635.250,4279555.500,-66.851
508635.250,4279505.500,-65.565
508635.250,4279455.500,-62.626
508635.250,4279405.500,-59.959
508635.250,4279355.500,-57.648
508635.250,4279305.500,-55.496
508635.250,4279255.500,-53.618
508635.250,4279205.500,-51.819
508635.250,4279155.500,-49.590
508635.250,4279105.500,-46.642
508635.250,4279055.500,-47.550
508635.250,4279005.500,-51.452
508635.250,4278955.500,-51.981
508635.250,4278905.500,-54.180
508635.250,4278855.500,-56.853
508635.250,4278805.500,-60.608
508635.250,4278755.500,-64.057
508635.250,4278705.500,-65.850
508635.250,4278655.500,-68.946
508635.250,4278605.500,-72.759
508635.250,4278555.500,-74.424
508635.250,4278505.500,-74.321
508635.250,4278455.500,-73.931
508635.250,4278405.500,-73.770
508635.250,4278355.500,-73.385
508635.250,4278305.500,-73.106
508635.250,4278255.500,-73.422
508635.250,4278205.500,-73.569
508635.250,4278155.500,-75.755
508635.250,4278105.500,-78.443
508635.250,4278055.500,-78.525
508635.250,4278005.500,-77.758
508635.250,4277955.500,-75.437
508635.250,4277905.500,-72.109
508635.250,4277855.500,-67.180
508635.250,4277805.500,-61.969
508635.250,4277755.500,-59.805
508635.250,4277705.500,-57.653
508635.250,4277655.500,-56.410
508635.250,4277605.500,-54.908
508635.250,4277555.500,-53.625
508635.250,4277505.500,-52.285
508635.250,4277455.500,-51.003
508635.250,4277405.500,-50.089
508635.250,4277355.500,-48.914
508635.250,4277305.500,-45.345
508635.250,4277255.500,-37.400
508635.250,4277205.500,-31.757
508635.250,4277155.500,-32.850
508635.250,4276355.500,-20.292
508635.250,4276305.500,-21.921
508635.250,4276255.500,-26.729
508635.250,4276205.500,-33.418
508635.250,4276155.500,-39.438
508635.250,4276105.500,-43.561
508635.250,4276055.500,-45.953
508635.250,4276005.500,-48.011
508635.250,4275955.500,-49.792
508635.250,4275905.500,-51.310
508635.250,4275855.500,-53.194
508635.250,4275805.500,-55.723
508635.250,4275755.500,-58.014
508635.250,4275705.500,-59.789
508635.250,4275655.500,-61.570
508635.250,4275605.500,-63.609
508635.250,4275555.500,-65.577
508635.250,4275505.500,-68.176
508635.250,4275455.500,-71.317
508635.250,4275405.500,-74.187
508635.250,4275355.500,-75.963
508635.250,4275305.500,-74.925
508635.250,4275255.500,-73.235
508635.250,4275205.500,-72.713
508635.250,4275155.500,-72.326
508635.250,4275105.500,-73.019
508635.250,4275055.500,-74.394
508635.250,4275005.500,-76.053
508635.250,4274955.500,-77.572
508635.250,4274905.500,-78.844
508635.250,4274855.500,-79.475
508635.250,4274805.500,-80.040
508635.250,4274755.500,-80.687
508635.250,4274705.500,-81.007
508635.250,4274655.500,-81.217
508635.250,4274605.500,-81.492
508635.250,4274555.500,-82.412
508635.250,4274505.500,-84.316
508635.250,4274455.500,-85.659
508635.250,4274405.500,-86.347
508635.250,4274355.500,-87.585
508635.250,4274305.500,-90.435
508635.250,4274255.500,-93.312
508635.250,4274205.500,-95.865
508635.250,4274155.500,-98.290
508635.250,4274105.500,-100.398
508685.250,4281055.500,-170.007
508685.250,4281005.500,-124.243
508685.250,4280955.500,-87.579
508685.250,4280905.500,-86.440
508685.250,4280855.500,-87.285
508685.250,4280805.500,-86.335
508685.250,4280755.500,-84.272
508685.250,4280705.500,-82.498
508685.250,4280655.500,-80.494
508685.250,4280605.500,-78.774
508685.250,4280555.500,-78.632
508685.250,4280505.500,-79.300
508685.250,4280455.500,-78.974
508685.250,4280405.500,-78.307
508685.250,4280355.500,-78.331
508685.250,4280305.500,-78.974
508685.250,4280255.500,-78.695
508685.250,4280205.500,-77.946
508685.250,4280155.500,-77.576
508685.250,4280105.500,-76.615
508685.250,4280055.500,-75.249
508685.250,4280005.500,-73.774
508685.250,4279955.500,-72.350
508685.250,4279905.500,-71.007
508685.250,4279855.500,-69.885
508685.250,4279805.500,-69.148
508685.250,4279755.500,-68.664
508685.250,4279705.500,-68.112
508685.250,4279655.500,-68.618
508685.250,4279605.500,-68.877
508685.250,4279555.500,-69.399
508685.250,4279505.500,-71.110
508685.250,4279455.500,-67.981
508685.250,4279405.500,-64.836
508685.250,4279355.500,-62.949
508685.250,4279305.500,-60.972
508685.250,4279255.500,-58.853
508685.250,4279205.500,-57.784
508685.250,4279155.500,-59.021
508685.250,4279105.500,-60.995
508685.250,4279055.500,-60.700
508685.250,4279005.500,-58.063
508685.250,4278955.500,-57.135
508685.250,4278905.500,-63.081
508685.250,4278855.500,-69.152
508685.250,4278805.500,-71.127
508685.250,4278755.500,-71.725
508685.250,4278705.500,-72.667
508685.250,4278655.500,-73.897
508685.250,4278605.500,-74.653
508685.250,4278555.500,-75.578
508685.250,4278505.500,-76.757
508685.250,4278455.500,-76.522
508685.250,4278405.500,-76.538
508685.250,4278355.500,-76.865
508685.250,4278305.500,-78.590
508685.250,4278255.500,-79.565
508685.250,4278205.500,-77.924
508685.250,4278155.500,-78.993
508685.250,4278105.500,-79.776
508685.250,4278055.500,-80.039
508685.250,4278005.500,-79.841
508685.250,4277955.500,-78.678
508685.250,4277905.500,-76.179
508685.250,4277855.500,-70.899
508685.250,4277805.500,-63.927
508685.250,4277755.500,-60.434
508685.250,4277705.500,-57.968
508685.250,4277655.500,-56.578
508685.250,4277605.500,-54.855
508685.250,4277555.500,-53.430
508685.250,4277505.500,-51.922
508685.250,4277455.500,-50.281
508685.250,4277405.500,-49.108
508685.250,4277355.500,-47.381
508685.250,4277305.500,-42.230
508685.250,4277255.500,-35.135
508685.250,4277205.500,-31.303
508685.250,4276305.500,-20.543
508685.250,4276255.500,-23.923
508685.250,4276205.500,-28.794
508685.250,4276155.500,-35.776
508685.250,4276105.500,-42.264
508685.250,4276055.500,-45.111
508685.250,4276005.500,-47.084
508685.250,4275955.500,-48.832
508685.250,4275905.500,-50.811
508685.250,4275855.500,-53.616
508685.250,4275805.500,-56.096
508685.250,4275755.500,-58.085
508685.250,4275705.500,-59.745
508685.250,4275655.500,-61.618
508685.250,4275605.500,-64.046
508685.250,4275555.500,-66.670
508685.250,4275505.500,-69.971
508685.250,4275455.500,-73.391
508685.250,4275405.500,-75.509
508685.250,4275355.500,-77.472
508685.250,4275305.500,-77.560
508685.250,4275255.500,-76.058
508685.250,4275205.500,-74.185
508685.250,4275155.500,-73.164
508685.250,4275105.500,-73.212
508685.250,4275055.500,-73.507
508685.250,4275005.500,-74.630
508685.250,4274955.500,-76.565
508685.250,4274905.500,-78.521
508685.250,4274855.500,-79.596
508685.250,4274805.500,-80.295
508685.250,4274755.500,-81.125
508685.250,4274705.500,-81.722
508685.250,4274655.500,-81.948
508685.250,4274605.500,-82.240
508685.250,4274555.500,-82.720
508685.250,4274505.500,-83.338
508685.250,4274455.500,-84.735
508685.250,4274405.500,-85.862
508685.250,4274355.500,-87.266
508685.250,4274305.500,-90.012
508685.250,4274255.500,-92.978
508685.250,4274205.500,-95.463
508685.250,4274155.500,-97.729
508685.250,4274105.500,-99.662
508735.250,4281055.500,-170.579
508735.250,4281005.500,-144.476
508735.250,4280955.500,-112.964
508735.250,4280905.500,-90.480
508735.250,4280855.500,-88.533
508735.250,4280805.500,-88.394
508735.250,4280755.500,-85.253
508735.250,4280705.500,-82.943
508735.250,4280655.500,-81.220
508735.250,4280605.500,-80.085
508735.250,4280555.500,-79.135
508735.250,4280505.500,-79.184
508735.250,4280455.500,-79.360
508735.250,4280405.500,-78.731
508735.250,4280355.500,-78.877
508735.250,4280305.500,-79.088
508735.250,4280255.500,-78.488
508735.250,4280205.500,-77.603
508735.250,4280155.500,-76.865
508735.250,4280105.500,-75.796
508735.250,4280055.500,-74.483
508735.250,4280005.500,-73.101
508735.250,4279955.500,-71.772
508735.250,4279905.500,-70.575
508735.250,4279855.500,-69.839
508735.250,4279805.500,-70.717
508735.250,4279755.500,-72.003
508735.250,4279705.500,-71.395
508735.250,4279655.500,-74.390
508735.250,4279605.500,-78.681
508735.250,4279555.500,-76.439
508735.250,4279505.500,-74.222
508735.250,4279455.500,-72.105
508735.250,4279405.500,-70.846
508735.250,4279355.500,-69.620
508735.250,4279305.500,-68.009
508735.250,4279255.500,-66.502
508735.250,4279205.500,-65.041
508735.250,4279155.500,-64.363
508735.250,4279105.500,-63.976
508735.250,4279055.500,-62.599
508735.250,4279005.500,-61.892
508735.250,4278955.500,-65.601
508735.250,4278905.500,-70.924
508735.250,4278855.500,-71.677
508735.250,4278805.500,-71.625
508735.250,4278755.500,-72.519
508735.250,4278705.500,-73.757
508735.250,4278655.500,-74.035
508735.250,4278605.500,-74.191
508735.250,4278555.500,-78.320
508735.250,4278505.500,-84.070
508735.250,4278455.500,-84.322
508735.250,4278405.500,-84.671
508735.250,4278355.500,-84.637
508735.250,4278305.500,-84.350
508735.250,4278255.500,-83.810
508735.250,4278205.500,-82.561
508735.250,4278155.500,-81.173
508735.250,4278105.500,-81.024
508735.250,4278055.500,-81.189
508735.250,4278005.500,-81.158
508735.250,4277955.500,-80.284
508735.250,4277905.500,-78.422
508735.250,4277855.500,-74.879
508735.250,4277805.500,-68.354
508735.250,4277755.500,-62.852
508735.250,4277705.500,-59.629
508735.250,4277655.500,-57.246
508735.250,4277605.500,-55.387
508735.250,4277555.500,-53.825
508735.250,4277505.500,-51.663
508735.250,4277455.500,-49.715
508735.250,4277405.500,-48.490
508735.250,4277355.500,-45.454
508735.250,4277305.500,-40.071
508735.250,4277255.500,-36.255
508735.250,4277205.500,-35.289
508735.250,4276255.500,-20.835
508735.250,4276205.500,-23.673
508735.250,4276155.500,-31.362
508735.250,4276105.500,-39.769
508735.250,4276055.500,-43.879
508735.250,4276005.500,-46.186
508735.250,4275955.500,-47.954
508735.250,4275905.500,-50.235
508735.250,4275855.500,-53.611
508735.250,4275805.500,-56.033
508735.250,4275755.500,-57.742
508735.250,4275705.500,-59.221
508735.250,4275655.500,-61.061
508735.250,4275605.500,-63.743
508735.250,4275555.500,-66.338
508735.250,4275505.500,-69.105
508735.250,4275455.500,-72.380
508735.250,4275405.500,-75.793
508735.250,4275355.500,-78.518
508735.250,4275305.500,-78.939
508735.250,4275255.500,-77.930
508735.250,4275205.500,-76.308
508735.250,4275155.500,-74.260
508735.250,4275105.500,-73.871
508735.250,4275055.500,-74.139
508735.250,4275005.500,-74.700
508735.250,4274955.500,-76.034
508735.250,4274905.500,-77.754
508735.250,4274855.500,-79.308
508735.250,4274805.500,-80.388
508735.250,4274755.500,-80.926
508735.250,4274705.500,-81.456
508735.250,4274655.500,-82.135
508735.250,4274605.500,-82.853
508735.250,4274555.500,-83.482
508735.250,4274505.500,-83.677
508735.250,4274455.500,-84.117
508735.250,4274405.500,-84.896
508735.250,4274355.500,-86.453
508735.250,4274305.500,-89.297
508735.250,4274255.500,-92.417
508735.250,4274205.500,-95.044
508735.250,4274155.500,-97.050
508735.250,4274105.500,-98.594
508785.250,4281055.500,-170.714
508785.250,4281005.500,-147.395
508785.250,4280955.500,-128.212
508785.250,4280905.500,-110.528
508785.250,4280855.500,-96.245
508785.250,4280805.500,-92.037
508785.250,4280755.500,-88.089
508785.250,4280705.500,-84.210
508785.250,4280655.500,-82.068
508785.250,4280605.500,-80.696
508785.250,4280555.500,-79.765
508785.250,4280505.500,-79.248
508785.250,4280455.500,-79.547
508785.250,4280405.500,-79.622
508785.250,4280355.500,-79.293
508785.250,4280305.500,-78.666
508785.250,4280255.500,-77.560
508785.250,4280205.500,-76.523
508785.250,4280155.500,-75.981
508785.250,4280105.500,-74.714
508785.250,4280055.500,-73.445
508785.250,4280005.500,-73.068
508785.250,4279955.500,-73.205
508785.250,4279905.500,-73.735
508785.250,4279855.500,-74.668
508785.250,4279805.500,-79.258
508785.250,4279755.500,-85.523
508785.250,4279705.500,-86.207
508785.250,4279655.500,-84.129
508785.250,4279605.500,-80.910
508785.250,4279555.500,-77.582
508785.250,4279505.500,-75.899
508785.250,4279455.500,-75.187
508785.250,4279405.500,-73.500
508785.250,4279355.500,-70.973
508785.250,4279305.500,-69.415
508785.250,4279255.500,-68.813
508785.250,4279205.500,-68.374
508785.250,4279155.500,-67.576
508785.250,4279105.500,-66.211
508785.250,4279055.500,-66.164
508785.250,4279005.500,-71.148
508785.250,4278955.500,-75.118
508785.250,4278905.500,-73.752
508785.250,4278855.500,-73.394
508785.250,4278805.500,-74.125
508785.250,4278755.500,-74.986
508785.250,4278705.500,-75.992
508785.250,4278655.500,-76.578
508785.250,4278605.500,-77.408
508785.250,4278555.500,-81.896
508785.250,4278505.500,-85.727
508785.250,4278455.500,-85.460
508785.250,4278405.500,-85.123
508785.250,4278355.500,-84.727
508785.250,4278305.500,-84.369
508785.250,4278255.500,-84.134
508785.250,4278205.500,-83.419
508785.250,4278155.500,-82.474
508785.250,4278105.500,-82.295
508785.250,4278055.500,-82.139
508785.250,4278005.500,-81.688
508785.250,4277955.500,-80.782
508785.250,4277905.500,-79.281
508785.250,4277855.500,-76.843
508785.250,4277805.500,-72.475
508785.250,4277755.500,-67.019
508785.250,4277705.500,-61.989
508785.250,4277655.500,-58.176
508785.250,4277605.500,-55.950
508785.250,4277555.500,-54.209
508785.250,4277505.500,-51.585
508785.250,4277455.500,-49.051
508785.250,4277405.500,-47.956
508785.250,4277355.500,-44.950
508785.250,4277305.500,-39.597
508785.250,4277255.500,-36.584
508785.250,4277205.500,-36.120
508785.250,4276255.500,-19.270
508785.250,4276205.500,-20.159
508785.250,4276155.500,-25.688
508785.250,4276105.500,-34.933
508785.250,4276055.500,-42.263
508785.250,4276005.500,-45.470
508785.250,4275955.500,-48.016
508785.250,4275905.500,-50.685
508785.250,4275855.500,-53.250
508785.250,4275805.500,-55.444
508785.250,4275755.500,-57.417
508785.250,4275705.500,-59.145
508785.250,4275655.500,-60.967
508785.250,4275605.500,-63.418
508785.250,4275555.500,-66.351
508785.250,4275505.500,-69.368
508785.250,4275455.500,-71.704
508785.250,4275405.500,-74.745
508785.250,4275355.500,-77.664
508785.250,4275305.500,-79.086
508785.250,4275255.500,-78.424
508785.250,4275205.500,-77.003
508785.250,4275155.500,-75.074
508785.250,4275105.500,-74.714
508785.250,4275055.500,-75.753
508785.250,4275005.500,-76.092
508785.250,4274955.500,-76.526
508785.250,4274905.500,-77.420
508785.250,4274855.500,-78.843
508785.250,4274805.500,-80.089
508785.250,4274755.500,-80.769
508785.250,4274705.500,-81.160
508785.250,4274655.500,-81.588
508785.250,4274605.500,-82.484
508785.250,4274555.500,-83.376
508785.250,4274505.500,-83.874
508785.250,4274455.500,-84.041
508785.250,4274405.500,-84.438
508785.250,4274355.500,-86.248
508785.250,4274305.500,-89.195
508785.250,4274255.500,-92.193
508785.250,4274205.500,-94.414
508785.250,4274155.500,-96.034
508785.250,4274105.500,-97.309
508835.250,4281055.500,-167.503
508835.250,4281005.500,-144.267
508835.250,4280955.500,-128.103
508835.250,4280905.500,-114.187
508835.250,4280855.500,-103.022
508835.250,4280805.500,-98.620
508835.250,4280755.500,-92.368
508835.250,4280705.500,-87.112
508835.250,4280655.500,-84.057
508835.250,4280605.500,-80.971
508835.250,4280555.500,-79.640
508835.250,4280505.500,-79.130
508835.250,4280455.500,-78.999
508835.250,4280405.500,-79.013
508835.250,4280355.500,-78.632
508835.250,4280305.500,-78.010
508835.250,4280255.500,-76.375
508835.250,4280205.500,-74.862
508835.250,4280155.500,-75.469
508835.250,4280105.500,-75.596
508835.250,4280055.500,-75.728
508835.250,4280005.500,-78.503
508835.250,4279955.500,-82.554
508835.250,4279905.500,-86.618
508835.250,4279855.500,-88.932
508835.250,4279805.500,-89.722
508835.250,4279755.500,-88.652
508835.250,4279705.500,-86.259
508835.250,4279655.500,-83.419
508835.250,4279605.500,-81.146
508835.250,4279555.500,-79.023
508835.250,4279505.500,-77.144
508835.250,4279455.500,-75.712
508835.250,4279405.500,-74.000
508835.250,4279355.500,-71.847
508835.250,4279305.500,-70.397
508835.250,4279255.500,-70.018
508835.250,4279205.500,-69.700
508835.250,4279155.500,-69.169
508835.250,4279105.500,-68.564
508835.250,4279055.500,-71.480
508835.250,4279005.500,-79.115
508835.250,4278955.500,-82.906
508835.250,4278905.500,-83.688
508835.250,4278855.500,-80.703
508835.250,4278805.500,-79.324
508835.250,4278755.500,-81.808
508835.250,4278705.500,-83.798
508835.250,4278655.500,-85.446
508835.250,4278605.500,-85.515
508835.250,4278555.500,-85.643
508835.250,4278505.500,-85.612
508835.250,4278455.500,-85.363
508835.250,4278405.500,-84.950
508835.250,4278355.500,-84.567
508835.250,4278305.500,-84.109
508835.250,4278255.500,-83.882
508835.250,4278205.500,-83.514
508835.250,4278155.500,-83.204
508835.250,4278105.500,-83.209
508835.250,4278055.500,-83.081
508835.250,4278005.500,-82.284
508835.250,4277955.500,-80.960
508835.250,4277905.500,-79.703
508835.250,4277855.500,-78.098
508835.250,4277805.500,-75.082
508835.250,4277755.500,-70.088
508835.250,4277705.500,-64.317
508835.250,4277655.500,-59.136
508835.250,4277605.500,-56.207
508835.250,4277555.500,-54.378
508835.250,4277505.500,-51.595
508835.250,4277455.500,-48.308
508835.250,4277405.500,-47.129
508835.250,4277355.500,-44.626
508835.250,4277305.500,-41.318
508835.250,4277255.500,-39.344
508835.250,4276205.500,-18.865
508835.250,4276155.500,-21.483
508835.250,4276105.500,-29.559
508835.250,4276055.500,-39.793
508835.250,4276005.500,-44.274
508835.250,4275955.500,-47.184
508835.250,4275905.500,-49.889
508835.250,4275855.500,-52.391
508835.250,4275805.500,-54.787
508835.250,4275755.500,-57.279
508835.250,4275705.500,-59.561
508835.250,4275655.500,-61.566
508835.250,4275605.500,-63.482
508835.250,4275555.500,-66.157
508835.250,4275505.500,-69.221
508835.250,4275455.500,-71.151
508835.250,4275405.500,-72.144
508835.250,4275355.500,-74.240
508835.250,4275305.500,-77.398
508835.250,4275255.500,-77.178
508835.250,4275205.500,-76.207
508835.250,4275155.500,-75.569
508835.250,4275105.500,-75.740
508835.250,4275055.500,-77.535
508835.250,4275005.500,-78.034
508835.250,4274955.500,-77.863
508835.250,4274905.500,-77.786
508835.250,4274855.500,-78.662
508835.250,4274805.500,-79.784
508835.250,4274755.500,-80.389
508835.250,4274705.500,-80.769
508835.250,4274655.500,-81.378
508835.250,4274605.500,-82.289
508835.250,4274555.500,-83.182
508835.250,4274505.500,-83.617
508835.250,4274455.500,-84.150
508835.250,4274405.500,-84.997
508835.250,4274355.500,-86.779
508835.250,4274305.500,-89.345
508835.250,4274255.500,-91.488
508835.250,4274205.500,-93.340
508835.250,4274155.500,-94.713
508835.250,4274105.500,-95.810
508885.250,4281105.500,-175.290
508885.250,4281055.500,-154.359
508885.250,4281005.500,-136.053
508885.250,4280955.500,-123.254
508885.250,4280905.500,-114.206
508885.250,4280855.500,-106.490
508885.250,4280805.500,-102.822
508885.250,4280755.500,-97.633
508885.250,4280705.500,-90.407
508885.250,4280655.500,-85.665
508885.250,4280605.500,-82.012
508885.250,4280555.500,-79.777
508885.250,4280505.500,-78.669
508885.250,4280455.500,-77.925
508885.250,4280405.500,-78.476
508885.250,4280355.500,-78.523
508885.250,4280305.500,-78.933
508885.250,4280255.500,-80.102
508885.250,4280205.500,-79.638
508885.250,4280155.500,-79.608
508885.250,4280105.500,-85.592
508885.250,4280055.500,-89.898
508885.250,4280005.500,-91.781
508885.250,4279955.500,-93.138
508885.250,4279905.500,-93.096
508885.250,4279855.500,-91.568
508885.250,4279805.500,-89.556
508885.250,4279755.500,-86.807
508885.250,4279705.500,-84.119
508885.250,4279655.500,-82.157
508885.250,4279605.500,-80.444
508885.250,4279555.500,-78.872
508885.250,4279505.500,-77.060
508885.250,4279455.500,-75.502
508885.250,4279405.500,-74.358
508885.250,4279355.500,-72.842
508885.250,4279305.500,-71.600
508885.250,4279255.500,-71.201
508885.250,4279205.500,-71.432
508885.250,4279155.500,-71.436
508885.250,4279105.500,-71.529
508885.250,4279055.500,-74.321
508885.250,4279005.500,-79.797
508885.250,4278955.500,-83.772
508885.250,4278905.500,-85.852
508885.250,4278855.500,-86.370
508885.250,4278805.500,-86.256
508885.250,4278755.500,-85.863
508885.250,4278705.500,-85.090
508885.250,4278655.500,-84.762
508885.250,4278605.500,-84.988
508885.250,4278555.500,-84.923
508885.250,4278505.500,-84.852
508885.250,4278455.500,-84.764
508885.250,4278405.500,-84.576
508885.250,4278355.500,-84.224
508885.250,4278305.500,-83.884
508885.250,4278255.500,-83.694
508885.250,4278205.500,-83.463
508885.250,4278155.500,-83.498
508885.250,4278105.500,-83.489
508885.250,4278055.500,-83.268
508885.250,4278005.500,-82.446
508885.250,4277955.500,-80.944
508885.250,4277905.500,-79.910
508885.250,4277855.500,-78.757
508885.250,4277805.500,-76.402
508885.250,4277755.500,-71.991
508885.250,4277705.500,-66.418
508885.250,4277655.500,-60.591
508885.250,4277605.500,-56.315
508885.250,4277555.500,-54.268
508885.250,4277505.500,-51.773
508885.250,4277455.500,-48.529
508885.250,4277405.500,-45.961
508885.250,4277355.500,-42.363
508885.250,4277305.500,-40.858
508885.250,4277255.500,-40.350
508885.250,4276255.500,-16.485
508885.250,4276205.500,-17.471
508885.250,4276155.500,-19.669
508885.250,4276105.500,-25.571
508885.250,4276055.500,-35.748
508885.250,4276005.500,-42.303
508885.250,4275955.500,-45.631
508885.250,4275905.500,-48.497
508885.250,4275855.500,-51.476
508885.250,4275805.500,-54.451
508885.250,4275755.500,-57.311
508885.250,4275705.500,-59.690
508885.250,4275655.500,-61.768
508885.250,4275605.500,-63.879
508885.250,4275555.500,-66.624
508885.250,4275505.500,-69.818
508885.250,4275455.500,-71.542
508885.250,4275405.500,-72.187
508885.250,4275355.500,-73.281
508885.250,4275305.500,-74.835
508885.250,4275255.500,-75.728
508885.250,4275205.500,-76.359
508885.250,4275155.500,-77.675
508885.250,4275105.500,-78.629
508885.250,4275055.500,-79.227
508885.250,4275005.500,-79.609
508885.250,4274955.500,-80.076
508885.250,4274905.500,-79.883
508885.250,4274855.500,-79.369
508885.250,4274805.500,-79.745
508885.250,4274755.500,-80.359
508885.250,4274705.500,-80.931
508885.250,4274655.500,-81.801
508885.250,4274605.500,-82.961
508885.250,4274555.500,-83.937
508885.250,4274505.500,-83.969
508885.250,4274455.500,-84.449
508885.250,4274405.500,-85.017
508885.250,4274355.500,-86.401
508885.250,4274305.500,-88.696
508885.250,4274255.500,-90.390
508885.250,4274205.500,-91.932
508885.250,4274155.500,-93.235
508885.250,4274105.500,-94.351
508935.250,4281155.500,-181.508
508935.250,4281105.500,-159.365
508935.250,4281055.500,-143.579
508935.250,4281005.500,-136.081
508935.250,4280955.500,-129.344
508935.250,4280905.500,-119.802
508935.250,4280855.500,-112.965
508935.250,4280805.500,-109.098
508935.250,4280755.500,-103.574
508935.250,4280705.500,-97.915
508935.250,4280655.500,-92.882
508935.250,4280605.500,-88.463
508935.250,4280555.500,-85.565
508935.250,4280505.500,-84.523
508935.250,4280455.500,-84.234
508935.250,4280405.500,-83.201
508935.250,4280355.500,-84.291
508935.250,4280305.500,-87.455
508935.250,4280255.500,-91.894
508935.250,4280205.500,-94.990
508935.250,4280155.500,-97.169
508935.250,4280105.500,-97.613
508935.250,4280055.500,-96.735
508935.250,4280005.500,-95.349
508935.250,4279955.500,-94.257
508935.250,4279905.500,-92.934
508935.250,4279855.500,-91.042
508935.250,4279805.500,-88.499
508935.250,4279755.500,-85.719
508935.250,4279705.500,-83.547
508935.250,4279655.500,-81.600
508935.250,4279605.500,-79.777
508935.250,4279555.500,-78.328
508935.250,4279505.500,-76.888
508935.250,4279455.500,-75.573
508935.250,4279405.500,-74.427
508935.250,4279355.500,-73.336
508935.250,4279305.500,-72.067
508935.250,4279255.500,-71.495
508935.250,4279205.500,-71.643
508935.250,4279155.500,-72.516
508935.250,4279105.500,-73.915
508935.250,4279055.500,-75.537
508935.250,4279005.500,-78.507
508935.250,4278955.500,-83.107
508935.250,4278905.500,-86.420
508935.250,4278855.500,-86.622
508935.250,4278805.500,-86.094
508935.250,4278755.500,-85.168
508935.250,4278705.500,-84.276
508935.250,4278655.500,-84.101
508935.250,4278605.500,-84.194
508935.250,4278555.500,-84.250
508935.250,4278505.500,-84.185
508935.250,4278455.500,-84.193
508935.250,4278405.500,-84.133
508935.250,4278355.500,-83.881
508935.250,4278305.500,-83.572
508935.250,4278255.500,-83.239
508935.250,4278205.500,-82.985
508935.250,4278155.500,-83.078
508935.250,4278105.500,-83.158
508935.250,4278055.500,-82.978
508935.250,4278005.500,-82.042
508935.250,4277955.500,-80.683
508935.250,4277905.500,-79.912
508935.250,4277855.500,-79.025
508935.250,4277805.500,-77.329
508935.250,4277755.500,-73.468
508935.250,4277705.500,-67.897
508935.250,4277655.500,-62.025
508935.250,4277605.500,-56.936
508935.250,4277555.500,-54.157
508935.250,4277505.500,-51.777
508935.250,4277455.500,-49.018
508935.250,4277405.500,-45.483
508935.250,4277355.500,-41.038
508935.250,4277305.500,-39.289
508935.250,4276305.500,-16.011
508935.250,4276255.500,-16.887
508935.250,4276205.500,-18.278
508935.250,4276155.500,-19.527
508935.250,4276105.500,-22.536
508935.250,4276055.500,-30.593
508935.250,4276005.500,-39.838
508935.250,4275955.500,-44.462
508935.250,4275905.500,-47.758
508935.250,4275855.500,-50.745
508935.250,4275805.500,-54.263
508935.250,4275755.500,-57.299
508935.250,4275705.500,-59.316
508935.250,4275655.500,-61.196
508935.250,4275605.500,-64.180
508935.250,4275555.500,-67.685
508935.250,4275505.500,-70.972
508935.250,4275455.500,-73.046
508935.250,4275405.500,-73.675
508935.250,4275355.500,-74.221
508935.250,4275305.500,-75.392
508935.250,4275255.500,-76.570
508935.250,4275205.500,-77.778
508935.250,4275155.500,-79.048
508935.250,4275105.500,-79.931
508935.250,4275055.500,-80.601
508935.250,4275005.500,-81.146
508935.250,4274955.500,-81.691
508935.250,4274905.500,-82.350
508935.250,4274855.500,-82.033
508935.250,4274805.500,-81.332
508935.250,4274755.500,-81.838
508935.250,4274705.500,-82.772
508935.250,4274655.500,-83.703
508935.250,4274605.500,-84.604
508935.250,4274555.500,-85.515
508935.250,4274505.500,-85.719
508935.250,4274455.500,-85.701
508935.250,4274405.500,-85.660
508935.250,4274355.500,-87.001
508935.250,4274305.500,-88.641
508935.250,4274255.500,-89.797
508935.250,4274205.500,-91.013
508935.250,4274155.500,-92.139
508935.250,4274105.500,-93.177
508985.250,4281455.500,-192.574
508985.250,4281405.500,-190.250
508985.250,4281205.500,-184.729
508985.250,4281155.500,-168.666
508985.250,4281105.500,-154.297
508985.250,4281055.500,-144.944
508985.250,4281005.500,-138.016
508985.250,4280955.500,-128.172
508985.250,4280905.500,-121.325
508985.250,4280855.500,-118.162
508985.250,4280805.500,-115.583
508985.250,4280755.500,-110.616
508985.250,4280705.500,-105.345
508985.250,4280655.500,-102.864
508985.250,4280605.500,-101.734
508985.250,4280555.500,-101.120
508985.250,4280505.500,-98.706
508985.250,4280455.500,-97.817
508985.250,4280405.500,-99.313
508985.250,4280355.500,-100.891
508985.250,4280305.500,-102.164
508985.250,4280255.500,-102.310
508985.250,4280205.500,-101.865
508985.250,4280155.500,-101.144
508985.250,4280105.500,-99.882
508985.250,4280055.500,-97.760
508985.250,4280005.500,-94.635
508985.250,4279955.500,-92.387
508985.250,4279905.500,-91.080
508985.250,4279855.500,-89.442
508985.250,4279805.500,-87.343
508985.250,4279755.500,-85.030
508985.250,4279705.500,-82.894
508985.250,4279655.500,-81.067
508985.250,4279605.500,-79.423
508985.250,4279555.500,-77.827
508985.250,4279505.500,-76.883
508985.250,4279455.500,-76.128
508985.250,4279405.500,-73.844
508985.250,4279355.500,-72.529
508985.250,4279305.500,-71.234
508985.250,4279255.500,-70.501
508985.250,4279205.500,-70.356
508985.250,4279155.500,-70.768
508985.250,4279105.500,-71.764
508985.250,4279055.500,-73.550
508985.250,4279005.500,-76.101
508985.250,4278955.500,-81.131
508985.250,4278905.500,-86.464
508985.250,4278855.500,-86.365
508985.250,4278805.500,-85.444
508985.250,4278755.500,-84.429
508985.250,4278705.500,-83.792
508985.250,4278655.500,-83.494
508985.250,4278605.500,-83.530
508985.250,4278555.500,-83.555
508985.250,4278505.500,-83.482
508985.250,4278455.500,-83.530
508985.250,4278405.500,-83.602
508985.250,4278355.500,-83.524
508985.250,4278305.500,-83.246
508985.250,4278255.500,-82.909
508985.250,4278205.500,-82.574
508985.250,4278155.500,-82.631
508985.250,4278105.500,-82.741
508985.250,4278055.500,-82.536
508985.250,4278005.500,-81.624
508985.250,4277955.500,-80.452
508985.250,4277905.500,-79.632
508985.250,4277855.500,-78.888
508985.250,4277805.500,-77.773
508985.250,4277755.500,-74.114
508985.250,4277705.500,-68.046
508985.250,4277655.500,-62.710
508985.250,4277605.500,-58.047
508985.250,4277555.500,-53.917
508985.250,4277505.500,-49.524
508985.250,4277455.500,-45.374
508985.250,4277405.500,-41.472
508985.250,4277355.500,-38.930
508985.250,4277305.500,-37.880
508985.250,4276355.500,-15.863
508985.250,4276305.500,-16.787
508985.250,4276255.500,-18.060
508985.250,4276205.500,-18.873
508985.250,4276155.500,-20.095
508985.250,4276105.500,-21.908
508985.250,4276055.500,-26.571
508985.250,4276005.500,-35.478
508985.250,4275955.500,-42.152
508985.250,4275905.500,-46.035
508985.250,4275855.500,-50.026
508985.250,4275805.500,-54.017
508985.250,4275755.500,-56.921
508985.250,4275705.500,-58.637
508985.250,4275655.500,-60.943
508985.250,4275605.500,-65.132
508985.250,4275555.500,-69.295
508985.250,4275505.500,-72.066
508985.250,4275455.500,-73.982
508985.250,4275405.500,-75.071
508985.250,4275355.500,-76.062
508985.250,4275305.500,-77.046
508985.250,4275255.500,-77.757
508985.250,4275205.500,-78.699
508985.250,4275155.500,-79.612
508985.250,4275105.500,-80.370
508985.250,4275055.500,-81.050
508985.250,4275005.500,-81.674
508985.250,4274955.500,-82.247
508985.250,4274905.500,-82.558
508985.250,4274855.500,-83.022
508985.250,4274805.500,-83.752
508985.250,4274755.500,-83.901
508985.250,4274705.500,-83.907
508985.250,4274655.500,-83.937
508985.250,4274605.500,-84.361
508985.250,4274555.500,-84.846
508985.250,4274505.500,-85.411
508985.250,4274455.500,-85.668
508985.250,4274405.500,-85.988
508985.250,4274355.500,-86.973
508985.250,4274305.500,-88.436
508985.250,4274255.500,-89.723
508985.250,4274205.500,-90.957
508985.250,4274155.500,-92.037
508985.250,4274105.500,-92.942
509035.250,4282555.500,-196.634
509035.250,4282005.500,-179.951
509035.250,4281955.500,-180.867
509035.250,4281905.500,-191.528
509035.250,4281505.500,-187.109
509035.250,4281455.500,-172.539
509035.250,4281405.500,-170.182
509035.250,4281355.500,-171.369
509035.250,4281305.500,-169.615
509035.250,4281255.500,-170.569
509035.250,4281205.500,-169.361
509035.250,4281155.500,-161.886
509035.250,4281105.500,-157.185
509035.250,4281055.500,-148.435
509035.250,4281005.500,-138.142
509035.250,4280955.500,-128.868
509035.250,4280905.500,-121.426
509035.250,4280855.500,-118.800
509035.250,4280805.500,-116.427
509035.250,4280755.500,-112.056
509035.250,4280705.500,-106.789
509035.250,4280655.500,-104.317
509035.250,4280605.500,-103.758
509035.250,4280555.500,-105.228
509035.250,4280505.500,-106.383
509035.250,4280455.500,-108.168
509035.250,4280405.500,-108.358
509035.250,4280355.500,-106.055
509035.250,4280305.500,-105.036
509035.250,4280255.500,-103.965
509035.250,4280205.500,-102.854
509035.250,4280155.500,-101.293
509035.250,4280105.500,-99.407
509035.250,4280055.500,-97.511
509035.250,4280005.500,-94.765
509035.250,4279955.500,-91.790
509035.250,4279905.500,-88.873
509035.250,4279855.500,-86.315
509035.250,4279805.500,-84.361
509035.250,4279755.500,-82.711
509035.250,4279705.500,-81.012
509035.250,4279655.500,-79.427
509035.250,4279605.500,-77.972
509035.250,4279555.500,-76.513
509035.250,4279505.500,-75.923
509035.250,4279455.500,-76.200
509035.250,4279355.500,-70.895
509035.250,4279305.500,-69.876
509035.250,4279255.500,-69.207
509035.250,4279205.500,-69.026
509035.250,4279155.500,-69.299
509035.250,4279105.500,-70.018
509035.250,4279055.500,-71.373
509035.250,4279005.500,-73.574
509035.250,4278955.500,-78.705
509035.250,4278905.500,-85.008
509035.250,4278855.500,-85.872
509035.250,4278805.500,-85.089
509035.250,4278755.500,-84.025
509035.250,4278705.500,-83.413
509035.250,4278655.500,-83.246
509035.250,4278605.500,-82.979
509035.250,4278555.500,-82.939
509035.250,4278505.500,-82.861
509035.250,4278455.500,-82.871
509035.250,4278405.500,-82.994
509035.250,4278355.500,-83.012
509035.250,4278305.500,-82.838
509035.250,4278255.500,-82.636
509035.250,4278205.500,-82.406
509035.250,4278155.500,-82.370
509035.250,4278105.500,-82.472
509035.250,4278055.500,-82.278
509035.250,4278005.500,-81.435
509035.250,4277955.500,-80.237
509035.250,4277905.500,-79.193
509035.250,4277855.500,-78.490
509035.250,4277805.500,-77.520
509035.250,4277755.500,-73.357
509035.250,4277705.500,-66.764
509035.250,4277655.500,-62.343
509035.250,4277605.500,-58.872
509035.250,4277555.500,-52.589
509035.250,4277505.500,-43.201
509035.250,4277455.500,-35.258
509035.250,4277405.500,-31.401
509035.250,4277355.500,-34.670
509035.250,4276455.500,-17.120
509035.250,4276405.500,-15.816
509035.250,4276355.500,-15.566
509035.250,4276305.500,-16.161
509035.250,4276255.500,-17.458
509035.250,4276205.500,-18.750
509035.250,4276155.500,-19.579
509035.250,4276105.500,-20.104
509035.250,4276055.500,-21.306
509035.250,4276005.500,-28.518
509035.250,4275955.500,-39.197
509035.250,4275905.500,-45.297
509035.250,4275855.500,-49.411
509035.250,4275805.500,-53.456
509035.250,4275755.500,-56.380
509035.250,4275705.500,-58.294
509035.250,4275655.500,-61.679
509035.250,4275605.500,-66.700
509035.250,4275555.500,-70.615
509035.250,4275505.500,-72.741
509035.250,4275455.500,-74.517
509035.250,4275405.500,-76.117
509035.250,4275355.500,-77.307
509035.250,4275305.500,-77.965
509035.250,4275255.500,-78.336
509035.250,4275205.500,-79.112
509035.250,4275155.500,-80.217
509035.250,4275105.500,-81.221
509035.250,4275055.500,-81.616
509035.250,4275005.500,-82.073
509035.250,4274955.500,-82.641
509035.250,4274905.500,-82.910
509035.250,4274855.500,-83.381
509035.250,4274805.500,-83.559
509035.250,4274755.500,-84.028
509035.250,4274705.500,-84.459
509035.250,4274655.500,-84.155
509035.250,4274605.500,-84.515
509035.250,4274555.500,-84.756
509035.250,4274505.500,-84.645
509035.250,4274455.500,-84.793
509035.250,4274405.500,-85.386
509035.250,4274355.500,-86.686
509035.250,4274305.500,-87.970
509035.250,4274255.500,-89.236
509035.250,4274205.500,-90.570
509035.250,4274155.500,-91.745
509035.250,4274105.500,-92.674
509085.250,4282555.500,-187.791
509085.250,4282355.500,-195.770
509085.250,4282055.500,-182.038
509085.250,4282005.500,-167.446
509085.250,4281955.500,-162.099
509085.250,4281905.500,-176.615
509085.250,4281855.500,-191.137
509085.250,4281505.500,-176.179
509085.250,4281455.500,-163.451
509085.250,4281405.500,-162.301
509085.250,4281355.500,-164.611
509085.250,4281305.500,-164.236
509085.250,4281255.500,-167.258
509085.250,4281205.500,-174.907
509085.250,4281155.500,-173.869
509085.250,4281105.500,-162.905
509085.250,4281055.500,-149.913
509085.250,4281005.500,-139.543
509085.250,4280955.500,-128.786
509085.250,4280905.500,-121.385
509085.250,4280855.500,-117.318
509085.250,4280805.500,-111.414
509085.250,4280755.500,-107.756
509085.250,4280705.500,-107.521
509085.250,4280655.500,-107.963
509085.250,4280605.500,-108.991
509085.250,4280555.500,-109.987
509085.250,4280505.500,-111.787
509085.250,4280455.500,-112.173
509085.250,4280405.500,-109.163
509085.250,4280355.500,-107.033
509085.250,4280305.500,-105.650
509085.250,4280255.500,-104.272
509085.250,4280205.500,-102.829
509085.250,4280155.500,-101.162
509085.250,4280105.500,-99.049
509085.250,4280055.500,-96.704
509085.250,4280005.500,-93.485
509085.250,4279955.500,-89.192
509085.250,4279905.500,-84.680
509085.250,4279855.500,-80.910
509085.250,4279805.500,-78.543
509085.250,4279755.500,-77.070
509085.250,4279705.500,-75.942
509085.250,4279655.500,-75.161
509085.250,4279605.500,-74.514
509085.250,4279555.500,-73.825
509085.250,4279505.500,-73.974
509085.250,4279355.500,-69.435
509085.250,4279305.500,-68.459
509085.250,4279255.500,-67.968
509085.250,4279205.500,-67.891
509085.250,4279155.500,-68.142
509085.250,4279105.500,-68.756
509085.250,4279055.500,-69.807
509085.250,4279005.500,-71.756
509085.250,4278955.500,-75.884
509085.250,4278905.500,-81.257
509085.250,4278855.500,-84.264
509085.250,4278805.500,-84.698
509085.250,4278755.500,-84.067
509085.250,4278705.500,-83.326
509085.250,4278655.500,-82.897
509085.250,4278605.500,-82.663
509085.250,4278555.500,-82.430
509085.250,4278505.500,-82.290
509085.250,4278455.500,-82.247
509085.250,4278405.500,-82.298
509085.250,4278355.500,-82.363
509085.250,4278305.500,-82.369
509085.250,4278255.500,-82.282
509085.250,4278205.500,-82.157
509085.250,4278155.500,-82.180
509085.250,4278105.500,-82.253
509085.250,4278055.500,-82.159
509085.250,4278005.500,-81.370
509085.250,4277955.500,-80.083
509085.250,4277905.500,-78.933
509085.250,4277855.500,-78.237
509085.250,4277805.500,-77.798
509085.250,4277755.500,-73.437
509085.250,4277705.500,-65.447
509085.250,4277655.500,-60.455
509085.250,4277605.500,-58.180
509085.250,4277555.500,-51.210
509085.250,4277505.500,-40.247
509085.250,4277455.500,-32.241
509085.250,4277405.500,-28.386
509085.250,4276555.500,-20.183
509085.250,4276505.500,-19.172
509085.250,4276455.500,-18.124
509085.250,4276405.500,-16.385
509085.250,4276355.500,-15.060
509085.250,4276305.500,-15.630
509085.250,4276255.500,-16.320
509085.250,4276105.500,-19.255
509085.250,4276055.500,-20.347
509085.250,4276005.500,-26.618
509085.250,4275955.500,-37.442
509085.250,4275905.500,-44.777
509085.250,4275855.500,-48.904
509085.250,4275805.500,-52.649
509085.250,4275755.500,-55.684
509085.250,4275705.500,-58.702
509085.250,4275655.500,-63.483
509085.250,4275605.500,-68.448
509085.250,4275555.500,-71.198
509085.250,4275505.500,-73.044
509085.250,4275455.500,-74.718
509085.250,4275405.500,-76.074
509085.250,4275355.500,-76.808
509085.250,4275305.500,-77.539
509085.250,4275255.500,-78.138
509085.250,4275205.500,-78.931
509085.250,4275155.500,-80.188
509085.250,4275105.500,-81.404
509085.250,4275055.500,-81.975
509085.250,4275005.500,-82.043
509085.250,4274955.500,-82.292
509085.250,4274905.500,-82.732
509085.250,4274855.500,-82.937
509085.250,4274805.500,-82.779
509085.250,4274755.500,-83.261
509085.250,4274705.500,-83.750
509085.250,4274655.500,-83.972
509085.250,4274605.500,-84.316
509085.250,4274555.500,-84.424
509085.250,4274505.500,-84.027
509085.250,4274455.500,-84.167
509085.250,4274405.500,-84.848
509085.250,4274355.500,-85.863
509085.250,4274305.500,-86.993
509085.250,4274255.500,-88.216
509085.250,4274205.500,-89.577
509085.250,4274155.500,-90.762
509085.250,4274105.500,-91.749
509135.250,4282555.500,-185.739
509135.250,4282505.500,-186.097
509135.250,4282405.500,-179.065
509135.250,4282355.500,-179.694
509135.250,4282305.500,-187.307
509135.250,4282155.500,-183.106
509135.250,4282105.500,-176.670
509135.250,4282055.500,-172.511
509135.250,4282005.500,-163.711
509135.250,4281955.500,-154.275
509135.250,4281905.500,-155.790
509135.250,4281855.500,-174.878
509135.250,4281805.500,-184.793
509135.250,4281555.500,-184.283
509135.250,4281505.500,-175.471
509135.250,4281455.500,-172.748
509135.250,4281405.500,-180.700
509135.250,4281355.500,-189.132
509135.250,4281305.500,-190.149
509135.250,4281255.500,-189.096
509135.250,4281205.500,-187.642
509135.250,4281155.500,-181.242
509135.250,4281105.500,-169.529
509135.250,4281055.500,-153.059
509135.250,4281005.500,-138.043
509135.250,4280955.500,-126.980
509135.250,4280905.500,-120.305
509135.250,4280855.500,-115.553
509135.250,4280805.500,-111.279
509135.250,4280755.500,-111.568
509135.250,4280705.500,-113.840
509135.250,4280655.500,-115.378
509135.250,4280605.500,-118.624
509135.250,4280555.500,-119.999
509135.250,4280505.500,-117.062
509135.250,4280455.500,-113.246
509135.250,4280405.500,-109.980
509135.250,4280355.500,-107.486
509135.250,4280305.500,-105.717
509135.250,4280255.500,-104.160
509135.250,4280205.500,-102.530
509135.250,4280155.500,-100.740
509135.250,4280105.500,-98.034
509135.250,4280055.500,-93.850
509135.250,4280005.500,-88.225
509135.250,4279955.500,-81.790
509135.250,4279905.500,-76.864
509135.250,4279855.500,-73.664
509135.250,4279805.500,-71.797
509135.250,4279755.500,-70.846
509135.250,4279705.500,-70.356
509135.250,4279655.500,-69.949
509135.250,4279605.500,-69.623
509135.250,4279555.500,-69.814
509135.250,4279505.500,-70.684
509135.250,4279305.500,-67.102
509135.250,4279255.500,-66.300
509135.250,4279205.500,-66.572
509135.250,4279155.500,-67.077
509135.250,4279105.500,-67.719
509135.250,4279055.500,-68.644
509135.250,4279005.500,-70.202
509135.250,4278955.500,-73.068
509135.250,4278905.500,-77.076
509135.250,4278855.500,-80.849
509135.250,4278805.500,-83.114
509135.250,4278755.500,-83.547
509135.250,4278705.500,-83.093
509135.250,4278655.500,-82.487
509135.250,4278605.500,-82.061
509135.250,4278555.500,-81.742
509135.250,4278505.500,-81.540
509135.250,4278455.500,-81.456
509135.250,4278405.500,-81.520
509135.250,4278355.500,-81.647
509135.250,4278305.500,-81.775
509135.250,4278255.500,-81.821
509135.250,4278205.500,-81.859
509135.250,4278155.500,-81.956
509135.250,4278105.500,-81.996
509135.250,4278055.500,-81.820
509135.250,4278005.500,-81.057
509135.250,4277955.500,-80.097
509135.250,4277905.500,-79.230
509135.250,4277855.500,-78.398
509135.250,4277805.500,-78.045
509135.250,4277755.500,-74.563
509135.250,4277705.500,-66.637
509135.250,4277655.500,-60.203
509135.250,4277605.500,-56.714
509135.250,4277555.500,-52.085
509135.250,4277505.500,-42.311
509135.250,4277455.500,-30.745
509135.250,4277405.500,-25.321
509135.250,4276605.500,-20.017
509135.250,4276555.500,-20.412
509135.250,4276505.500,-20.016
509135.250,4276455.500,-17.882
509135.250,4276405.500,-15.590
509135.250,4276355.500,-14.705
509135.250,4276305.500,-14.960
509135.250,4276055.500,-21.765
509135.250,4276005.500,-27.737
509135.250,4275955.500,-38.074
509135.250,4275905.500,-44.431
509135.250,4275855.500,-48.354
509135.250,4275805.500,-51.674
509135.250,4275755.500,-55.206
509135.250,4275705.500,-60.135
509135.250,4275655.500,-65.749
509135.250,4275605.500,-69.511
509135.250,4275555.500,-71.664
509135.250,4275505.500,-73.387
509135.250,4275455.500,-74.559
509135.250,4275405.500,-75.758
509135.250,4275355.500,-76.515
509135.250,4275305.500,-77.045
509135.250,4275255.500,-77.791
509135.250,4275205.500,-78.559
509135.250,4275155.500,-79.749
509135.250,4275105.500,-80.815
509135.250,4275055.500,-81.672
509135.250,4275005.500,-81.946
509135.250,4274955.500,-81.851
509135.250,4274905.500,-81.824
509135.250,4274855.500,-81.601
509135.250,4274805.500,-81.605
509135.250,4274755.500,-82.170
509135.250,4274705.500,-82.668
509135.250,4274655.500,-83.222
509135.250,4274605.500,-83.798
509135.250,4274555.500,-83.659
509135.250,4274505.500,-83.480
509135.250,4274455.500,-83.647
509135.250,4274405.500,-84.339
509135.250,4274355.500,-85.182
509135.250,4274305.500,-86.082
509135.250,4274255.500,-87.282
509135.250,4274205.500,-88.643
509135.250,4274155.500,-89.702
509135.250,4274105.500,-90.605
509185.250,4282555.500,-176.547
509185.250,4282505.500,-175.681
509185.250,4282455.500,-176.097
509185.250,4282405.500,-165.057
509185.250,4282355.500,-167.074
509185.250,4282305.500,-180.244
509185.250,4282255.500,-188.728
509185.250,4282155.500,-179.736
509185.250,4282105.500,-166.721
509185.250,4282055.500,-159.177
509185.250,4282005.500,-142.223
509185.250,4281955.500,-135.817
509185.250,4281905.500,-141.133
509185.250,4281855.500,-161.806
509185.250,4281805.500,-176.559
509185.250,4281755.500,-188.411
509185.250,4281705.500,-192.946
509185.250,4281655.500,-188.989
509185.250,4281605.500,-188.411
509185.250,4281555.500,-192.015
509185.250,4281505.500,-195.720
509185.250,4281205.500,-191.333
509185.250,4281155.500,-182.460
509185.250,4281105.500,-168.179
509185.250,4281055.500,-152.110
509185.250,4281005.500,-137.666
509185.250,4280955.500,-128.070
509185.250,4280905.500,-122.475
509185.250,4280855.500,-119.296
509185.250,4280805.500,-117.641
509185.250,4280755.500,-120.620
509185.250,4280705.500,-125.692
509185.250,4280655.500,-127.749
509185.250,4280605.500,-126.383
509185.250,4280555.500,-123.305
509185.250,4280505.500,-119.341
509185.250,4280455.500,-115.009
509185.250,4280405.500,-110.826
509185.250,4280355.500,-107.760
509185.250,4280305.500,-105.728
509185.250,4280255.500,-104.059
509185.250,4280205.500,-102.109
509185.250,4280155.500,-99.554
509185.250,4280105.500,-94.940
509185.250,4280055.500,-87.067
509185.250,4280005.500,-79.716
