805530.597,4499801.520,-487.260
805530.597,4499701.520,-494.860
805530.597,4499601.520,-511.690
805530.597,4499501.520,-530.680
805530.597,4499401.520,-554.850
805530.597,4499301.520,-579.740
805530.597,4499201.520,-598.860
805530.597,4499101.520,-608.650
805530.597,4499001.520,-607.630
805530.597,4498901.520,-602.410
805530.597,4498801.520,-583.920
805530.597,4498701.520,-554.090
805530.597,4498601.520,-528.760
805530.597,4498501.520,-506.630
805530.597,4498401.520,-493.390
805530.597,4498301.520,-487.170
805530.597,4498201.520,-481.570
805530.597,4498101.520,-477.900
805530.597,4498001.520,-475.700
805530.597,4497901.520,-475.880
805530.597,4497801.520,-478.320
805530.597,4497701.520,-480.570
805530.597,4497601.520,-475.670
805530.597,4497501.520,-471.170
805530.597,4497401.520,-468.970
805530.597,4497301.520,-467.670
805530.597,4497201.520,-467.060
805530.597,4497101.520,-467.830
805530.597,4497001.520,-469.380
805530.597,4496901.520,-462.370
805530.597,4496801.520,-448.490
805530.597,4496701.520,-416.860
805530.597,4496601.520,-396.420
805530.597,4496501.520,-396.640
805530.597,4496401.520,-409.980
805530.597,4496301.520,-428.870
805530.597,4496201.520,-454.660
805530.597,4496101.520,-468.850
805530.597,4496001.520,-473.840
805530.597,4495901.520,-477.560
805530.597,4495801.520,-474.490
805530.597,4495701.520,-455.660
805530.597,4495601.520,-435.080
805530.597,4495501.520,-412.610
805530.597,4495401.520,-390.000
805530.597,4495301.520,-371.160
805530.597,4495201.520,-352.930
805530.597,4495101.520,-332.200
805530.597,4495001.520,-311.190
805530.597,4494901.520,-308.540
805530.597,4494801.520,-329.350
805530.597,4494701.520,-358.920
805530.597,4494601.520,-389.900
805530.597,4494501.520,-417.860
805530.597,4494401.520,-435.150
805530.597,4494301.520,-441.610
805530.597,4494201.520,-442.030
805530.597,4494101.520,-441.280
805530.597,4494001.520,-440.100
805530.597,4493901.520,-434.530
805530.597,4493801.520,-417.090
805530.597,4493701.520,-407.390
805530.597,4493601.520,-414.020
805530.597,4493501.520,-427.150
805530.597,4493401.520,-443.630
805530.597,4493301.520,-453.080
805530.597,4493201.520,-453.130
805530.597,4493101.520,-466.450
805530.597,4493001.520,-467.060
805530.597,4492901.520,-475.250
805530.597,4492801.520,-486.860
805530.597,4492701.520,-483.340
805530.597,4492601.520,-487.080
805530.597,4492501.520,-490.100
805530.597,4492401.520,-493.760
805530.597,4492301.520,-497.010
805530.597,4492201.520,-488.630
805530.597,4492101.520,-478.490
805530.597,4492001.520,-464.780
805530.597,4491901.520,-442.260
805530.597,4491801.520,-423.680
805530.597,4491701.520,-404.710
805530.597,4491601.520,-386.400
805530.597,4491501.520,-373.630
805530.597,4491401.520,-361.270
805530.597,4491301.520,-347.730
805530.597,4491201.520,-340.210
805530.597,4491101.520,-338.310
805530.597,4491001.520,-335.380
805530.597,4490901.520,-334.450
805530.597,4490801.520,-332.690
805530.597,4490701.520,-336.220
805530.597,4490601.520,-342.690
805530.597,4490501.520,-348.760
805530.597,4490401.520,-359.740
805530.597,4490301.520,-367.720
805530.597,4490201.520,-355.700
805530.597,4490101.520,-340.170
805530.597,4490001.520,-326.510
805530.597,4489901.520,-305.920
805530.597,4489801.520,-293.030
805530.597,4489701.520,-289.410
805530.597,4489601.520,-289.500
805530.597,4489501.520,-285.710
805530.597,4489401.520,-286.900
805530.597,4489301.520,-296.460
805530.597,4489201.520,-297.190
805530.597,4489101.520,-287.950
805530.597,4489001.520,-274.480
805530.597,4488901.520,-262.570
805530.597,4488801.520,-256.710
805530.597,4488701.520,-253.230
805530.597,4488601.520,-250.240
805530.597,4488501.520,-250.170
805530.597,4488401.520,-262.500
805530.597,4488301.520,-311.330
805530.597,4488201.520,-353.980
805530.597,4488101.520,-379.260
805530.597,4488001.520,-392.990
805530.597,4487901.520,-409.870
805530.597,4487801.520,-424.570
805530.597,4487701.520,-416.790
805530.597,4487601.520,-391.550
805530.597,4487501.520,-377.220
805530.597,4487401.520,-370.490
805530.597,4487301.520,-380.550
805530.597,4487201.520,-373.770
805530.597,4487101.520,-363.820
805530.597,4487001.520,-358.770
805530.597,4486901.520,-356.840
805530.597,4486801.520,-356.900
805530.597,4486701.520,-358.390
805530.597,4486601.520,-349.290
805530.597,4486501.520,-342.350
805530.597,4486401.520,-334.480
805530.597,4486301.520,-324.370
805530.597,4486201.520,-310.580
805530.597,4486101.520,-298.340
805530.597,4486001.520,-288.410
805530.597,4485901.520,-280.380
805530.597,4485801.520,-274.250
805530.597,4485701.520,-269.620
805530.597,4485601.520,-269.200
805530.597,4485501.520,-262.680
805530.597,4485401.520,-255.740
805530.597,4485301.520,-250.100
805530.597,4485201.520,-248.870
805530.597,4485101.520,-247.570
805530.597,4485001.520,-243.670
805530.597,4484901.520,-242.360
805530.597,4484801.520,-244.890
805530.597,4484701.520,-245.130
805530.597,4484601.520,-242.520
805530.597,4484501.520,-241.940
805530.597,4484401.520,-242.160
805530.597,4484301.520,-235.670
805530.597,4484201.520,-223.000
805530.597,4484101.520,-216.940
805530.597,4484001.520,-218.400
805530.597,4483901.520,-226.060
805530.597,4483801.520,-230.500
805530.597,4483701.520,-230.220
805530.597,4483601.520,-229.200
805530.597,4483501.520,-226.460
805530.597,4483401.520,-223.560
805530.597,4483301.520,-217.050
805530.597,4483201.520,-209.490
805530.597,4483101.520,-203.630
805530.597,4483001.520,-200.410
805530.597,4482901.520,-202.940
805530.597,4482801.520,-206.510
805530.597,4482701.520,-207.840
805530.597,4482601.520,-205.440
805530.597,4482501.520,-202.170
805530.597,4482401.520,-202.310
805530.597,4482301.520,-203.100
805530.597,4482201.520,-204.280
805530.597,4482101.520,-203.050
805530.597,4482001.520,-202.630
805530.597,4481901.520,-202.030
805530.597,4481801.520,-203.820
805530.597,4481701.520,-211.150
805530.597,4481601.520,-217.500
805530.597,4481501.520,-220.190
805530.597,4481401.520,-221.650
805530.597,4481301.520,-220.190
805530.597,4481201.520,-218.660
805530.597,4481101.520,-217.940
805530.597,4481001.520,-211.410
805530.597,4480901.520,-209.420
805530.597,4480801.520,-198.960
805530.597,4480701.520,-197.780
805530.597,4480601.520,-197.110
805530.597,4480501.520,-193.740
805530.597,4480401.520,-192.230
805530.597,4480301.520,-187.680
805530.597,4480201.520,-184.100
805530.597,4480101.520,-179.930
805530.597,4480001.520,-178.320
805530.597,4479901.520,-179.600
805530.597,4479801.520,-183.430
805530.597,4479701.520,-190.490
805530.597,4479601.520,-201.050
805530.597,4479501.520,-213.250
805530.597,4479401.520,-226.580
805530.597,4479301.520,-232.570
805530.597,4479201.520,-237.190
805530.597,4479101.520,-246.540
805530.597,4479001.520,-246.410
805530.597,4478901.520,-237.910
805530.597,4478801.520,-233.190
805530.597,4478701.520,-231.240
805530.597,4478601.520,-230.010
805530.597,4478501.520,-230.310
805530.597,4478401.520,-230.360
805530.597,4478301.520,-229.380
805530.597,4478201.520,-228.550
805530.597,4478101.520,-228.320
805530.597,4478001.520,-227.250
805530.597,4477901.520,-225.160
805530.597,4477801.520,-222.020
805530.597,4477701.520,-218.360
805530.597,4477601.520,-215.750
805530.597,4477501.520,-214.460
805530.597,4477401.520,-213.690
805530.597,4477301.520,-213.020
805530.597,4477201.520,-211.360
805530.597,4477101.520,-207.860
805530.597,4477001.520,-205.470
805530.597,4476901.520,-204.280
805530.597,4476801.520,-205.170
805530.597,4476701.520,-203.150
805530.597,4476601.520,-202.560
805530.597,4476501.520,-195.690
805530.597,4476401.520,-190.310
805530.597,4476301.520,-184.990
805530.597,4476201.520,-183.160
805530.597,4476101.520,-181.290
805530.597,4476001.520,-174.960
805530.597,4475901.520,-169.180
805530.597,4475801.520,-168.360
805530.597,4475701.520,-166.900
805530.597,4475601.520,-165.920
805530.597,4475501.520,-167.270
805530.597,4475401.520,-164.210
805530.597,4475301.520,-157.240
805530.597,4475201.520,-152.390
805530.597,4475101.520,-150.670
805530.597,4475001.520,-150.200
805530.597,4474901.520,-150.040
805530.597,4474801.520,-151.270
805530.597,4474701.520,-153.020
805530.597,4474601.520,-155.400
805530.597,4474501.520,-158.280
805530.597,4474401.520,-161.860
805530.597,4474301.520,-167.660
805530.597,4474201.520,-172.610
805530.597,4474101.520,-173.660
805530.597,4474001.520,-176.960
805530.597,4473901.520,-179.850
805530.597,4473801.520,-180.920
805530.597,4473701.520,-180.550
805530.597,4473601.520,-178.040
805530.597,4473501.520,-179.550
805530.597,4473401.520,-182.460
805530.597,4473301.520,-185.270
805530.597,4473201.520,-189.750
805530.597,4473101.520,-194.810
805530.597,4473001.520,-197.500
805530.597,4472901.520,-197.130
805530.597,4472801.520,-197.760
805530.597,4472701.520,-195.530
805530.597,4472601.520,-191.050
805530.597,4472501.520,-187.520
805530.597,4472401.520,-184.570
805530.597,4472301.520,-183.340
805530.597,4472201.520,-182.740
805530.597,4472101.520,-182.080
805530.597,4472001.520,-182.900
805530.597,4471901.520,-183.020
805530.597,4471801.520,-184.480
805530.597,4471701.520,-186.630
805530.597,4471601.520,-188.840
805530.597,4471501.520,-189.050
805530.597,4471401.520,-187.360
805530.597,4471301.520,-185.850
805530.597,4471201.520,-187.630
805530.597,4471101.520,-187.520
805530.597,4471001.520,-187.450
805530.597,4470901.520,-187.430
805530.597,4470801.520,-187.200
805530.597,4470701.520,-187.420
805530.597,4470601.520,-186.980
805530.597,4470501.520,-187.540
805530.597,4470401.520,-189.280
805530.597,4470301.520,-190.380
805530.597,4470201.520,-190.510
805530.597,4470101.520,-189.290
805530.597,4470001.520,-186.150
805530.597,4469901.520,-183.550
805530.597,4469801.520,-183.940
805530.597,4469701.520,-181.480
805530.597,4469601.520,-173.120
805530.597,4469501.520,-167.760
805530.597,4469401.520,-165.640
805530.597,4469301.520,-160.510
805530.597,4469201.520,-154.480
805530.597,4469101.520,-152.230
805530.597,4469001.520,-152.270
805530.597,4468901.520,-151.670
805530.597,4468801.520,-151.320
805530.597,4468701.520,-150.880
805630.597,4507101.520,-649.920
805630.597,4507001.520,-647.480
805630.597,4506901.520,-644.440
805630.597,4506801.520,-642.420
805630.597,4506701.520,-640.300
805630.597,4506601.520,-639.460
805630.597,4506501.520,-638.070
805630.597,4506401.520,-635.610
805630.597,4506301.520,-633.310
805630.597,4506201.520,-630.950
805630.597,4506101.520,-627.480
805630.597,4506001.520,-624.090
805630.597,4505901.520,-621.820
805630.597,4505801.520,-619.120
805630.597,4505701.520,-617.110
805630.597,4505601.520,-616.530
805630.597,4505501.520,-616.690
805630.597,4505401.520,-616.960
805630.597,4505301.520,-618.080
805630.597,4505201.520,-617.830
805630.597,4505101.520,-617.380
805630.597,4505001.520,-616.760
805630.597,4504901.520,-615.810
805630.597,4504801.520,-615.110
805630.597,4504701.520,-615.160
805630.597,4504601.520,-615.010
805630.597,4504501.520,-614.600
805630.597,4504401.520,-616.040
805630.597,4504301.520,-615.620
805630.597,4504201.520,-614.410
805630.597,4504101.520,-612.930
805630.597,4504001.520,-609.810
805630.597,4503901.520,-607.150
805630.597,4503801.520,-606.870
805630.597,4503701.520,-606.890
805630.597,4503601.520,-605.640
805630.597,4503501.520,-603.590
805630.597,4503401.520,-601.890
805630.597,4503301.520,-599.090
805630.597,4503201.520,-597.650
805630.597,4503101.520,-597.630
805630.597,4503001.520,-599.300
805630.597,4502901.520,-598.930
805630.597,4502801.520,-598.020
805630.597,4502701.520,-596.250
805630.597,4502601.520,-593.210
805630.597,4502501.520,-588.570
805630.597,4502401.520,-582.860
805630.597,4502301.520,-577.590
805630.597,4502201.520,-570.110
805630.597,4502101.520,-562.820
805630.597,4502001.520,-558.760
805630.597,4501901.520,-555.850
805630.597,4501801.520,-553.810
805630.597,4501701.520,-552.760
805630.597,4501601.520,-551.260
805630.597,4501501.520,-550.190
805630.597,4501401.520,-547.210
805630.597,4501301.520,-542.660
805630.597,4501201.520,-533.160
805630.597,4501101.520,-521.910
805630.597,4501001.520,-510.460
805630.597,4500901.520,-499.840
805630.597,4500801.520,-492.770
805630.597,4500701.520,-488.510
805630.597,4500601.520,-486.350
805630.597,4500501.520,-482.480
805630.597,4500401.520,-478.320
805630.597,4500301.520,-476.560
805630.597,4500201.520,-476.050
805630.597,4500101.520,-478.060
805630.597,4500001.520,-482.780
805630.597,4499901.520,-489.120
805630.597,4499801.520,-497.800
805630.597,4499701.520,-507.140
805630.597,4499601.520,-519.880
805630.597,4499501.520,-539.110
805630.597,4499401.520,-563.720
805630.597,4499301.520,-586.150
805630.597,4499201.520,-603.540
805630.597,4499101.520,-612.020
805630.597,4499001.520,-611.300
805630.597,4498901.520,-605.050
805630.597,4498801.520,-590.290
805630.597,4498701.520,-564.030
805630.597,4498601.520,-541.150
805630.597,4498501.520,-519.720
805630.597,4498401.520,-506.420
805630.597,4498301.520,-499.120
805630.597,4498201.520,-491.830
805630.597,4498101.520,-487.910
805630.597,4498001.520,-485.220
805630.597,4497901.520,-484.480
805630.597,4497801.520,-486.800
805630.597,4497701.520,-486.700
805630.597,4497601.520,-481.010
805630.597,4497501.520,-476.700
805630.597,4497401.520,-474.580
805630.597,4497301.520,-474.470
805630.597,4497201.520,-474.600
805630.597,4497101.520,-475.260
805630.597,4497001.520,-476.040
805630.597,4496901.520,-468.590
805630.597,4496801.520,-451.150
805630.597,4496701.520,-422.320
805630.597,4496601.520,-404.130
805630.597,4496501.520,-405.690
805630.597,4496401.520,-420.000
805630.597,4496301.520,-436.270
805630.597,4496201.520,-460.930
805630.597,4496101.520,-474.490
805630.597,4496001.520,-480.360
805630.597,4495901.520,-482.590
805630.597,4495801.520,-471.450
805630.597,4495701.520,-453.450
805630.597,4495601.520,-433.970
805630.597,4495501.520,-410.240
805630.597,4495401.520,-384.840
805630.597,4495301.520,-363.640
805630.597,4495201.520,-345.850
805630.597,4495101.520,-328.760
805630.597,4495001.520,-309.730
805630.597,4494901.520,-310.750
805630.597,4494801.520,-334.040
805630.597,4494701.520,-366.800
805630.597,4494601.520,-396.710
805630.597,4494501.520,-422.730
805630.597,4494401.520,-436.950
805630.597,4494301.520,-443.860
805630.597,4494201.520,-445.240
805630.597,4494101.520,-444.540
805630.597,4494001.520,-441.590
805630.597,4493901.520,-436.160
805630.597,4493801.520,-425.730
805630.597,4493701.520,-416.970
805630.597,4493601.520,-423.110
805630.597,4493501.520,-433.000
805630.597,4493401.520,-448.130
805630.597,4493301.520,-462.110
805630.597,4493201.520,-469.170
805630.597,4493101.520,-477.420
805630.597,4493001.520,-476.090
805630.597,4492901.520,-487.120
805630.597,4492801.520,-496.500
805630.597,4492701.520,-493.210
805630.597,4492601.520,-498.400
805630.597,4492501.520,-503.490
805630.597,4492401.520,-504.600
805630.597,4492301.520,-506.900
805630.597,4492201.520,-496.600
805630.597,4492101.520,-483.450
805630.597,4492001.520,-466.990
805630.597,4491901.520,-446.000
805630.597,4491801.520,-426.610
805630.597,4491701.520,-408.610
805630.597,4491601.520,-394.470
805630.597,4491501.520,-385.720
805630.597,4491401.520,-367.680
805630.597,4491301.520,-356.000
805630.597,4491201.520,-351.780
805630.597,4491101.520,-351.490
805630.597,4491001.520,-350.780
805630.597,4490901.520,-350.170
805630.597,4490801.520,-347.990
805630.597,4490701.520,-351.200
805630.597,4490601.520,-358.480
805630.597,4490501.520,-366.030
805630.597,4490401.520,-375.640
805630.597,4490301.520,-379.890
805630.597,4490201.520,-363.800
805630.597,4490101.520,-347.710
805630.597,4490001.520,-332.870
805630.597,4489901.520,-314.810
805630.597,4489801.520,-305.380
805630.597,4489701.520,-301.020
805630.597,4489601.520,-300.040
805630.597,4489501.520,-298.720
805630.597,4489401.520,-296.470
805630.597,4489301.520,-301.020
805630.597,4489201.520,-301.530
805630.597,4489101.520,-291.360
805630.597,4489001.520,-279.100
805630.597,4488901.520,-268.770
805630.597,4488801.520,-264.280
805630.597,4488701.520,-260.190
805630.597,4488601.520,-258.730
805630.597,4488501.520,-260.730
805630.597,4488401.520,-274.750
805630.597,4488301.520,-315.060
805630.597,4488201.520,-361.230
805630.597,4488101.520,-392.920
805630.597,4488001.520,-414.650
805630.597,4487901.520,-428.660
805630.597,4487801.520,-439.110
805630.597,4487701.520,-418.460
805630.597,4487601.520,-400.880
805630.597,4487501.520,-389.270
805630.597,4487401.520,-382.000
805630.597,4487301.520,-386.880
805630.597,4487201.520,-386.720
805630.597,4487101.520,-375.500
805630.597,4487001.520,-369.420
805630.597,4486901.520,-370.260
805630.597,4486801.520,-372.930
805630.597,4486701.520,-368.870
805630.597,4486601.520,-360.940
805630.597,4486501.520,-351.960
805630.597,4486401.520,-342.860
805630.597,4486301.520,-331.950
805630.597,4486201.520,-320.260
805630.597,4486101.520,-309.210
805630.597,4486001.520,-300.620
805630.597,4485901.520,-292.700
805630.597,4485801.520,-286.810
805630.597,4485701.520,-282.470
805630.597,4485601.520,-278.420
805630.597,4485501.520,-271.670
805630.597,4485401.520,-266.600
805630.597,4485301.520,-263.330
805630.597,4485201.520,-261.840
805630.597,4485101.520,-260.200
805630.597,4485001.520,-256.370
805630.597,4484901.520,-254.300
805630.597,4484801.520,-255.440
805630.597,4484701.520,-255.760
805630.597,4484601.520,-254.530
805630.597,4484501.520,-253.320
805630.597,4484401.520,-253.040
805630.597,4484301.520,-248.890
805630.597,4484201.520,-238.950
805630.597,4484101.520,-236.140
805630.597,4484001.520,-237.700
805630.597,4483901.520,-241.580
805630.597,4483801.520,-245.220
805630.597,4483701.520,-241.270
805630.597,4483601.520,-238.020
805630.597,4483501.520,-234.800
805630.597,4483401.520,-231.240
805630.597,4483301.520,-225.920
805630.597,4483201.520,-221.720
805630.597,4483101.520,-219.960
805630.597,4483001.520,-218.330
805630.597,4482901.520,-218.800
805630.597,4482801.520,-218.330
805630.597,4482701.520,-217.710
805630.597,4482601.520,-214.850
805630.597,4482501.520,-212.520
805630.597,4482401.520,-212.300
805630.597,4482301.520,-213.500
805630.597,4482201.520,-215.270
805630.597,4482101.520,-216.660
805630.597,4482001.520,-215.800
805630.597,4481901.520,-213.320
805630.597,4481801.520,-213.570
805630.597,4481701.520,-219.800
805630.597,4481601.520,-227.990
805630.597,4481501.520,-231.800
805630.597,4481401.520,-235.190
805630.597,4481301.520,-231.990
805630.597,4481201.520,-231.130
805630.597,4481101.520,-233.720
805630.597,4481001.520,-235.210
805630.597,4480901.520,-233.330
805630.597,4480801.520,-228.550
805630.597,4480701.520,-222.420
805630.597,4480601.520,-219.540
805630.597,4480501.520,-215.730
805630.597,4480401.520,-213.520
805630.597,4480301.520,-205.050
805630.597,4480201.520,-202.190
805630.597,4480101.520,-199.110
805630.597,4480001.520,-194.550
805630.597,4479901.520,-193.790
805630.597,4479801.520,-194.810
805630.597,4479701.520,-199.730
805630.597,4479601.520,-206.930
805630.597,4479501.520,-219.610
805630.597,4479401.520,-232.850
805630.597,4479301.520,-244.010
805630.597,4479201.520,-252.000
805630.597,4479101.520,-258.020
805630.597,4479001.520,-258.940
805630.597,4478901.520,-250.140
805630.597,4478801.520,-242.900
805630.597,4478701.520,-241.410
805630.597,4478601.520,-240.600
805630.597,4478501.520,-239.040
805630.597,4478401.520,-237.880
805630.597,4478301.520,-236.560
805630.597,4478201.520,-234.890
805630.597,4478101.520,-233.750
805630.597,4478001.520,-233.540
805630.597,4477901.520,-233.220
805630.597,4477801.520,-232.850
805630.597,4477701.520,-231.660
805630.597,4477601.520,-229.430
805630.597,4477501.520,-227.220
805630.597,4477401.520,-225.140
805630.597,4477301.520,-222.400
805630.597,4477201.520,-219.080
805630.597,4477101.520,-214.610
805630.597,4477001.520,-210.710
805630.597,4476901.520,-210.650
805630.597,4476801.520,-211.970
805630.597,4476701.520,-211.710
805630.597,4476601.520,-210.200
805630.597,4476501.520,-207.580
805630.597,4476401.520,-203.330
805630.597,4476301.520,-196.870
805630.597,4476201.520,-189.700
805630.597,4476101.520,-186.750
805630.597,4476001.520,-184.680
805630.597,4475901.520,-178.980
805630.597,4475801.520,-176.440
805630.597,4475701.520,-180.340
805630.597,4475601.520,-180.460
805630.597,4475501.520,-178.670
805630.597,4475401.520,-180.500
805630.597,4475301.520,-177.560
805630.597,4475201.520,-173.500
805630.597,4475101.520,-171.630
805630.597,4475001.520,-170.110
805630.597,4474901.520,-167.480
805630.597,4474801.520,-161.670
805630.597,4474701.520,-158.280
805630.597,4474601.520,-157.540
805630.597,4474501.520,-158.210
805630.597,4474401.520,-160.810
805630.597,4474301.520,-165.760
805630.597,4474201.520,-173.380
805630.597,4474101.520,-178.970
805630.597,4474001.520,-180.620
805630.597,4473901.520,-182.300
805630.597,4473801.520,-184.680
805630.597,4473701.520,-186.010
805630.597,4473601.520,-187.290
805630.597,4473501.520,-186.800
805630.597,4473401.520,-187.450
805630.597,4473301.520,-194.600
805630.597,4473201.520,-198.530
805630.597,4473101.520,-199.830
805630.597,4473001.520,-201.660
805630.597,4472901.520,-203.220
805630.597,4472801.520,-203.010
805630.597,4472701.520,-201.220
805630.597,4472601.520,-198.410
805630.597,4472501.520,-194.670
805630.597,4472401.520,-190.960
805630.597,4472301.520,-187.280
805630.597,4472201.520,-184.970
805630.597,4472101.520,-184.820
805630.597,4472001.520,-185.410
805630.597,4471901.520,-186.570
805630.597,4471801.520,-188.420
805630.597,4471701.520,-189.400
805630.597,4471601.520,-191.930
805630.597,4471501.520,-195.210
805630.597,4471401.520,-196.440
805630.597,4471301.520,-195.320
805630.597,4471201.520,-194.130
805630.597,4471101.520,-193.460
805630.597,4471001.520,-193.460
805630.597,4470901.520,-193.970
805630.597,4470801.520,-194.420
805630.597,4470701.520,-195.850
805630.597,4470601.520,-197.080
805630.597,4470501.520,-197.200
805630.597,4470401.520,-198.410
805630.597,4470301.520,-199.710
805630.597,4470201.520,-199.710
805630.597,4470101.520,-196.900
805630.597,4470001.520,-192.540
805630.597,4469901.520,-188.630
805630.597,4469801.520,-184.310
805630.597,4469701.520,-184.540
805630.597,4469601.520,-180.020
805630.597,4469501.520,-173.610
805630.597,4469401.520,-170.680
805630.597,4469301.520,-170.410
805630.597,4469201.520,-165.510
805630.597,4469101.520,-159.330
805630.597,4469001.520,-154.080
805630.597,4468901.520,-152.480
805630.597,4468801.520,-151.790
805630.597,4468701.520,-150.740
805630.597,4468601.520,-151.300
805630.597,4468501.520,-150.180
805730.597,4506901.520,-647.850
805730.597,4506801.520,-645.920
805730.597,4506701.520,-644.080
805730.597,4506601.520,-642.090
805730.597,4506501.520,-640.400
805730.597,4506401.520,-637.960
805730.597,4506301.520,-635.010
805730.597,4506201.520,-632.250
805730.597,4506101.520,-629.160
805730.597,4506001.520,-626.480
805730.597,4505901.520,-624.980
805730.597,4505801.520,-621.610
805730.597,4505701.520,-619.190
805730.597,4505601.520,-618.990
805730.597,4505501.520,-620.490
805730.597,4505401.520,-621.980
805730.597,4505301.520,-623.610
805730.597,4505201.520,-623.400
805730.597,4505101.520,-623.020
805730.597,4505001.520,-621.680
805730.597,4504901.520,-620.960
805730.597,4504801.520,-621.030
805730.597,4504701.520,-621.190
805730.597,4504601.520,-620.470
805730.597,4504501.520,-621.050
805730.597,4504401.520,-620.910
805730.597,4504301.520,-620.560
805730.597,4504201.520,-619.820
805730.597,4504101.520,-618.180
805730.597,4504001.520,-616.390
805730.597,4503901.520,-614.270
805730.597,4503801.520,-611.840
805730.597,4503701.520,-610.400
805730.597,4503601.520,-608.420
805730.597,4503501.520,-607.010
805730.597,4503401.520,-605.520
805730.597,4503301.520,-605.050
805730.597,4503201.520,-605.940
805730.597,4503101.520,-606.100
805730.597,4503001.520,-605.710
805730.597,4502901.520,-604.570
805730.597,4502801.520,-602.960
805730.597,4502701.520,-600.080
805730.597,4502601.520,-596.190
805730.597,4502501.520,-591.770
805730.597,4502401.520,-587.010
805730.597,4502301.520,-581.120
805730.597,4502201.520,-573.100
805730.597,4502101.520,-567.340
805730.597,4502001.520,-563.540
805730.597,4501901.520,-561.140
805730.597,4501801.520,-559.430
805730.597,4501701.520,-558.800
805730.597,4501601.520,-557.340
805730.597,4501501.520,-555.660
805730.597,4501401.520,-553.000
805730.597,4501301.520,-546.940
805730.597,4501201.520,-535.880
805730.597,4501101.520,-525.090
805730.597,4501001.520,-516.150
805730.597,4500901.520,-506.860
805730.597,4500801.520,-498.960
805730.597,4500701.520,-495.010
805730.597,4500601.520,-492.320
805730.597,4500501.520,-489.230
805730.597,4500401.520,-486.680
805730.597,4500301.520,-484.980
805730.597,4500201.520,-484.990
805730.597,4500101.520,-487.590
805730.597,4500001.520,-490.930
805730.597,4499901.520,-496.430
805730.597,4499801.520,-504.790
805730.597,4499701.520,-516.080
805730.597,4499601.520,-531.210
805730.597,4499501.520,-550.740
805730.597,4499401.520,-572.520
805730.597,4499301.520,-592.140
805730.597,4499201.520,-607.630
805730.597,4499101.520,-615.040
805730.597,4499001.520,-613.110
805730.597,4498901.520,-608.160
805730.597,4498801.520,-596.970
805730.597,4498701.520,-576.120
805730.597,4498601.520,-553.720
805730.597,4498501.520,-533.650
805730.597,4498401.520,-518.950
805730.597,4498301.520,-511.430
805730.597,4498201.520,-503.370
805730.597,4498101.520,-498.100
805730.597,4498001.520,-495.480
805730.597,4497901.520,-493.780
805730.597,4497801.520,-494.740
805730.597,4497701.520,-492.830
805730.597,4497601.520,-486.240
805730.597,4497501.520,-483.080
805730.597,4497401.520,-481.830
805730.597,4497301.520,-480.320
805730.597,4497201.520,-481.250
805730.597,4497101.520,-482.250
805730.597,4497001.520,-483.170
805730.597,4496901.520,-477.810
805730.597,4496801.520,-461.420
805730.597,4496701.520,-433.420
805730.597,4496601.520,-415.930
805730.597,4496501.520,-415.910
805730.597,4496401.520,-427.590
805730.597,4496301.520,-446.020
805730.597,4496201.520,-470.060
805730.597,4496101.520,-482.340
805730.597,4496001.520,-487.100
805730.597,4495901.520,-485.240
805730.597,4495801.520,-469.910
805730.597,4495701.520,-452.940
805730.597,4495601.520,-434.810
805730.597,4495501.520,-412.310
805730.597,4495401.520,-387.090
805730.597,4495301.520,-364.200
805730.597,4495201.520,-343.860
805730.597,4495101.520,-329.600
805730.597,4495001.520,-319.800
805730.597,4494901.520,-320.840
805730.597,4494801.520,-335.770
805730.597,4494701.520,-366.780
805730.597,4494601.520,-398.540
805730.597,4494501.520,-424.620
805730.597,4494401.520,-439.760
805730.597,4494301.520,-446.880
805730.597,4494201.520,-449.460
805730.597,4494101.520,-448.530
805730.597,4494001.520,-444.300
805730.597,4493901.520,-437.240
805730.597,4493801.520,-429.170
805730.597,4493701.520,-423.010
805730.597,4493601.520,-431.610
805730.597,4493501.520,-441.290
805730.597,4493401.520,-452.170
805730.597,4493301.520,-473.310
805730.597,4493201.520,-485.660
805730.597,4493101.520,-486.860
805730.597,4493001.520,-486.190
805730.597,4492901.520,-495.110
805730.597,4492801.520,-503.380
805730.597,4492701.520,-504.440
805730.597,4492601.520,-509.580
805730.597,4492501.520,-515.430
805730.597,4492401.520,-516.640
805730.597,4492301.520,-514.080
805730.597,4492201.520,-502.930
805730.597,4492101.520,-487.290
805730.597,4492001.520,-469.730
805730.597,4491901.520,-449.710
805730.597,4491801.520,-430.490
805730.597,4491701.520,-416.930
805730.597,4491601.520,-405.250
805730.597,4491501.520,-390.620
805730.597,4491401.520,-374.200
805730.597,4491301.520,-366.610
805730.597,4491201.520,-363.990
805730.597,4491101.520,-362.080
805730.597,4491001.520,-361.550
805730.597,4490901.520,-360.970
805730.597,4490801.520,-361.440
805730.597,4490701.520,-363.480
805730.597,4490601.520,-370.030
805730.597,4490501.520,-379.360
805730.597,4490401.520,-389.110
805730.597,4490301.520,-387.620
805730.597,4490201.520,-370.600
805730.597,4490101.520,-354.300
805730.597,4490001.520,-339.660
805730.597,4489901.520,-327.600
805730.597,4489801.520,-320.050
805730.597,4489701.520,-315.780
805730.597,4489601.520,-313.180
805730.597,4489501.520,-313.050
805730.597,4489401.520,-310.160
805730.597,4489301.520,-308.520
805730.597,4489201.520,-306.710
805730.597,4489101.520,-297.490
805730.597,4489001.520,-288.410
805730.597,4488901.520,-281.350
805730.597,4488801.520,-274.080
805730.597,4488701.520,-269.810
805730.597,4488601.520,-267.600
805730.597,4488501.520,-269.790
805730.597,4488401.520,-291.050
805730.597,4488301.520,-338.700
805730.597,4488201.520,-366.400
805730.597,4488101.520,-402.600
805730.597,4488001.520,-428.560
805730.597,4487901.520,-445.300
805730.597,4487801.520,-446.160
805730.597,4487701.520,-426.380
805730.597,4487601.520,-411.540
805730.597,4487501.520,-395.680
805730.597,4487401.520,-392.500
805730.597,4487301.520,-398.890
805730.597,4487201.520,-398.800
805730.597,4487101.520,-386.030
805730.597,4487001.520,-380.660
805730.597,4486901.520,-383.370
805730.597,4486801.520,-387.230
805730.597,4486701.520,-381.890
805730.597,4486601.520,-373.740
805730.597,4486501.520,-364.590
805730.597,4486401.520,-350.820
805730.597,4486301.520,-338.860
805730.597,4486201.520,-328.460
805730.597,4486101.520,-319.100
805730.597,4486001.520,-312.020
805730.597,4485901.520,-304.500
805730.597,4485801.520,-298.090
805730.597,4485701.520,-296.670
805730.597,4485601.520,-289.680
805730.597,4485501.520,-283.160
805730.597,4485401.520,-279.770
805730.597,4485301.520,-276.960
805730.597,4485201.520,-274.250
805730.597,4485101.520,-272.800
805730.597,4485001.520,-270.650
805730.597,4484901.520,-268.580
805730.597,4484801.520,-268.120
805730.597,4484701.520,-268.160
805730.597,4484601.520,-267.830
805730.597,4484501.520,-266.490
805730.597,4484401.520,-267.000
805730.597,4484301.520,-266.100
805730.597,4484201.520,-264.150
805730.597,4484101.520,-266.170
805730.597,4484001.520,-263.050
805730.597,4483901.520,-260.400
805730.597,4483801.520,-263.100
805730.597,4483701.520,-256.320
805730.597,4483601.520,-251.030
805730.597,4483501.520,-247.210
805730.597,4483401.520,-244.680
805730.597,4483301.520,-244.180
805730.597,4483201.520,-245.190
805730.597,4483101.520,-245.540
805730.597,4483001.520,-244.800
805730.597,4482901.520,-241.230
805730.597,4482801.520,-236.540
805730.597,4482701.520,-235.030
805730.597,4482601.520,-230.690
805730.597,4482501.520,-229.150
805730.597,4482401.520,-229.220
805730.597,4482301.520,-228.460
805730.597,4482201.520,-229.960
805730.597,4482101.520,-234.350
805730.597,4482001.520,-234.400
805730.597,4481901.520,-229.310
805730.597,4481801.520,-228.360
805730.597,4481701.520,-232.520
805730.597,4481601.520,-240.600
805730.597,4481501.520,-243.270
805730.597,4481401.520,-243.450
805730.597,4481301.520,-241.460
805730.597,4481201.520,-240.020
805730.597,4481101.520,-241.740
805730.597,4481001.520,-244.760
805730.597,4480901.520,-244.550
805730.597,4480801.520,-244.800
805730.597,4480701.520,-240.530
805730.597,4480601.520,-237.650
805730.597,4480501.520,-235.820
805730.597,4480401.520,-232.680
805730.597,4480301.520,-227.290
805730.597,4480201.520,-224.140
805730.597,4480101.520,-221.930
805730.597,4480001.520,-217.590
805730.597,4479901.520,-213.040
805730.597,4479801.520,-207.760
805730.597,4479701.520,-206.560
805730.597,4479601.520,-207.950
805730.597,4479501.520,-216.640
805730.597,4479401.520,-234.580
805730.597,4479301.520,-251.970
805730.597,4479201.520,-263.520
805730.597,4479101.520,-269.000
805730.597,4479001.520,-267.260
805730.597,4478901.520,-260.540
805730.597,4478801.520,-254.720
805730.597,4478701.520,-252.900
805730.597,4478601.520,-253.160
805730.597,4478501.520,-250.720
805730.597,4478401.520,-248.940
805730.597,4478301.520,-246.640
805730.597,4478201.520,-244.100
805730.597,4478101.520,-241.390
805730.597,4478001.520,-238.980
805730.597,4477901.520,-236.810
805730.597,4477801.520,-234.910
805730.597,4477701.520,-233.420
805730.597,4477601.520,-231.660
805730.597,4477501.520,-229.850
805730.597,4477401.520,-228.830
805730.597,4477301.520,-227.480
805730.597,4477201.520,-225.210
805730.597,4477101.520,-221.320
805730.597,4477001.520,-217.060
805730.597,4476901.520,-216.660
805730.597,4476801.520,-217.730
805730.597,4476701.520,-217.050
805730.597,4476601.520,-214.800
805730.597,4476501.520,-212.220
805730.597,4476401.520,-211.550
805730.597,4476301.520,-208.760
805730.597,4476201.520,-203.650
805730.597,4476101.520,-197.220
805730.597,4476001.520,-194.160
805730.597,4475901.520,-194.790
805730.597,4475801.520,-192.880
805730.597,4475701.520,-189.240
805730.597,4475601.520,-189.120
805730.597,4475501.520,-189.350
805730.597,4475401.520,-187.730
805730.597,4475301.520,-188.380
805730.597,4475201.520,-185.870
805730.597,4475101.520,-181.990
805730.597,4475001.520,-186.200
805730.597,4474901.520,-186.700
805730.597,4474801.520,-184.620
805730.597,4474701.520,-180.300
805730.597,4474601.520,-174.870
805730.597,4474501.520,-174.280
805730.597,4474401.520,-174.680
805730.597,4474301.520,-175.980
805730.597,4474201.520,-177.910
805730.597,4474101.520,-183.890
805730.597,4474001.520,-187.570
805730.597,4473901.520,-187.570
805730.597,4473801.520,-189.420
805730.597,4473701.520,-191.880
805730.597,4473601.520,-194.460
805730.597,4473501.520,-195.280
805730.597,4473401.520,-194.210
805730.597,4473301.520,-199.830
805730.597,4473201.520,-204.590
805730.597,4473101.520,-208.410
805730.597,4473001.520,-211.270
805730.597,4472901.520,-212.780
805730.597,4472801.520,-211.150
805730.597,4472701.520,-208.630
805730.597,4472601.520,-205.490
805730.597,4472501.520,-201.560
805730.597,4472401.520,-197.080
805730.597,4472301.520,-194.280
805730.597,4472201.520,-191.810
805730.597,4472101.520,-190.370
805730.597,4472001.520,-189.730
805730.597,4471901.520,-190.540
805730.597,4471801.520,-193.560
805730.597,4471701.520,-196.740
805730.597,4471601.520,-198.730
805730.597,4471501.520,-200.290
805730.597,4471401.520,-201.990
805730.597,4471301.520,-204.210
805730.597,4471201.520,-203.080
805730.597,4471101.520,-200.690
805730.597,4471001.520,-200.590
805730.597,4470901.520,-202.640
805730.597,4470801.520,-202.750
805730.597,4470701.520,-205.350
805730.597,4470601.520,-206.000
805730.597,4470501.520,-209.550
805730.597,4470401.520,-210.210
805730.597,4470301.520,-211.020
805730.597,4470201.520,-209.420
805730.597,4470101.520,-206.650
805730.597,4470001.520,-202.080
805730.597,4469901.520,-195.880
805730.597,4469801.520,-189.490
805730.597,4469701.520,-184.460
805730.597,4469601.520,-181.920
805730.597,4469501.520,-179.050
805730.597,4469401.520,-174.140
805730.597,4469301.520,-171.700
805730.597,4469201.520,-172.120
805730.597,4469101.520,-168.460
805730.597,4469001.520,-161.470
805730.597,4468901.520,-158.030
805730.597,4468801.520,-155.200
805730.597,4468701.520,-154.390
805730.597,4468601.520,-153.690
805730.597,4468501.520,-152.410
805730.597,4468401.520,-151.990
805730.597,4468301.520,-150.920
805830.597,4506801.520,-648.660
805830.597,4506701.520,-646.290
805830.597,4506601.520,-644.340
805830.597,4506501.520,-641.930
805830.597,4506401.520,-639.810
805830.597,4506301.520,-637.190
805830.597,4506201.520,-633.990
805830.597,4506101.520,-631.410
805830.597,4506001.520,-629.070
805830.597,4505901.520,-627.420
805830.597,4505801.520,-626.370
805830.597,4505701.520,-624.230
805830.597,4505601.520,-623.440
805830.597,4505501.520,-624.000
805830.597,4505401.520,-625.050
805830.597,4505301.520,-626.770
805830.597,4505201.520,-626.830
805830.597,4505101.520,-626.530
805830.597,4505001.520,-626.250
805830.597,4504901.520,-625.390
805830.597,4504801.520,-624.740
805830.597,4504701.520,-624.700
805830.597,4504601.520,-623.840
805830.597,4504501.520,-623.740
805830.597,4504401.520,-623.170
805830.597,4504301.520,-622.100
805830.597,4504201.520,-620.800
805830.597,4504101.520,-619.330
805830.597,4504001.520,-617.830
805830.597,4503901.520,-616.780
805830.597,4503801.520,-615.180
805830.597,4503701.520,-613.760
805830.597,4503601.520,-611.630
805830.597,4503501.520,-609.070
805830.597,4503401.520,-608.140
805830.597,4503301.520,-609.020
805830.597,4503201.520,-609.210
805830.597,4503101.520,-609.510
805830.597,4503001.520,-608.610
805830.597,4502901.520,-607.100
805830.597,4502801.520,-604.910
805830.597,4502701.520,-602.780
805830.597,4502601.520,-599.290
805830.597,4502501.520,-594.670
805830.597,4502401.520,-590.470
805830.597,4502301.520,-584.710
805830.597,4502201.520,-577.000
805830.597,4502101.520,-571.450
805830.597,4502001.520,-568.390
805830.597,4501901.520,-566.460
805830.597,4501801.520,-565.120
805830.597,4501701.520,-564.230
805830.597,4501601.520,-562.770
805830.597,4501501.520,-560.820
805830.597,4501401.520,-557.690
805830.597,4501301.520,-551.690
805830.597,4501201.520,-539.300
805830.597,4501101.520,-528.040
805830.597,4501001.520,-519.490
805830.597,4500901.520,-511.800
805830.597,4500801.520,-504.910
805830.597,4500701.520,-500.610
805830.597,4500601.520,-497.710
805830.597,4500501.520,-494.430
805830.597,4500401.520,-492.720
805830.597,4500301.520,-492.880
805830.597,4500201.520,-493.760
805830.597,4500101.520,-494.860
805830.597,4500001.520,-498.310
805830.597,4499901.520,-503.890
805830.597,4499801.520,-511.990
805830.597,4499701.520,-523.760
805830.597,4499601.520,-539.320
805830.597,4499501.520,-559.520
805830.597,4499401.520,-581.350
805830.597,4499301.520,-598.640
805830.597,4499201.520,-611.490
805830.597,4499101.520,-616.320
805830.597,4499001.520,-614.640
805830.597,4498901.520,-611.140
805830.597,4498801.520,-602.410
805830.597,4498701.520,-586.620
805830.597,4498601.520,-565.000
805830.597,4498501.520,-545.360
805830.597,4498401.520,-530.240
805830.597,4498301.520,-522.740
805830.597,4498201.520,-516.190
805830.597,4498101.520,-509.160
805830.597,4498001.520,-505.950
805830.597,4497901.520,-503.380
805830.597,4497801.520,-503.720
805830.597,4497701.520,-499.150
805830.597,4497601.520,-492.120
805830.597,4497501.520,-488.400
805830.597,4497401.520,-487.590
805830.597,4497301.520,-485.980
805830.597,4497201.520,-487.960
805830.597,4497101.520,-488.580
805830.597,4497001.520,-487.800
805830.597,4496901.520,-484.240
805830.597,4496801.520,-469.620
805830.597,4496701.520,-445.030
805830.597,4496601.520,-428.630
805830.597,4496501.520,-428.280
805830.597,4496401.520,-439.750
805830.597,4496301.520,-457.540
805830.597,4496201.520,-478.480
805830.597,4496101.520,-489.400
805830.597,4496001.520,-492.830
805830.597,4495901.520,-484.660
805830.597,4495801.520,-469.260
805830.597,4495701.520,-453.060
805830.597,4495601.520,-436.850
805830.597,4495501.520,-415.960
805830.597,4495401.520,-391.320
805830.597,4495301.520,-368.370
805830.597,4495201.520,-348.200
805830.597,4495101.520,-334.730
805830.597,4495001.520,-329.580
805830.597,4494901.520,-332.710
805830.597,4494801.520,-344.180
805830.597,4494701.520,-366.520
805830.597,4494601.520,-400.160
805830.597,4494501.520,-431.930
805830.597,4494401.520,-443.330
805830.597,4494301.520,-450.600
805830.597,4494201.520,-454.270
805830.597,4494101.520,-453.520
805830.597,4494001.520,-449.320
805830.597,4493901.520,-439.590
805830.597,4493801.520,-429.450
805830.597,4493701.520,-425.730
805830.597,4493601.520,-435.830
805830.597,4493501.520,-451.590
805830.597,4493401.520,-465.390
805830.597,4493301.520,-486.430
805830.597,4493201.520,-501.210
805830.597,4493101.520,-497.460
805830.597,4493001.520,-499.890
805830.597,4492901.520,-505.860
805830.597,4492801.520,-510.800
805830.597,4492701.520,-515.960
805830.597,4492601.520,-519.490
805830.597,4492501.520,-524.440
805830.597,4492401.520,-525.510
805830.597,4492301.520,-519.810
805830.597,4492201.520,-506.700
805830.597,4492101.520,-490.470
805830.597,4492001.520,-472.210
805830.597,4491901.520,-453.960
805830.597,4491801.520,-437.760
805830.597,4491701.520,-426.430
805830.597,4491601.520,-412.800
805830.597,4491501.520,-392.390
805830.597,4491401.520,-382.100
805830.597,4491301.520,-378.750
805830.597,4491201.520,-376.520
805830.597,4491101.520,-373.210
805830.597,4491001.520,-372.040
805830.597,4490901.520,-371.440
805830.597,4490801.520,-371.700
805830.597,4490701.520,-373.200
805830.597,4490601.520,-378.900
805830.597,4490501.520,-389.580
805830.597,4490401.520,-399.170
805830.597,4490301.520,-391.660
805830.597,4490201.520,-376.920
805830.597,4490101.520,-361.110
805830.597,4490001.520,-345.130
805830.597,4489901.520,-339.090
805830.597,4489801.520,-333.800
805830.597,4489701.520,-331.600
805830.597,4489601.520,-329.580
805830.597,4489501.520,-330.390
805830.597,4489401.520,-330.200
805830.597,4489301.520,-324.630
805830.597,4489201.520,-318.150
805830.597,4489101.520,-308.560
805830.597,4489001.520,-300.270
805830.597,4488901.520,-292.360
805830.597,4488801.520,-284.140
805830.597,4488701.520,-278.860
805830.597,4488601.520,-275.800
805830.597,4488501.520,-281.750
805830.597,4488401.520,-318.760
805830.597,4488301.520,-356.440
805830.597,4488201.520,-391.810
805830.597,4488101.520,-417.510
805830.597,4488001.520,-441.490
805830.597,4487901.520,-458.280
805830.597,4487801.520,-450.250
805830.597,4487701.520,-432.620
805830.597,4487601.520,-418.320
805830.597,4487501.520,-406.780
805830.597,4487401.520,-405.160
805830.597,4487301.520,-413.120
805830.597,4487201.520,-409.730
805830.597,4487101.520,-396.200
805830.597,4487001.520,-393.110
805830.597,4486901.520,-396.660
805830.597,4486801.520,-398.350
805830.597,4486701.520,-394.590
805830.597,4486601.520,-388.760
805830.597,4486501.520,-378.250
805830.597,4486401.520,-364.360
805830.597,4486301.520,-350.360
805830.597,4486201.520,-338.000
805830.597,4486101.520,-327.020
805830.597,4486001.520,-320.780
805830.597,4485901.520,-314.860
805830.597,4485801.520,-310.260
805830.597,4485701.520,-309.680
805830.597,4485601.520,-301.200
805830.597,4485501.520,-296.900
805830.597,4485401.520,-294.750
805830.597,4485301.520,-292.730
805830.597,4485201.520,-289.170
805830.597,4485101.520,-286.510
805830.597,4485001.520,-284.000
805830.597,4484901.520,-282.000
805830.597,4484801.520,-281.050
805830.597,4484701.520,-280.790
805830.597,4484601.520,-280.190
805830.597,4484501.520,-279.890
805830.597,4484401.520,-281.280
805830.597,4484301.520,-281.250
805830.597,4484201.520,-279.650
805830.597,4484101.520,-282.910
805830.597,4484001.520,-276.360
805830.597,4483901.520,-275.130
805830.597,4483801.520,-276.870
805830.597,4483701.520,-270.710
805830.597,4483601.520,-265.140
805830.597,4483501.520,-260.760
805830.597,4483401.520,-258.390
805830.597,4483301.520,-259.040
805830.597,4483201.520,-260.200
805830.597,4483101.520,-260.640
805830.597,4483001.520,-259.320
805830.597,4482901.520,-257.900
805830.597,4482801.520,-256.830
805830.597,4482701.520,-255.990
805830.597,4482601.520,-249.520
805830.597,4482501.520,-249.150
805830.597,4482401.520,-250.740
805830.597,4482301.520,-250.030
805830.597,4482201.520,-250.300
805830.597,4482101.520,-252.620
805830.597,4482001.520,-252.880
805830.597,4481901.520,-247.910
805830.597,4481801.520,-243.710
805830.597,4481701.520,-244.820
805830.597,4481601.520,-249.050
805830.597,4481501.520,-252.350
805830.597,4481401.520,-251.260
805830.597,4481301.520,-249.910
805830.597,4481201.520,-248.820
805830.597,4481101.520,-248.840
805830.597,4481001.520,-249.440
805830.597,4480901.520,-249.630
805830.597,4480801.520,-250.000
805830.597,4480701.520,-248.070
805830.597,4480601.520,-245.060
805830.597,4480501.520,-243.290
805830.597,4480401.520,-240.430
805830.597,4480301.520,-236.100
805830.597,4480201.520,-233.650
805830.597,4480101.520,-230.540
805830.597,4480001.520,-227.870
805830.597,4479901.520,-222.580
805830.597,4479801.520,-218.680
805830.597,4479701.520,-214.060
805830.597,4479601.520,-211.110
805830.597,4479501.520,-211.740
805830.597,4479401.520,-225.850
805830.597,4479301.520,-256.130
805830.597,4479201.520,-272.590
805830.597,4479101.520,-278.310
805830.597,4479001.520,-277.540
805830.597,4478901.520,-271.460
805830.597,4478801.520,-266.140
805830.597,4478701.520,-264.280
805830.597,4478601.520,-263.700
805830.597,4478501.520,-261.910
805830.597,4478401.520,-260.620
805830.597,4478301.520,-258.200
805830.597,4478201.520,-255.860
805830.597,4478101.520,-253.280
805830.597,4478001.520,-249.840
805830.597,4477901.520,-245.890
805830.597,4477801.520,-241.780
805830.597,4477701.520,-237.840
805830.597,4477601.520,-234.140
805830.597,4477501.520,-232.190
805830.597,4477401.520,-231.010
805830.597,4477301.520,-231.190
805830.597,4477201.520,-231.340
805830.597,4477101.520,-229.750
805830.597,4477001.520,-228.570
805830.597,4476901.520,-227.810
805830.597,4476801.520,-226.900
805830.597,4476701.520,-224.930
805830.597,4476601.520,-222.350
805830.597,4476501.520,-219.980
805830.597,4476401.520,-218.750
805830.597,4476301.520,-217.800
805830.597,4476201.520,-216.220
805830.597,4476101.520,-213.530
805830.597,4476001.520,-209.670
805830.597,4475901.520,-208.910
805830.597,4475801.520,-208.210
805830.597,4475701.520,-205.590
805830.597,4475601.520,-202.360
805830.597,4475501.520,-199.680
805830.597,4475401.520,-199.080
805830.597,4475301.520,-196.920
805830.597,4475201.520,-196.600
805830.597,4475101.520,-189.820
805830.597,4475001.520,-185.430
805830.597,4474901.520,-187.780
805830.597,4474801.520,-187.310
805830.597,4474701.520,-187.660
805830.597,4474601.520,-185.240
805830.597,4474501.520,-182.250
805830.597,4474401.520,-182.300
805830.597,4474301.520,-184.390
805830.597,4474201.520,-187.710
805830.597,4474101.520,-192.050
805830.597,4474001.520,-197.480
805830.597,4473901.520,-199.780
805830.597,4473801.520,-199.450
805830.597,4473701.520,-198.740
805830.597,4473601.520,-198.590
805830.597,4473501.520,-199.320
805830.597,4473401.520,-202.010
805830.597,4473301.520,-206.370
805830.597,4473201.520,-211.110
805830.597,4473101.520,-215.480
805830.597,4473001.520,-221.000
805830.597,4472901.520,-223.740
805830.597,4472801.520,-222.070
805830.597,4472701.520,-217.290
805830.597,4472601.520,-212.990
805830.597,4472501.520,-209.230
805830.597,4472401.520,-204.730
805830.597,4472301.520,-200.620
805830.597,4472201.520,-199.570
805830.597,4472101.520,-199.180
805830.597,4472001.520,-198.250
805830.597,4471901.520,-198.830
805830.597,4471801.520,-199.430
805830.597,4471701.520,-202.910
805830.597,4471601.520,-206.740
805830.597,4471501.520,-210.140
805830.597,4471401.520,-209.490
805830.597,4471301.520,-211.180
805830.597,4471201.520,-211.300
805830.597,4471101.520,-212.090
805830.597,4471001.520,-210.410
805830.597,4470901.520,-211.360
805830.597,4470801.520,-213.640
805830.597,4470701.520,-216.430
805830.597,4470601.520,-220.380
805830.597,4470501.520,-223.050
805830.597,4470401.520,-223.880
805830.597,4470301.520,-225.830
805830.597,4470201.520,-223.830
805830.597,4470101.520,-218.210
