796080.597,4517551.520,-633.600
796080.597,4517351.520,-624.140
796080.597,4517151.520,-618.660
796080.597,4516951.520,-615.170
796080.597,4516751.520,-612.900
796080.597,4516551.520,-609.340
796080.597,4516351.520,-607.850
796080.597,4516151.520,-607.600
796080.597,4515951.520,-605.640
796080.597,4515751.520,-604.520
796080.597,4515551.520,-601.640
796280.597,4520551.520,-712.120
796280.597,4520351.520,-708.340
796280.597,4520151.520,-704.670
796280.597,4519951.520,-699.130
796280.597,4519751.520,-693.340
796280.597,4519551.520,-686.100
796280.597,4519351.520,-677.710
796280.597,4519151.520,-672.680
796280.597,4518951.520,-667.460
796280.597,4518751.520,-664.800
796280.597,4518551.520,-663.370
796280.597,4518351.520,-661.580
796280.597,4518151.520,-659.760
796280.597,4517951.520,-652.830
796280.597,4517751.520,-646.070
796280.597,4517551.520,-639.950
796280.597,4517351.520,-632.520
796280.597,4517151.520,-627.790
796280.597,4516951.520,-625.860
796280.597,4516751.520,-622.580
796280.597,4516551.520,-616.240
796280.597,4516351.520,-614.450
796280.597,4516151.520,-612.520
796280.597,4515951.520,-610.670
796280.597,4515751.520,-608.850
796280.597,4515551.520,-602.740
796480.597,4520551.520,-712.420
796480.597,4520351.520,-708.350
796480.597,4520151.520,-703.830
796480.597,4519951.520,-699.980
796480.597,4519751.520,-692.030
796480.597,4519551.520,-686.560
796480.597,4519351.520,-681.450
796480.597,4519151.520,-675.860
796480.597,4518951.520,-672.280
796480.597,4518751.520,-668.610
796480.597,4518551.520,-666.310
796480.597,4518351.520,-664.050
796480.597,4518151.520,-661.450
796480.597,4517951.520,-658.030
796480.597,4517751.520,-651.070
796480.597,4517551.520,-646.050
796480.597,4517351.520,-640.400
796480.597,4517151.520,-636.330
796480.597,4516951.520,-633.160
796480.597,4516751.520,-628.710
796480.597,4516551.520,-623.350
796480.597,4516351.520,-618.980
796480.597,4516151.520,-617.040
796480.597,4515951.520,-614.820
796480.597,4515751.520,-611.600
796680.597,4520551.520,-711.950
796680.597,4520351.520,-707.850
796680.597,4520151.520,-702.050
796680.597,4519951.520,-699.680
796680.597,4519751.520,-693.970
796680.597,4519551.520,-687.770
796680.597,4519351.520,-683.040
796680.597,4519151.520,-679.560
796680.597,4518951.520,-675.890
796680.597,4518751.520,-672.110
796680.597,4518551.520,-669.380
796680.597,4518351.520,-666.200
796680.597,4518151.520,-663.540
796680.597,4517951.520,-660.160
796680.597,4517751.520,-655.200
796680.597,4517551.520,-650.810
796680.597,4517351.520,-645.710
796680.597,4517151.520,-640.950
796680.597,4516951.520,-635.730
796680.597,4516751.520,-631.630
796680.597,4516551.520,-627.450
796680.597,4516351.520,-624.000
796680.597,4516151.520,-620.190
796680.597,4515951.520,-618.800
796680.597,4515751.520,-612.920
796880.597,4520551.520,-711.820
796880.597,4520351.520,-707.660
796880.597,4520151.520,-703.170
796880.597,4519951.520,-697.900
796880.597,4519751.520,-695.430
796880.597,4519551.520,-690.830
796880.597,4519351.520,-685.720
796880.597,4519151.520,-681.160
796880.597,4518951.520,-678.940
796880.597,4518751.520,-676.140
796880.597,4518551.520,-672.540
796880.597,4518351.520,-668.650
796880.597,4518151.520,-664.840
796880.597,4517951.520,-660.980
796880.597,4517751.520,-657.430
796880.597,4517551.520,-653.200
796880.597,4517351.520,-648.700
796880.597,4517151.520,-642.950
796880.597,4516951.520,-637.820
796880.597,4516751.520,-633.900
796880.597,4516551.520,-630.300
796880.597,4516351.520,-627.240
796880.597,4516151.520,-624.690
796880.597,4515951.520,-621.720
796880.597,4515751.520,-612.940
797080.597,4520551.520,-716.290
797080.597,4520351.520,-710.490
797080.597,4520151.520,-705.730
797080.597,4519951.520,-699.830
797080.597,4519751.520,-697.780
797080.597,4519551.520,-693.780
797080.597,4519351.520,-688.760
797080.597,4519151.520,-684.820
797080.597,4518951.520,-682.700
797080.597,4518751.520,-679.140
797080.597,4518551.520,-675.930
797080.597,4518351.520,-670.570
797080.597,4518151.520,-666.610
797080.597,4517951.520,-662.910
797080.597,4517751.520,-659.500
797080.597,4517551.520,-655.090
797080.597,4517351.520,-650.720
797080.597,4517151.520,-645.400
797080.597,4516951.520,-641.140
797080.597,4516751.520,-637.110
797080.597,4516551.520,-634.160
797080.597,4516351.520,-630.740
797080.597,4516151.520,-628.690
797080.597,4515951.520,-624.850
797080.597,4515751.520,-613.140
797280.597,4520551.520,-718.280
797280.597,4520351.520,-715.020
797280.597,4520151.520,-709.800
797280.597,4519951.520,-704.850
797280.597,4519751.520,-699.560
797280.597,4519551.520,-695.990
797280.597,4519351.520,-691.600
797280.597,4519151.520,-687.270
797280.597,4518951.520,-684.170
797280.597,4518751.520,-680.300
797280.597,4518551.520,-677.130
797280.597,4518351.520,-673.520
797280.597,4518151.520,-669.920
797280.597,4517951.520,-665.950
797280.597,4517751.520,-662.250
797280.597,4517551.520,-657.180
797280.597,4517351.520,-652.560
797280.597,4517151.520,-649.030
797280.597,4516951.520,-645.260
797280.597,4516751.520,-641.040
797280.597,4516551.520,-637.410
797280.597,4516351.520,-634.280
797280.597,4516151.520,-631.760
797280.597,4515951.520,-627.740
797280.597,4515751.520,-615.550
797280.597,4515551.520,-602.330
797480.597,4520551.520,-720.350
797480.597,4520351.520,-714.950
797480.597,4520151.520,-711.370
797480.597,4519951.520,-706.340
797480.597,4519751.520,-701.460
797480.597,4519551.520,-697.090
797480.597,4519351.520,-692.990
797480.597,4519151.520,-688.950
797480.597,4518951.520,-685.970
797480.597,4518751.520,-682.440
797480.597,4518551.520,-678.610
797480.597,4518351.520,-675.680
797480.597,4518151.520,-672.200
797480.597,4517951.520,-667.300
797480.597,4517751.520,-663.350
797480.597,4517551.520,-658.800
797480.597,4517351.520,-654.100
797480.597,4517151.520,-651.260
797480.597,4516951.520,-648.410
797480.597,4516751.520,-644.480
797480.597,4516551.520,-639.960
797480.597,4516351.520,-637.240
797480.597,4516151.520,-634.630
797480.597,4515951.520,-629.980
797480.597,4515751.520,-618.370
797480.597,4515551.520,-607.360
797680.597,4520551.520,-720.110
797680.597,4520351.520,-716.280
797680.597,4520151.520,-712.750
797680.597,4519951.520,-708.320
797680.597,4519751.520,-704.590
797680.597,4519551.520,-700.240
797680.597,4519351.520,-696.470
797680.597,4519151.520,-691.470
797680.597,4518951.520,-688.130
797680.597,4518751.520,-684.400
797680.597,4518551.520,-681.180
797680.597,4518351.520,-676.940
797680.597,4518151.520,-673.220
797680.597,4517951.520,-668.840
797680.597,4517751.520,-664.300
797680.597,4517551.520,-660.810
797680.597,4517351.520,-657.300
797680.597,4517151.520,-654.320
797680.597,4516951.520,-651.090
797680.597,4516751.520,-646.160
797680.597,4516551.520,-642.550
797680.597,4516351.520,-640.580
797680.597,4516151.520,-638.060
797680.597,4515951.520,-631.390
797680.597,4515751.520,-620.490
797680.597,4515551.520,-611.090
797680.597,4515351.520,-601.100
797880.597,4520551.520,-720.020
797880.597,4520351.520,-717.000
797880.597,4520151.520,-715.340
797880.597,4519951.520,-711.630
797880.597,4519751.520,-707.300
797880.597,4519551.520,-704.200
797880.597,4519351.520,-699.670
797880.597,4519151.520,-693.960
797880.597,4518951.520,-689.630
797880.597,4518751.520,-686.520
797880.597,4518551.520,-682.390
797880.597,4518351.520,-679.440
797880.597,4518151.520,-675.790
797880.597,4517951.520,-671.360
797880.597,4517751.520,-667.280
797880.597,4517551.520,-663.700
797880.597,4517351.520,-661.040
797880.597,4517151.520,-658.610
797880.597,4516951.520,-653.860
797880.597,4516751.520,-649.010
797880.597,4516551.520,-646.580
797880.597,4516351.520,-644.100
797880.597,4516151.520,-640.420
797880.597,4515951.520,-633.300
797880.597,4515751.520,-624.530
797880.597,4515551.520,-615.490
797880.597,4515351.520,-606.380
798080.597,4520551.520,-721.180
798080.597,4520351.520,-718.820
798080.597,4520151.520,-716.380
798080.597,4519951.520,-713.580
798080.597,4519751.520,-709.770
798080.597,4519551.520,-705.580
798080.597,4519351.520,-701.690
798080.597,4519151.520,-696.840
798080.597,4518951.520,-692.050
798080.597,4518751.520,-688.150
798080.597,4518551.520,-684.160
798080.597,4518351.520,-680.980
798080.597,4518151.520,-677.620
798080.597,4517951.520,-674.260
798080.597,4517751.520,-670.850
798080.597,4517551.520,-666.710
798080.597,4517351.520,-664.390
798080.597,4517151.520,-660.230
798080.597,4516951.520,-656.300
798080.597,4516751.520,-652.200
798080.597,4516551.520,-649.530
798080.597,4516351.520,-647.930
798080.597,4516151.520,-643.560
798080.597,4515951.520,-636.180
798080.597,4515751.520,-628.950
798080.597,4515551.520,-620.280
798080.597,4515351.520,-610.830
798080.597,4515151.520,-601.380
798280.597,4520551.520,-723.000
798280.597,4520351.520,-720.790
798280.597,4520151.520,-718.240
798280.597,4519951.520,-715.590
798280.597,4519751.520,-710.760
798280.597,4519551.520,-706.590
798280.597,4519351.520,-703.230
798280.597,4519151.520,-699.860
798280.597,4518951.520,-695.190
798280.597,4518751.520,-690.780
798280.597,4518551.520,-686.610
798280.597,4518351.520,-683.110
798280.597,4518151.520,-679.880
798280.597,4517951.520,-675.860
798280.597,4517751.520,-672.820
798280.597,4517551.520,-670.260
798280.597,4517351.520,-666.460
798280.597,4517151.520,-662.560
798280.597,4516951.520,-659.020
798280.597,4516751.520,-655.230
798280.597,4516551.520,-653.850
798280.597,4516351.520,-650.710
798280.597,4516151.520,-646.440
798280.597,4515951.520,-639.150
798280.597,4515751.520,-632.280
798280.597,4515551.520,-624.470
798280.597,4515351.520,-616.160
798280.597,4515151.520,-608.090
798480.597,4520551.520,-725.240
798480.597,4520351.520,-722.930
798480.597,4520151.520,-719.550
798480.597,4519951.520,-716.420
798480.597,4519751.520,-712.380
798480.597,4519551.520,-707.200
798480.597,4519351.520,-706.080
798480.597,4519151.520,-700.900
798480.597,4518951.520,-697.090
798480.597,4518751.520,-692.870
798480.597,4518551.520,-689.690
798480.597,4518351.520,-686.820
798480.597,4518151.520,-682.450
798480.597,4517951.520,-679.440
798480.597,4517751.520,-676.660
798480.597,4517551.520,-673.320
798480.597,4517351.520,-669.100
798480.597,4517151.520,-665.220
798480.597,4516951.520,-661.590
798480.597,4516751.520,-659.820
798480.597,4516551.520,-658.200
798480.597,4516351.520,-653.490
798480.597,4516151.520,-649.490
798480.597,4515951.520,-642.680
798480.597,4515751.520,-635.460
798480.597,4515551.520,-627.200
798480.597,4515351.520,-620.840
798480.597,4515151.520,-614.460
798480.597,4514951.520,-605.430
798680.597,4520551.520,-726.370
798680.597,4520351.520,-724.050
798680.597,4520151.520,-720.920
798680.597,4519951.520,-716.830
798680.597,4519751.520,-712.910
798680.597,4519551.520,-709.910
798680.597,4519351.520,-706.370
798680.597,4519151.520,-702.880
798680.597,4518951.520,-698.840
798680.597,4518751.520,-696.080
798680.597,4518551.520,-694.260
798680.597,4518351.520,-689.820
798680.597,4518151.520,-685.890
798680.597,4517951.520,-682.910
798680.597,4517751.520,-680.530
798680.597,4517551.520,-676.220
798680.597,4517351.520,-672.550
798680.597,4517151.520,-669.090
798680.597,4516951.520,-666.390
798680.597,4516751.520,-664.160
798680.597,4516551.520,-661.570
798680.597,4516351.520,-657.490
798680.597,4516151.520,-653.350
798680.597,4515951.520,-646.200
798680.597,4515751.520,-639.170
798680.597,4515551.520,-631.230
798680.597,4515351.520,-624.600
798680.597,4515151.520,-618.350
798680.597,4514951.520,-611.040
798680.597,4514751.520,-603.990
798880.597,4520551.520,-727.340
798880.597,4520351.520,-724.100
798880.597,4520151.520,-721.660
798880.597,4519951.520,-719.850
798880.597,4519751.520,-716.280
798880.597,4519551.520,-711.960
798880.597,4519351.520,-708.220
798880.597,4519151.520,-705.690
798880.597,4518951.520,-702.140
798880.597,4518751.520,-700.060
798880.597,4518551.520,-697.690
798880.597,4518351.520,-694.490
798880.597,4518151.520,-690.940
798880.597,4517951.520,-687.150
798880.597,4517751.520,-683.110
798880.597,4517551.520,-678.870
798880.597,4517351.520,-676.440
798880.597,4517151.520,-673.520
798880.597,4516951.520,-671.280
798880.597,4516751.520,-669.330
798880.597,4516551.520,-665.020
798880.597,4516351.520,-661.460
798880.597,4516151.520,-656.990
798880.597,4515951.520,-650.680
798880.597,4515751.520,-642.980
798880.597,4515551.520,-635.610
798880.597,4515351.520,-628.250
798880.597,4515151.520,-621.990
798880.597,4514951.520,-615.960
798880.597,4514751.520,-609.200
798880.597,4514551.520,-602.830
799080.597,4520551.520,-728.000
799080.597,4520351.520,-725.610
799080.597,4520151.520,-723.370
799080.597,4519951.520,-721.110
799080.597,4519751.520,-717.940
799080.597,4519551.520,-715.060
799080.597,4519351.520,-711.930
799080.597,4519151.520,-709.070
799080.597,4518951.520,-705.970
799080.597,4518751.520,-703.670
799080.597,4518551.520,-700.640
799080.597,4518351.520,-697.700
799080.597,4518151.520,-694.320
799080.597,4517951.520,-690.980
799080.597,4517751.520,-686.660
799080.597,4517551.520,-683.360
799080.597,4517351.520,-680.500
799080.597,4517151.520,-677.070
799080.597,4516951.520,-675.220
799080.597,4516751.520,-673.480
799080.597,4516551.520,-668.530
799080.597,4516351.520,-664.550
799080.597,4516151.520,-661.600
799080.597,4515951.520,-655.580
799080.597,4515751.520,-648.360
799080.597,4515551.520,-640.710
799080.597,4515351.520,-633.240
799080.597,4515151.520,-626.460
799080.597,4514951.520,-621.000
799080.597,4514751.520,-615.140
799080.597,4514551.520,-609.570
799080.597,4514351.520,-603.300
799280.597,4520551.520,-728.250
799280.597,4520351.520,-726.160
799280.597,4520151.520,-725.480
799280.597,4519951.520,-721.990
799280.597,4519751.520,-719.330
799280.597,4519551.520,-716.780
799280.597,4519351.520,-714.450
799280.597,4519151.520,-712.250
799280.597,4518951.520,-710.170
799280.597,4518751.520,-706.650
799280.597,4518551.520,-703.440
799280.597,4518351.520,-700.380
799280.597,4518151.520,-697.230
799280.597,4517951.520,-693.540
799280.597,4517751.520,-689.930
799280.597,4517551.520,-687.540
799280.597,4517351.520,-684.530
799280.597,4517151.520,-680.520
799280.597,4516951.520,-678.910
799280.597,4516751.520,-675.940
799280.597,4516551.520,-671.580
799280.597,4516351.520,-667.680
799280.597,4516151.520,-664.750
799280.597,4515951.520,-660.230
799280.597,4515751.520,-654.480
799280.597,4515551.520,-646.970
799280.597,4515351.520,-639.180
799280.597,4515151.520,-632.920
799280.597,4514951.520,-627.570
799280.597,4514751.520,-622.940
799280.597,4514551.520,-617.370
799280.597,4514351.520,-612.720
799280.597,4514151.520,-606.700
799280.597,4513951.520,-602.960
799480.597,4520551.520,-728.810
799480.597,4520351.520,-727.120
799480.597,4520151.520,-724.140
799480.597,4519951.520,-722.650
799480.597,4519751.520,-720.350
799480.597,4519551.520,-717.980
799480.597,4519351.520,-716.730
799480.597,4519151.520,-714.510
799480.597,4518951.520,-710.990
799480.597,4518751.520,-708.230
799480.597,4518551.520,-705.240
799480.597,4518351.520,-703.020
799480.597,4518151.520,-700.600
799480.597,4517951.520,-696.910
799480.597,4517751.520,-692.730
799480.597,4517551.520,-689.710
799480.597,4517351.520,-686.830
799480.597,4517151.520,-683.080
799480.597,4516951.520,-682.520
799480.597,4516751.520,-678.240
799480.597,4516551.520,-674.760
799480.597,4516351.520,-670.930
799480.597,4516151.520,-667.460
799480.597,4515951.520,-662.930
799480.597,4515751.520,-659.610
799480.597,4515551.520,-654.110
799480.597,4515351.520,-646.910
799480.597,4515151.520,-640.980
799480.597,4514951.520,-635.300
799480.597,4514751.520,-631.010
799480.597,4514551.520,-626.640
799480.597,4514351.520,-621.180
799480.597,4514151.520,-615.950
799480.597,4513951.520,-611.390
799480.597,4513751.520,-607.130
799480.597,4513551.520,-602.830
799680.597,4520551.520,-729.940
799680.597,4520351.520,-727.440
799680.597,4520151.520,-725.290
799680.597,4519951.520,-723.070
799680.597,4519751.520,-722.230
799680.597,4519551.520,-719.630
799680.597,4519351.520,-717.680
799680.597,4519151.520,-715.160
799680.597,4518951.520,-712.890
799680.597,4518751.520,-710.820
799680.597,4518551.520,-708.200
799680.597,4518351.520,-705.470
799680.597,4518151.520,-702.340
799680.597,4517951.520,-699.050
799680.597,4517751.520,-695.500
799680.597,4517551.520,-692.350
799680.597,4517351.520,-689.540
799680.597,4517151.520,-687.090
799680.597,4516951.520,-685.170
799680.597,4516751.520,-681.150
799680.597,4516551.520,-677.320
799680.597,4516351.520,-673.780
799680.597,4516151.520,-669.770
799680.597,4515951.520,-665.670
799680.597,4515751.520,-661.890
799680.597,4515551.520,-658.640
799680.597,4515351.520,-655.040
799680.597,4515151.520,-648.830
799680.597,4514951.520,-644.030
799680.597,4514751.520,-639.840
799680.597,4514551.520,-635.340
799680.597,4514351.520,-630.630
799680.597,4514151.520,-624.910
799680.597,4513951.520,-620.150
799680.597,4513751.520,-614.950
799680.597,4513551.520,-609.390
799680.597,4513351.520,-604.080
799880.597,4520551.520,-730.220
799880.597,4520351.520,-728.540
799880.597,4520151.520,-726.240
799880.597,4519951.520,-724.300
799880.597,4519751.520,-722.730
799880.597,4519551.520,-722.110
799880.597,4519351.520,-719.340
799880.597,4519151.520,-717.750
799880.597,4518951.520,-716.400
799880.597,4518751.520,-714.120
799880.597,4518551.520,-710.750
799880.597,4518351.520,-707.340
799880.597,4518151.520,-703.540
799880.597,4517951.520,-700.690
799880.597,4517751.520,-697.450
799880.597,4517551.520,-695.420
799880.597,4517351.520,-692.230
799880.597,4517151.520,-691.090
799880.597,4516951.520,-688.380
799880.597,4516751.520,-684.130
799880.597,4516551.520,-680.630
799880.597,4516351.520,-676.350
799880.597,4516151.520,-672.590
799880.597,4515951.520,-668.270
799880.597,4515751.520,-664.460
799880.597,4515551.520,-661.620
799880.597,4515351.520,-659.440
799880.597,4515151.520,-655.640
799880.597,4514951.520,-651.560
799880.597,4514751.520,-647.560
799880.597,4514551.520,-643.570
799880.597,4514351.520,-638.030
799880.597,4514151.520,-632.280
799880.597,4513951.520,-626.400
799880.597,4513751.520,-620.700
799880.597,4513551.520,-615.080
799880.597,4513351.520,-608.760
799880.597,4513151.520,-602.830
800080.597,4520551.520,-733.030
800080.597,4520351.520,-730.130
800080.597,4520151.520,-727.930
800080.597,4519951.520,-726.450
800080.597,4519751.520,-725.160
800080.597,4519551.520,-722.810
800080.597,4519351.520,-721.800
800080.597,4519151.520,-720.840
800080.597,4518951.520,-718.590
800080.597,4518751.520,-716.410
800080.597,4518551.520,-713.180
800080.597,4518351.520,-709.560
800080.597,4518151.520,-705.940
800080.597,4517951.520,-702.710
800080.597,4517751.520,-700.090
800080.597,4517551.520,-697.430
800080.597,4517351.520,-695.210
800080.597,4517151.520,-693.020
800080.597,4516951.520,-690.610
800080.597,4516751.520,-687.320
800080.597,4516551.520,-682.860
800080.597,4516351.520,-679.050
800080.597,4516151.520,-675.330
800080.597,4515951.520,-671.120
800080.597,4515751.520,-667.170
800080.597,4515551.520,-664.400
800080.597,4515351.520,-661.910
800080.597,4515151.520,-658.690
800080.597,4514951.520,-655.590
800080.597,4514751.520,-651.950
800080.597,4514551.520,-647.360
800080.597,4514351.520,-641.900
800080.597,4514151.520,-637.880
800080.597,4513951.520,-632.860
800080.597,4513751.520,-626.480
800080.597,4513551.520,-619.890
800080.597,4513351.520,-613.200
800080.597,4513151.520,-607.210
800080.597,4512951.520,-602.090
800280.597,4520551.520,-735.800
800280.597,4520351.520,-732.910
800280.597,4520151.520,-730.740
800280.597,4519951.520,-728.560
800280.597,4519751.520,-727.280
800280.597,4519551.520,-725.580
800280.597,4519351.520,-724.330
800280.597,4519151.520,-722.860
800280.597,4518951.520,-720.510
800280.597,4518751.520,-717.620
800280.597,4518551.520,-714.610
800280.597,4518351.520,-710.760
800280.597,4518151.520,-707.640
800280.597,4517951.520,-704.860
800280.597,4517751.520,-702.040
800280.597,4517551.520,-699.830
800280.597,4517351.520,-696.710
800280.597,4517151.520,-694.290
800280.597,4516951.520,-692.360
800280.597,4516751.520,-689.340
800280.597,4516551.520,-685.360
800280.597,4516351.520,-681.220
800280.597,4516151.520,-676.980
800280.597,4515951.520,-673.230
800280.597,4515751.520,-670.130
800280.597,4515551.520,-667.710
800280.597,4515351.520,-665.150
800280.597,4515151.520,-662.030
800280.597,4514951.520,-658.570
800280.597,4514751.520,-654.530
800280.597,4514551.520,-649.890
800280.597,4514351.520,-645.740
800280.597,4514151.520,-642.480
800280.597,4513951.520,-638.230
800280.597,4513751.520,-631.420
800280.597,4513551.520,-624.460
800280.597,4513351.520,-619.100
800280.597,4513151.520,-613.210
800280.597,4512951.520,-607.270
800280.597,4512751.520,-601.390
800280.597,4512551.520,-600.790
800280.597,4512351.520,-601.510
800480.597,4520551.520,-739.190
800480.597,4520351.520,-735.470
800480.597,4520151.520,-732.140
800480.597,4519951.520,-731.400
800480.597,4519751.520,-730.220
800480.597,4519551.520,-728.490
800480.597,4519351.520,-726.670
800480.597,4519151.520,-724.260
800480.597,4518951.520,-721.910
800480.597,4518751.520,-719.830
800480.597,4518551.520,-716.540
800480.597,4518351.520,-713.180
800480.597,4518151.520,-710.130
800480.597,4517951.520,-706.390
800480.597,4517751.520,-703.920
800480.597,4517551.520,-700.550
800480.597,4517351.520,-698.460
800480.597,4517151.520,-696.230
800480.597,4516951.520,-693.780
800480.597,4516751.520,-690.300
800480.597,4516551.520,-686.550
800480.597,4516351.520,-682.420
800480.597,4516151.520,-678.570
800480.597,4515951.520,-674.740
800480.597,4515751.520,-672.380
800480.597,4515551.520,-670.660
800480.597,4515351.520,-668.740
800480.597,4515151.520,-664.930
800480.597,4514951.520,-661.300
800480.597,4514751.520,-657.070
800480.597,4514551.520,-653.460
800480.597,4514351.520,-649.810
800480.597,4514151.520,-646.430
800480.597,4513951.520,-641.960
800480.597,4513751.520,-636.550
800480.597,4513551.520,-629.570
800480.597,4513351.520,-623.370
800480.597,4513151.520,-617.510
800480.597,4512951.520,-611.670
800480.597,4512751.520,-607.890
800480.597,4512551.520,-607.690
800480.597,4512351.520,-607.590
800480.597,4512151.520,-603.000
800680.597,4520551.520,-740.360
800680.597,4520351.520,-738.710
800680.597,4520151.520,-735.650
800680.597,4519951.520,-733.690
800680.597,4519751.520,-732.370
800680.597,4519551.520,-730.230
800680.597,4519351.520,-728.050
800680.597,4519151.520,-724.980
800680.597,4518951.520,-722.520
800680.597,4518751.520,-720.170
800680.597,4518551.520,-718.030
800680.597,4518351.520,-715.040
800680.597,4518151.520,-711.770
800680.597,4517951.520,-708.230
800680.597,4517751.520,-704.960
800680.597,4517551.520,-702.860
800680.597,4517351.520,-700.210
800680.597,4517151.520,-697.670
800680.597,4516951.520,-694.240
800680.597,4516751.520,-690.920
800680.597,4516551.520,-686.040
800680.597,4516351.520,-682.650
800680.597,4516151.520,-679.910
800680.597,4515951.520,-676.980
800680.597,4515751.520,-675.550
800680.597,4515551.520,-674.010
800680.597,4515351.520,-671.830
800680.597,4515151.520,-668.590
800680.597,4514951.520,-664.080
800680.597,4514751.520,-661.160
800680.597,4514551.520,-657.590
800680.597,4514351.520,-653.950
800680.597,4514151.520,-650.380
800680.597,4513951.520,-646.430
800680.597,4513751.520,-640.550
800680.597,4513551.520,-633.200
800680.597,4513351.520,-629.710
800680.597,4513151.520,-623.400
800680.597,4512951.520,-618.890
800680.597,4512751.520,-616.220
800680.597,4512551.520,-615.260
800680.597,4512351.520,-613.510
800680.597,4512151.520,-607.160
800880.597,4520551.520,-741.590
800880.597,4520351.520,-739.490
800880.597,4520151.520,-737.610
800880.597,4519951.520,-736.630
800880.597,4519751.520,-734.830
800880.597,4519551.520,-731.880
800880.597,4519351.520,-729.330
800880.597,4519151.520,-726.460
800880.597,4518951.520,-724.380
800880.597,4518751.520,-721.880
800880.597,4518551.520,-719.560
800880.597,4518351.520,-716.610
800880.597,4518151.520,-714.050
800880.597,4517951.520,-710.560
800880.597,4517751.520,-708.210
800880.597,4517551.520,-704.620
800880.597,4517351.520,-701.150
800880.597,4517151.520,-697.740
800880.597,4516951.520,-694.700
800880.597,4516751.520,-691.110
800880.597,4516551.520,-687.300
800880.597,4516351.520,-684.560
800880.597,4516151.520,-682.660
800880.597,4515951.520,-681.190
800880.597,4515751.520,-679.610
800880.597,4515551.520,-678.100
800880.597,4515351.520,-675.210
800880.597,4515151.520,-671.800
800880.597,4514951.520,-667.820
800880.597,4514751.520,-664.460
800880.597,4514551.520,-662.010
800880.597,4514351.520,-657.920
800880.597,4514151.520,-653.780
800880.597,4513951.520,-650.370
800880.597,4513751.520,-645.990
800880.597,4513551.520,-640.010
800880.597,4513351.520,-635.590
800880.597,4513151.520,-629.830
800880.597,4512951.520,-625.140
800880.597,4512751.520,-623.360
800880.597,4512551.520,-622.570
800880.597,4512351.520,-619.370
800880.597,4512151.520,-612.390
801080.597,4520551.520,-742.580
801080.597,4520351.520,-741.240
801080.597,4520151.520,-739.590
801080.597,4519951.520,-738.360
801080.597,4519751.520,-736.030
801080.597,4519551.520,-732.550
801080.597,4519351.520,-730.270
801080.597,4519151.520,-728.760
801080.597,4518951.520,-726.670
801080.597,4518751.520,-723.450
801080.597,4518551.520,-720.940
801080.597,4518351.520,-718.100
801080.597,4518151.520,-716.540
801080.597,4517951.520,-714.090
801080.597,4517751.520,-711.020
801080.597,4517551.520,-707.490
801080.597,4517351.520,-702.300
801080.597,4517151.520,-698.840
801080.597,4516951.520,-695.960
801080.597,4516751.520,-692.120
801080.597,4516551.520,-690.820
801080.597,4516351.520,-688.980
801080.597,4516151.520,-687.950
801080.597,4515951.520,-685.910
801080.597,4515751.520,-684.270
801080.597,4515551.520,-681.740
801080.597,4515351.520,-678.180
801080.597,4515151.520,-675.070
801080.597,4514951.520,-671.800
801080.597,4514751.520,-668.800
801080.597,4514551.520,-664.950
801080.597,4514351.520,-661.240
801080.597,4514151.520,-656.810
801080.597,4513951.520,-653.570
801080.597,4513751.520,-649.410
801080.597,4513551.520,-644.710
801080.597,4513351.520,-640.570
801080.597,4513151.520,-633.720
801080.597,4512951.520,-631.090
801080.597,4512751.520,-628.990
801080.597,4512551.520,-627.410
801080.597,4512351.520,-623.680
801080.597,4512151.520,-616.680
801080.597,4511951.520,-603.470
801280.597,4520551.520,-744.470
801280.597,4520351.520,-743.040
801280.597,4520151.520,-741.310
801280.597,4519951.520,-738.680
801280.597,4519751.520,-736.390
801280.597,4519551.520,-734.280
801280.597,4519351.520,-731.780
801280.597,4519151.520,-729.830
801280.597,4518951.520,-727.630
801280.597,4518751.520,-724.920
801280.597,4518551.520,-723.410
801280.597,4518351.520,-719.800
801280.597,4518151.520,-717.520
801280.597,4517951.520,-716.340
801280.597,4517751.520,-713.190
801280.597,4517551.520,-708.470
801280.597,4517351.520,-704.670
801280.597,4517151.520,-700.360
801280.597,4516951.520,-697.540
801280.597,4516751.520,-695.210
801280.597,4516551.520,-695.330
801280.597,4516351.520,-693.660
801280.597,4516151.520,-692.890
801280.597,4515951.520,-690.950
801280.597,4515751.520,-688.850
801280.597,4515551.520,-685.330
801280.597,4515351.520,-682.190
801280.597,4515151.520,-678.090
801280.597,4514951.520,-675.550
801280.597,4514751.520,-672.340
801280.597,4514551.520,-668.900
801280.597,4514351.520,-665.300
801280.597,4514151.520,-661.150
801280.597,4513951.520,-656.340
801280.597,4513751.520,-652.300
801280.597,4513551.520,-649.060
801280.597,4513351.520,-643.940
801280.597,4513151.520,-639.240
801280.597,4512951.520,-635.840
801280.597,4512751.520,-633.480
801280.597,4512551.520,-631.520
801280.597,4512351.520,-627.630
801280.597,4512151.520,-621.320
801280.597,4511951.520,-610.040
801480.597,4520551.520,-746.010
801480.597,4520351.520,-743.880
801480.597,4520151.520,-741.430
801480.597,4519951.520,-739.510
801480.597,4519751.520,-737.000
801480.597,4519551.520,-734.980
801480.597,4519351.520,-733.740
801480.597,4519151.520,-732.050
801480.597,4518951.520,-730.190
801480.597,4518751.520,-727.350
801480.597,4518551.520,-724.930
801480.597,4518351.520,-721.830
801480.597,4518151.520,-719.220
801480.597,4517951.520,-716.920
801480.597,4517751.520,-715.230
801480.597,4517551.520,-710.400
801480.597,4517351.520,-706.680
801480.597,4517151.520,-702.860
801480.597,4516951.520,-699.930
801480.597,4516751.520,-699.240
801480.597,4516551.520,-698.980
801480.597,4516351.520,-698.160
801480.597,4516151.520,-697.740
801480.597,4515951.520,-696.000
801480.597,4515751.520,-692.730
801480.597,4515551.520,-690.050
801480.597,4515351.520,-686.120
801480.597,4515151.520,-682.760
801480.597,4514951.520,-680.170
801480.597,4514751.520,-676.080
801480.597,4514551.520,-672.770
801480.597,4514351.520,-668.910
801480.597,4514151.520,-663.630
801480.597,4513951.520,-659.660
801480.597,4513751.520,-656.110
801480.597,4513551.520,-651.730
801480.597,4513351.520,-647.030
801480.597,4513151.520,-642.920
801480.597,4512951.520,-639.370
801480.597,4512751.520,-638.240
801480.597,4512551.520,-635.970
801480.597,4512351.520,-631.630
801480.597,4512151.520,-625.360
801480.597,4511951.520,-616.420
801480.597,4511751.520,-605.710
801680.597,4520551.520,-746.260
801680.597,4520351.520,-745.040
801680.597,4520151.520,-742.290
801680.597,4519951.520,-740.260
801680.597,4519751.520,-738.550
801680.597,4519551.520,-736.920
801680.597,4519351.520,-735.460
801680.597,4519151.520,-734.840
801680.597,4518951.520,-732.580
801680.597,4518751.520,-728.720
801680.597,4518551.520,-726.450
801680.597,4518351.520,-724.180
801680.597,4518151.520,-721.740
801680.597,4517951.520,-719.050
801680.597,4517751.520,-716.260
801680.597,4517551.520,-712.290
801680.597,4517351.520,-708.720
801680.597,4517151.520,-706.130
801680.597,4516951.520,-705.360
801680.597,4516751.520,-704.580
801680.597,4516551.520,-704.040
801680.597,4516351.520,-702.860
801680.597,4516151.520,-701.630
801680.597,4515951.520,-699.860
801680.597,4515751.520,-696.850
801680.597,4515551.520,-693.670
801680.597,4515351.520,-690.960
801680.597,4515151.520,-688.140
801680.597,4514951.520,-684.680
801680.597,4514751.520,-681.400
801680.597,4514551.520,-675.390
801680.597,4514351.520,-671.080
801680.597,4514151.520,-666.550
801680.597,4513951.520,-662.410
801680.597,4513751.520,-659.230
801680.597,4513551.520,-656.000
801680.597,4513351.520,-651.900
801680.597,4513151.520,-647.920
801680.597,4512951.520,-643.360
801680.597,4512751.520,-641.950
801680.597,4512551.520,-639.900
801680.597,4512351.520,-635.510
801680.597,4512151.520,-629.090
801680.597,4511951.520,-621.300
801680.597,4511751.520,-612.970
801680.597,4511551.520,-606.900
801680.597,4511351.520,-602.450
801880.597,4520551.520,-748.550
801880.597,4520351.520,-747.080
801880.597,4520151.520,-744.620
801880.597,4519951.520,-742.450
801880.597,4519751.520,-740.640
801880.597,4519551.520,-739.540
801880.597,4519351.520,-738.050
801880.597,4519151.520,-735.510
801880.597,4518951.520,-734.220
801880.597,4518751.520,-731.780
801880.597,4518551.520,-729.010
801880.597,4518351.520,-726.530
801880.597,4518151.520,-723.940
801880.597,4517951.520,-721.010
801880.597,4517751.520,-718.470
801880.597,4517551.520,-714.020
801880.597,4517351.520,-711.300
801880.597,4517151.520,-710.030
801880.597,4516951.520,-711.420
801880.597,4516751.520,-710.800
801880.597,4516551.520,-707.850
801880.597,4516351.520,-705.670
801880.597,4516151.520,-704.100
801880.597,4515951.520,-703.200
801880.597,4515751.520,-700.960
801880.597,4515551.520,-697.600
801880.597,4515351.520,-695.290
801880.597,4515151.520,-693.070
801880.597,4514951.520,-688.960
801880.597,4514751.520,-684.560
801880.597,4514551.520,-679.800
801880.597,4514351.520,-676.080
801880.597,4514151.520,-670.890
801880.597,4513951.520,-665.820
801880.597,4513751.520,-661.800
801880.597,4513551.520,-658.370
801880.597,4513351.520,-655.300
801880.597,4513151.520,-650.250
801880.597,4512951.520,-647.640
801880.597,4512751.520,-645.260
801880.597,4512551.520,-642.830
801880.597,4512351.520,-638.830
801880.597,4512151.520,-633.400
801880.597,4511951.520,-626.880
801880.597,4511751.520,-619.630
801880.597,4511551.520,-615.480
801880.597,4511351.520,-610.460
801880.597,4511151.520,-606.370
802080.597,4520551.520,-751.800
802080.597,4520351.520,-749.130
802080.597,4520151.520,-747.510
802080.597,4519951.520,-745.190
802080.597,4519751.520,-743.620
802080.597,4519551.520,-741.980
802080.597,4519351.520,-739.200
802080.597,4519151.520,-737.840
802080.597,4518951.520,-735.190
802080.597,4518751.520,-733.070
802080.597,4518551.520,-730.730
802080.597,4518351.520,-728.400
802080.597,4518151.520,-726.560
802080.597,4517951.520,-723.420
802080.597,4517751.520,-720.590
802080.597,4517551.520,-717.490
802080.597,4517351.520,-715.660
802080.597,4517151.520,-715.520
802080.597,4516951.520,-715.950
802080.597,4516751.520,-714.880
802080.597,4516551.520,-711.440
802080.597,4516351.520,-708.570
802080.597,4516151.520,-707.050
802080.597,4515951.520,-705.990
802080.597,4515751.520,-703.830
802080.597,4515551.520,-702.080
802080.597,4515351.520,-699.400
802080.597,4515151.520,-696.610
802080.597,4514951.520,-692.400
802080.597,4514751.520,-689.190
802080.597,4514551.520,-685.530
802080.597,4514351.520,-679.710
802080.597,4514151.520,-674.050
802080.597,4513951.520,-669.510
802080.597,4513751.520,-665.200
802080.597,4513551.520,-661.220
802080.597,4513351.520,-657.250
802080.597,4513151.520,-654.040
802080.597,4512951.520,-651.260
802080.597,4512751.520,-648.670
802080.597,4512551.520,-646.680
802080.597,4512351.520,-643.460
802080.597,4512151.520,-637.610
802080.597,4511951.520,-631.800
802080.597,4511751.520,-625.350
802080.597,4511551.520,-620.850
802080.597,4511351.520,-617.480
802080.597,4511151.520,-613.610
802080.597,4510951.520,-608.870
802080.597,4510751.520,-600.280
802280.597,4520551.520,-753.310
802280.597,4520351.520,-751.350
802280.597,4520151.520,-748.900
802280.597,4519951.520,-747.630
802280.597,4519751.520,-745.510
802280.597,4519551.520,-743.060
802280.597,4519351.520,-740.910
802280.597,4519151.520,-738.930
802280.597,4518951.520,-737.040
802280.597,4518751.520,-734.700
802280.597,4518551.520,-733.090
802280.597,4518351.520,-731.650
802280.597,4518151.520,-729.210
802280.597,4517951.520,-726.180
802280.597,4517751.520,-723.700
802280.597,4517551.520,-721.270
802280.597,4517351.520,-721.360
802280.597,4517151.520,-721.100
802280.597,4516951.520,-720.310
802280.597,4516751.520,-718.350
802280.597,4516551.520,-715.080
802280.597,4516351.520,-712.080
802280.597,4516151.520,-710.520
802280.597,4515951.520,-709.650
802280.597,4515751.520,-707.050
802280.597,4515551.520,-705.470
802280.597,4515351.520,-702.110
802280.597,4515151.520,-699.450
802280.597,4514951.520,-697.390
802280.597,4514751.520,-693.940
802280.597,4514551.520,-689.520
802280.597,4514351.520,-682.050
802280.597,4514151.520,-676.730
802280.597,4513951.520,-672.330
802280.597,4513751.520,-668.020
802280.597,4513551.520,-663.710
802280.597,4513351.520,-659.900
802280.597,4513151.520,-658.290
802280.597,4512951.520,-655.410
802280.597,4512751.520,-652.730
802280.597,4512551.520,-650.870
802280.597,4512351.520,-646.320
802280.597,4512151.520,-641.160
802280.597,4511951.520,-634.830
802280.597,4511751.520,-629.010
802280.597,4511551.520,-627.290
802280.597,4511351.520,-623.580
802280.597,4511151.520,-619.350
802280.597,4510951.520,-613.380
802280.597,4510751.520,-607.340
802480.597,4520551.520,-753.880
802480.597,4520351.520,-752.650
802480.597,4520151.520,-751.580
802480.597,4519951.520,-749.410
802480.597,4519751.520,-746.660
802480.597,4519551.520,-744.350
802480.597,4519351.520,-742.510
802480.597,4519151.520,-740.670
802480.597,4518951.520,-738.910
802480.597,4518751.520,-736.860
802480.597,4518551.520,-735.440
802480.597,4518351.520,-734.470
802480.597,4518151.520,-732.350
802480.597,4517951.520,-729.080
802480.597,4517751.520,-725.970
802480.597,4517551.520,-725.660
802480.597,4517351.520,-725.660
802480.597,4517151.520,-725.330
802480.597,4516951.520,-723.160
802480.597,4516751.520,-721.080
802480.597,4516551.520,-719.440
802480.597,4516351.520,-717.030
802480.597,4516151.520,-715.440
802480.597,4515951.520,-713.180
802480.597,4515751.520,-710.540
802480.597,4515551.520,-707.380
802480.597,4515351.520,-704.950
802480.597,4515151.520,-703.450
802480.597,4514951.520,-700.690
802480.597,4514751.520,-695.780
802480.597,4514551.520,-691.790
802480.597,4514351.520,-685.470
802480.597,4514151.520,-679.170
802480.597,4513951.520,-674.910
802480.597,4513751.520,-671.250
802480.597,4513551.520,-667.160
802480.597,4513351.520,-663.780
802480.597,4513151.520,-661.950
802480.597,4512951.520,-659.520
802480.597,4512751.520,-657.510
802480.597,4512551.520,-654.800
802480.597,4512351.520,-649.730
802480.597,4512151.520,-644.700
802480.597,4511951.520,-640.610
802480.597,4511751.520,-637.140
802480.597,4511551.520,-633.340
802480.597,4511351.520,-629.020
802480.597,4511151.520,-623.580
802480.597,4510951.520,-616.560
802480.597,4510751.520,-611.240
802480.597,4510551.520,-606.460
802680.597,4520551.520,-755.140
802680.597,4520351.520,-753.800
802680.597,4520151.520,-752.660
802680.597,4519951.520,-751.150
802680.597,4519751.520,-748.700
802680.597,4519551.520,-746.160
802680.597,4519351.520,-743.420
802680.597,4519151.520,-741.760
802680.597,4518951.520,-740.070
802680.597,4518751.520,-738.990
802680.597,4518551.520,-738.470
802680.597,4518351.520,-738.360
802680.597,4518151.520,-734.640
802680.597,4517951.520,-731.550
802680.597,4517751.520,-730.650
802680.597,4517551.520,-729.330
802680.597,4517351.520,-729.240
802680.597,4517151.520,-728.680
802680.597,4516951.520,-726.190
802680.597,4516751.520,-724.680
802680.597,4516551.520,-722.750
802680.597,4516351.520,-721.880
802680.597,4516151.520,-720.720
802680.597,4515951.520,-717.710
802680.597,4515751.520,-713.570
802680.597,4515551.520,-710.790
802680.597,4515351.520,-709.110
802680.597,4515151.520,-707.210
802680.597,4514951.520,-703.690
802680.597,4514751.520,-698.960
802680.597,4514551.520,-693.750
802680.597,4514351.520,-687.980
802680.597,4514151.520,-683.050
802680.597,4513951.520,-678.900
802680.597,4513751.520,-674.890
802680.597,4513551.520,-671.720
802680.597,4513351.520,-668.810
802680.597,4513151.520,-666.170
802680.597,4512951.520,-663.390
802680.597,4512751.520,-663.080
802680.597,4512551.520,-659.120
802680.597,4512351.520,-653.600
802680.597,4512151.520,-649.210
802680.597,4511951.520,-646.100
802680.597,4511751.520,-643.220
802680.597,4511551.520,-638.920
802680.597,4511351.520,-633.210
802680.597,4511151.520,-627.340
802680.597,4510951.520,-621.440
802680.597,4510751.520,-615.780
802680.597,4510551.520,-610.050
802680.597,4510351.520,-604.190
802880.597,4520551.520,-756.650
802880.597,4520351.520,-755.080
802880.597,4520151.520,-753.340
802880.597,4519951.520,-752.720
802880.597,4519751.520,-749.860
802880.597,4519551.520,-747.900
802880.597,4519351.520,-745.550
802880.597,4519151.520,-744.260
802880.597,4518951.520,-742.650
802880.597,4518751.520,-741.940
802880.597,4518551.520,-740.970
802880.597,4518351.520,-739.860
802880.597,4518151.520,-737.830
802880.597,4517951.520,-733.380
802880.597,4517751.520,-732.940
802880.597,4517551.520,-732.210
802880.597,4517351.520,-731.350
802880.597,4517151.520,-730.960
802880.597,4516951.520,-729.390
802880.597,4516751.520,-727.650
802880.597,4516551.520,-725.180
802880.597,4516351.520,-724.030
802880.597,4516151.520,-722.890
802880.597,4515951.520,-721.040
802880.597,4515751.520,-718.090
802880.597,4515551.520,-715.190
802880.597,4515351.520,-712.380
802880.597,4515151.520,-710.810
802880.597,4514951.520,-707.260
802880.597,4514751.520,-702.240
802880.597,4514551.520,-696.730
802880.597,4514351.520,-691.310
802880.597,4514151.520,-686.780
802880.597,4513951.520,-682.290
802880.597,4513751.520,-679.410
802880.597,4513551.520,-675.560
802880.597,4513351.520,-673.390
802880.597,4513151.520,-670.000
802880.597,4512951.520,-668.740
802880.597,4512751.520,-667.660
802880.597,4512551.520,-662.840
802880.597,4512351.520,-659.460
802880.597,4512151.520,-655.080
802880.597,4511951.520,-651.650
802880.597,4511751.520,-648.450
802880.597,4511551.520,-643.470
802880.597,4511351.520,-637.120
802880.597,4511151.520,-631.030
802880.597,4510951.520,-624.120
802880.597,4510751.520,-617.700
802880.597,4510551.520,-611.480
802880.597,4510351.520,-605.280
803080.597,4520551.520,-757.600
803080.597,4520351.520,-756.380
803080.597,4520151.520,-755.110
803080.597,4519951.520,-753.850
803080.597,4519751.520,-750.880
803080.597,4519551.520,-750.070
803080.597,4519351.520,-748.120
803080.597,4519151.520,-746.980
803080.597,4518951.520,-745.690
803080.597,4518751.520,-745.220
803080.597,4518551.520,-743.120
803080.597,4518351.520,-741.180
803080.597,4518151.520,-738.100
803080.597,4517951.520,-736.690
803080.597,4517751.520,-735.760
803080.597,4517551.520,-734.530
803080.597,4517351.520,-733.530
803080.597,4517151.520,-733.090
803080.597,4516951.520,-731.730
803080.597,4516751.520,-730.000
803080.597,4516551.520,-728.670
803080.597,4516351.520,-727.240
803080.597,4516151.520,-724.880
803080.597,4515951.520,-723.350
803080.597,4515751.520,-721.560
803080.597,4515551.520,-718.870
803080.597,4515351.520,-716.560
803080.597,4515151.520,-713.210
803080.597,4514951.520,-709.340
803080.597,4514751.520,-705.270
803080.597,4514551.520,-700.490
803080.597,4514351.520,-694.210
803080.597,4514151.520,-689.220
803080.597,4513951.520,-685.710
803080.597,4513751.520,-682.230
803080.597,4513551.520,-680.150
803080.597,4513351.520,-675.720
803080.597,4513151.520,-674.880
803080.597,4512951.520,-673.970
803080.597,4512751.520,-671.150
803080.597,4512551.520,-666.870
803080.597,4512351.520,-663.640
803080.597,4512151.520,-660.510
803080.597,4511951.520,-656.780
803080.597,4511751.520,-652.430
803080.597,4511551.520,-647.740
803080.597,4511351.520,-640.010
803080.597,4511151.520,-633.300
803080.597,4510951.520,-626.990
803080.597,4510751.520,-620.160
803080.597,4510551.520,-613.410
803080.597,4510351.520,-606.790
803080.597,4510151.520,-601.400
803280.597,4520551.520,-760.680
803280.597,4520351.520,-758.550
803280.597,4520151.520,-756.850
803280.597,4519951.520,-754.840
803280.597,4519751.520,-752.740
803280.597,4519551.520,-752.010
803280.597,4519351.520,-750.890
803280.597,4519151.520,-748.930
803280.597,4518951.520,-749.190
803280.597,4518751.520,-746.980
803280.597,4518551.520,-744.490
803280.597,4518351.520,-742.340
803280.597,4518151.520,-740.550
803280.597,4517951.520,-738.780
803280.597,4517751.520,-738.450
803280.597,4517551.520,-737.580
803280.597,4517351.520,-737.390
803280.597,4517151.520,-735.950
803280.597,4516951.520,-734.730
803280.597,4516751.520,-733.210
803280.597,4516551.520,-731.170
803280.597,4516351.520,-729.450
803280.597,4516151.520,-727.690
803280.597,4515951.520,-726.230
803280.597,4515751.520,-724.080
803280.597,4515551.520,-722.070
803280.597,4515351.520,-718.570
803280.597,4515151.520,-714.850
803280.597,4514951.520,-710.420
803280.597,4514751.520,-706.730
803280.597,4514551.520,-701.950
803280.597,4514351.520,-696.240
803280.597,4514151.520,-692.300
803280.597,4513951.520,-688.890
803280.597,4513751.520,-686.810
803280.597,4513551.520,-682.570
803280.597,4513351.520,-680.520
803280.597,4513151.520,-678.920
803280.597,4512951.520,-677.540
803280.597,4512751.520,-674.230
803280.597,4512551.520,-670.570
803280.597,4512351.520,-667.950
803280.597,4512151.520,-664.640
803280.597,4511951.520,-660.840
803280.597,4511751.520,-655.630
803280.597,4511551.520,-650.280
803280.597,4511351.520,-643.340
803280.597,4511151.520,-636.850
803280.597,4510951.520,-630.920
803280.597,4510751.520,-624.200
803280.597,4510551.520,-616.400
803280.597,4510351.520,-610.910
803280.597,4510151.520,-606.130
803280.597,4509951.520,-600.880
803480.597,4520551.520,-762.630
803480.597,4520351.520,-760.350
803480.597,4520151.520,-758.170
803480.597,4519951.520,-757.070
803480.597,4519751.520,-755.190
803480.597,4519551.520,-753.760
803480.597,4519351.520,-752.940
803480.597,4519151.520,-751.670
803480.597,4518951.520,-751.050
803480.597,4518751.520,-748.980
803480.597,4518551.520,-746.610
803480.597,4518351.520,-744.010
803480.597,4518151.520,-743.090
803480.597,4517951.520,-742.280
803480.597,4517751.520,-741.850
803480.597,4517551.520,-740.830
803480.597,4517351.520,-739.990
803480.597,4517151.520,-739.190
803480.597,4516951.520,-737.490
803480.597,4516751.520,-735.710
803480.597,4516551.520,-733.900
803480.597,4516351.520,-731.950
803480.597,4516151.520,-730.400
803480.597,4515951.520,-728.420
803480.597,4515751.520,-726.380
803480.597,4515551.520,-723.940
803480.597,4515351.520,-720.020
803480.597,4515151.520,-715.050
803480.597,4514951.520,-711.220
803480.597,4514751.520,-707.120
803480.597,4514551.520,-702.280
803480.597,4514351.520,-699.100
803480.597,4514151.520,-695.790
803480.597,4513951.520,-693.140
803480.597,4513751.520,-689.350
803480.597,4513551.520,-687.110
803480.597,4513351.520,-684.700
803480.597,4513151.520,-682.170
803480.597,4512951.520,-680.370
803480.597,4512751.520,-676.560
803480.597,4512551.520,-674.340
803480.597,4512351.520,-671.240
803480.597,4512151.520,-667.410
803480.597,4511951.520,-663.850
803480.597,4511751.520,-659.010
803480.597,4511551.520,-652.660
803480.597,4511351.520,-646.970
803480.597,4511151.520,-641.050
803480.597,4510951.520,-635.420
803480.597,4510751.520,-628.770
803480.597,4510551.520,-622.270
803480.597,4510351.520,-616.700
803480.597,4510151.520,-611.480
803480.597,4509951.520,-606.290
803480.597,4509751.520,-602.320
803680.597,4520551.520,-763.900
803680.597,4520351.520,-762.470
803680.597,4520151.520,-760.940
803680.597,4519951.520,-759.010
803680.597,4519751.520,-757.540
803680.597,4519551.520,-755.780
803680.597,4519351.520,-754.720
803680.597,4519151.520,-754.210
803680.597,4518951.520,-753.610
803680.597,4518751.520,-751.270
803680.597,4518551.520,-748.600
803680.597,4518351.520,-746.500
803680.597,4518151.520,-745.840
803680.597,4517951.520,-744.970
803680.597,4517751.520,-745.040
803680.597,4517551.520,-744.020
803680.597,4517351.520,-742.740
803680.597,4517151.520,-741.620
803680.597,4516951.520,-740.240
803680.597,4516751.520,-738.370
803680.597,4516551.520,-736.650
803680.597,4516351.520,-734.630
803680.597,4516151.520,-732.880
803680.597,4515951.520,-730.300
803680.597,4515751.520,-727.330
803680.597,4515551.520,-724.340
803680.597,4515351.520,-720.460
803680.597,4515151.520,-715.830
803680.597,4514951.520,-711.130
803680.597,4514751.520,-706.750
803680.597,4514551.520,-704.530
803680.597,4514351.520,-701.620
803680.597,4514151.520,-699.010
