462492.572,4271984.094,-443.215
462492.572,4271884.094,-414.256
462492.572,4271784.094,-383.532
462492.572,4271684.094,-350.452
462492.572,4271584.094,-315.958
462492.572,4271484.094,-275.844
462492.572,4271384.094,-235.506
462492.572,4271284.094,-203.445
462492.572,4271184.094,-160.203
462492.572,4267184.094,-129.123
462492.572,4267084.094,-200.753
462492.572,4266984.094,-263.300
462492.572,4266884.094,-315.363
462492.572,4266784.094,-360.976
462492.572,4266684.094,-396.095
462492.572,4266584.094,-413.919
462492.572,4266484.094,-445.788
462492.572,4266384.094,-489.826
462492.572,4266284.094,-537.628
462492.572,4266184.094,-574.911
462492.572,4266084.094,-603.273
462492.572,4265984.094,-629.752
462492.572,4265884.094,-654.620
462492.572,4265784.094,-685.174
462492.572,4265684.094,-719.133
462492.572,4265584.094,-752.375
462492.572,4265484.094,-781.028
462492.572,4265384.094,-798.810
462592.572,4272984.094,-794.346
462592.572,4272884.094,-767.436
462592.572,4272784.094,-731.972
462592.572,4272684.094,-688.911
462592.572,4272584.094,-657.579
462592.572,4272484.094,-626.470
462592.572,4272384.094,-593.424
462592.572,4272284.094,-552.286
462592.572,4272184.094,-520.842
462592.572,4272084.094,-493.949
462592.572,4271984.094,-464.229
462592.572,4271884.094,-435.720
462592.572,4271784.094,-407.160
462592.572,4271684.094,-375.279
462592.572,4271584.094,-339.473
462592.572,4271484.094,-298.602
462592.572,4271384.094,-264.478
462592.572,4271284.094,-224.263
462592.572,4271184.094,-166.801
462592.572,4267084.094,-197.952
462592.572,4266984.094,-257.439
462592.572,4266884.094,-303.507
462592.572,4266784.094,-339.479
462592.572,4266684.094,-381.311
462592.572,4266584.094,-432.923
462592.572,4266484.094,-488.375
462592.572,4266384.094,-515.915
462592.572,4266284.094,-533.600
462592.572,4266184.094,-555.266
462592.572,4266084.094,-582.984
462592.572,4265984.094,-607.368
462592.572,4265884.094,-640.800
462592.572,4265784.094,-680.648
462592.572,4265684.094,-714.741
462592.572,4265584.094,-738.846
462592.572,4265484.094,-761.868
462592.572,4265384.094,-781.590
462692.572,4272884.094,-771.628
462692.572,4272784.094,-742.534
462692.572,4272684.094,-706.103
462692.572,4272584.094,-671.798
462692.572,4272484.094,-638.409
462692.572,4272384.094,-602.723
462692.572,4272284.094,-570.708
462692.572,4272184.094,-542.017
462692.572,4272084.094,-514.690
462692.572,4271984.094,-484.423
462692.572,4271884.094,-450.456
462692.572,4271784.094,-415.633
462692.572,4271684.094,-382.246
462692.572,4271584.094,-350.458
462692.572,4271484.094,-315.641
462692.572,4271384.094,-280.979
462692.572,4271284.094,-232.593
462692.572,4271184.094,-197.747
462692.572,4271084.094,-167.893
462692.572,4270984.094,-131.290
462692.572,4267184.094,-146.633
462692.572,4267084.094,-208.165
462692.572,4266984.094,-265.026
462692.572,4266884.094,-318.254
462692.572,4266784.094,-364.741
462692.572,4266684.094,-418.253
462692.572,4266584.094,-450.878
462692.572,4266484.094,-465.728
462692.572,4266384.094,-493.105
462692.572,4266284.094,-519.293
462692.572,4266184.094,-548.684
462692.572,4266084.094,-586.911
462692.572,4265984.094,-624.381
462692.572,4265884.094,-653.813
462692.572,4265784.094,-675.185
462692.572,4265684.094,-696.346
462692.572,4265584.094,-720.865
462692.572,4265484.094,-743.710
462692.572,4265384.094,-767.522
462692.572,4265284.094,-792.568
462792.572,4272884.094,-784.401
462792.572,4272784.094,-747.498
462792.572,4272684.094,-712.936
462792.572,4272584.094,-673.629
462792.572,4272484.094,-641.726
462792.572,4272384.094,-611.282
462792.572,4272284.094,-585.424
462792.572,4272184.094,-557.999
462792.572,4272084.094,-528.623
462792.572,4271984.094,-495.971
462792.572,4271884.094,-463.362
462792.572,4271784.094,-431.157
462792.572,4271684.094,-397.021
462792.572,4271584.094,-365.305
462792.572,4271484.094,-339.214
462792.572,4271384.094,-311.067
462792.572,4271284.094,-275.857
462792.572,4271184.094,-230.929
462792.572,4271084.094,-167.218
462792.572,4270984.094,-125.010
462792.572,4267184.094,-169.574
462792.572,4267084.094,-229.428
462792.572,4266984.094,-283.349
462792.572,4266884.094,-329.742
462792.572,4266784.094,-376.991
462792.572,4266684.094,-401.634
462792.572,4266584.094,-420.711
462792.572,4266484.094,-450.016
462792.572,4266384.094,-486.134
462792.572,4266284.094,-521.623
462792.572,4266184.094,-562.757
462792.572,4266084.094,-589.874
462792.572,4265984.094,-609.328
462792.572,4265884.094,-633.197
462792.572,4265784.094,-660.443
462792.572,4265684.094,-683.633
462792.572,4265584.094,-710.429
462792.572,4265484.094,-739.681
462792.572,4265384.094,-764.377
462792.572,4265284.094,-789.961
462892.572,4272884.094,-786.644
462892.572,4272784.094,-759.020
462892.572,4272684.094,-721.958
462892.572,4272584.094,-681.815
462892.572,4272484.094,-651.935
462892.572,4272384.094,-630.382
462892.572,4272284.094,-603.736
462892.572,4272184.094,-574.942
462892.572,4272084.094,-543.426
462892.572,4271984.094,-510.168
462892.572,4271884.094,-476.398
462892.572,4271784.094,-442.348
462892.572,4271684.094,-410.512
462892.572,4271584.094,-382.457
462892.572,4271484.094,-348.147
462892.572,4271384.094,-307.194
462892.572,4271284.094,-262.318
462892.572,4271184.094,-205.589
462892.572,4271084.094,-148.603
462892.572,4267284.094,-138.842
462892.572,4267184.094,-180.853
462892.572,4267084.094,-232.219
462892.572,4266984.094,-286.930
462892.572,4266884.094,-334.880
462892.572,4266784.094,-344.166
462892.572,4266684.094,-366.019
462892.572,4266584.094,-398.738
462892.572,4266484.094,-443.469
462892.572,4266384.094,-489.828
462892.572,4266284.094,-520.086
462892.572,4266184.094,-545.504
462892.572,4266084.094,-572.710
462892.572,4265984.094,-601.577
462892.572,4265884.094,-630.206
462892.572,4265784.094,-659.548
462892.572,4265684.094,-683.280
462892.572,4265584.094,-712.434
462892.572,4265484.094,-740.533
462892.572,4265384.094,-765.937
462892.572,4265284.094,-794.510
462992.572,4272784.094,-771.483
462992.572,4272684.094,-732.890
462992.572,4272584.094,-700.003
462992.572,4272484.094,-675.200
462992.572,4272384.094,-647.267
462992.572,4272284.094,-615.734
462992.572,4272184.094,-584.533
462992.572,4272084.094,-551.220
462992.572,4271984.094,-519.396
462992.572,4271884.094,-487.849
462992.572,4271784.094,-453.234
462992.572,4271684.094,-416.131
462992.572,4271584.094,-381.789
462992.572,4271484.094,-338.080
462992.572,4271384.094,-290.714
462992.572,4271284.094,-231.338
462992.572,4271184.094,-174.084
462992.572,4267284.094,-168.288
462992.572,4267184.094,-216.910
462992.572,4267084.094,-258.031
462992.572,4266984.094,-294.342
462992.572,4266884.094,-295.720
462992.572,4266784.094,-296.759
462992.572,4266684.094,-359.492
462992.572,4266584.094,-408.935
462992.572,4266484.094,-450.251
462992.572,4266384.094,-479.668
462992.572,4266284.094,-509.738
462992.572,4266184.094,-538.152
462992.572,4266084.094,-569.405
462992.572,4265984.094,-600.265
462992.572,4265884.094,-629.015
462992.572,4265784.094,-658.609
462992.572,4265684.094,-680.182
462992.572,4265584.094,-713.416
462992.572,4265484.094,-738.176
462992.572,4265384.094,-767.309
462992.572,4265284.094,-785.105
463092.572,4272784.094,-781.488
463092.572,4272684.094,-747.306
463092.572,4272584.094,-720.100
463092.572,4272484.094,-688.958
463092.572,4272384.094,-659.465
463092.572,4272284.094,-625.356
463092.572,4272184.094,-592.783
463092.572,4272084.094,-560.272
463092.572,4271984.094,-525.602
463092.572,4271884.094,-490.121
463092.572,4271784.094,-452.191
463092.572,4271684.094,-412.205
463092.572,4271584.094,-373.450
463092.572,4271484.094,-325.812
463092.572,4271384.094,-279.581
463092.572,4271284.094,-229.193
463092.572,4271184.094,-171.157
463092.572,4267284.094,-141.912
463092.572,4267184.094,-183.168
463092.572,4267084.094,-223.360
463092.572,4266984.094,-249.282
463092.572,4266884.094,-274.953
463092.572,4266784.094,-321.007
463092.572,4266684.094,-366.495
463092.572,4266584.094,-410.483
463092.572,4266484.094,-440.398
463092.572,4266384.094,-467.566
463092.572,4266284.094,-501.101
463092.572,4266184.094,-533.592
463092.572,4266084.094,-563.950
463092.572,4265984.094,-594.736
463092.572,4265884.094,-623.799
463092.572,4265784.094,-650.278
463092.572,4265684.094,-673.829
463092.572,4265584.094,-700.667
463092.572,4265484.094,-726.640
463092.572,4265384.094,-750.566
463092.572,4265284.094,-775.684
463092.572,4265184.094,-797.396
463192.572,4272784.094,-786.457
463192.572,4272684.094,-755.895
463192.572,4272584.094,-725.317
463192.572,4272484.094,-684.717
463192.572,4272384.094,-637.286
463192.572,4272284.094,-598.742
463192.572,4272184.094,-560.671
463192.572,4272084.094,-535.192
463192.572,4271984.094,-509.531
463192.572,4271884.094,-479.708
463192.572,4271784.094,-444.952
463192.572,4271684.094,-407.593
463192.572,4271584.094,-369.904
463192.572,4271484.094,-319.231
463192.572,4271384.094,-269.068
463192.572,4271284.094,-214.941
463192.572,4271184.094,-160.757
463192.572,4267184.094,-158.730
463192.572,4267084.094,-198.058
463192.572,4266984.094,-241.094
463192.572,4266884.094,-285.384
463192.572,4266784.094,-331.391
463192.572,4266684.094,-370.782
463192.572,4266584.094,-383.100
463192.572,4266484.094,-413.244
463192.572,4266384.094,-449.564
463192.572,4266284.094,-483.013
463192.572,4266184.094,-513.903
463192.572,4266084.094,-547.120
463192.572,4265984.094,-580.226
463192.572,4265884.094,-611.425
463192.572,4265784.094,-638.280
463192.572,4265684.094,-662.079
463192.572,4265584.094,-687.852
463192.572,4265484.094,-715.197
463192.572,4265384.094,-742.628
463192.572,4265284.094,-763.739
463192.572,4265184.094,-787.936
463292.572,4272884.094,-776.744
463292.572,4272784.094,-751.025
463292.572,4272684.094,-718.857
463292.572,4272584.094,-690.878
463292.572,4272484.094,-654.756
463292.572,4272384.094,-606.621
463292.572,4272284.094,-563.784
463292.572,4272184.094,-538.971
463292.572,4272084.094,-515.974
463292.572,4271984.094,-484.865
463292.572,4271884.094,-463.456
463292.572,4271784.094,-435.958
463292.572,4271684.094,-399.584
463292.572,4271584.094,-359.737
463292.572,4271484.094,-303.499
463292.572,4271384.094,-251.360
463292.572,4271284.094,-199.778
463292.572,4271184.094,-152.503
463292.572,4267184.094,-142.666
463292.572,4267084.094,-185.283
463292.572,4266984.094,-231.419
463292.572,4266884.094,-287.619
463292.572,4266784.094,-310.455
463292.572,4266684.094,-325.012
463292.572,4266584.094,-354.353
463292.572,4266484.094,-392.605
463292.572,4266384.094,-428.898
463292.572,4266284.094,-459.969
463292.572,4266184.094,-495.852
463292.572,4266084.094,-531.056
463292.572,4265984.094,-563.576
463292.572,4265884.094,-593.012
463292.572,4265784.094,-621.911
463292.572,4265684.094,-650.253
463292.572,4265584.094,-677.238
463292.572,4265484.094,-703.130
463292.572,4265384.094,-727.732
463292.572,4265284.094,-751.565
463292.572,4265184.094,-778.058
463392.572,4272984.094,-770.590
463392.572,4272884.094,-713.152
463392.572,4272784.094,-695.088
463392.572,4272684.094,-644.719
463392.572,4272584.094,-625.506
463392.572,4272484.094,-603.714
463392.572,4272384.094,-569.264
463392.572,4272284.094,-536.544
463392.572,4272184.094,-526.452
463392.572,4272084.094,-517.412
463392.572,4271984.094,-498.457
463392.572,4271884.094,-475.379
463392.572,4271784.094,-445.599
463392.572,4271684.094,-407.785
463392.572,4271584.094,-364.431
463392.572,4271484.094,-310.206
463392.572,4271384.094,-262.113
463392.572,4271284.094,-217.517
463392.572,4271184.094,-181.308
463392.572,4267084.094,-170.518
463392.572,4266984.094,-220.172
463392.572,4266884.094,-244.654
463392.572,4266784.094,-262.151
463392.572,4266684.094,-292.681
463392.572,4266584.094,-329.755
463392.572,4266484.094,-370.028
463392.572,4266384.094,-404.871
463392.572,4266284.094,-441.479
463392.572,4266184.094,-477.930
463392.572,4266084.094,-509.877
463392.572,4265984.094,-543.398
463392.572,4265884.094,-575.313
463392.572,4265784.094,-607.215
463392.572,4265684.094,-637.200
463392.572,4265584.094,-664.773
463392.572,4265484.094,-690.409
463392.572,4265384.094,-714.895
463392.572,4265284.094,-736.971
463392.572,4265184.094,-759.724
463392.572,4265084.094,-774.576
463492.572,4273084.094,-760.870
463492.572,4272984.094,-691.293
463492.572,4272884.094,-636.510
463492.572,4272784.094,-630.208
463492.572,4272684.094,-590.017
463492.572,4272584.094,-579.406
463492.572,4272484.094,-573.298
463492.572,4272384.094,-553.141
463492.572,4272284.094,-536.927
463492.572,4272184.094,-526.385
463492.572,4272084.094,-517.111
463492.572,4271984.094,-503.692
463492.572,4271884.094,-484.260
463492.572,4271784.094,-457.928
463492.572,4271684.094,-423.875
463492.572,4271584.094,-385.585
463492.572,4271484.094,-335.211
463492.572,4271384.094,-287.041
463492.572,4271284.094,-250.881
463492.572,4271184.094,-209.821
463492.572,4271084.094,-155.529
463492.572,4270984.094,-124.820
463492.572,4267084.094,-142.194
463492.572,4266984.094,-174.593
463492.572,4266884.094,-191.223
463492.572,4266784.094,-223.188
463492.572,4266684.094,-263.085
463492.572,4266584.094,-305.989
463492.572,4266484.094,-346.270
463492.572,4266384.094,-381.449
463492.572,4266284.094,-418.358
463492.572,4266184.094,-457.846
463492.572,4266084.094,-496.617
463492.572,4265984.094,-532.370
463492.572,4265884.094,-566.064
463492.572,4265784.094,-596.000
463492.572,4265684.094,-624.131
463492.572,4265584.094,-650.921
463492.572,4265484.094,-676.445
463492.572,4265384.094,-699.214
463492.572,4265284.094,-719.970
463492.572,4265184.094,-745.343
463492.572,4265084.094,-775.571
463592.572,4273284.094,-790.884
463592.572,4273184.094,-745.869
463592.572,4273084.094,-697.803
463592.572,4272984.094,-625.362
463592.572,4272884.094,-611.264
463592.572,4272784.094,-587.450
463592.572,4272684.094,-569.720
463592.572,4272584.094,-562.377
463592.572,4272484.094,-556.654
463592.572,4272384.094,-550.231
463592.572,4272284.094,-541.506
463592.572,4272184.094,-528.725
463592.572,4272084.094,-518.110
463592.572,4271984.094,-506.094
463592.572,4271884.094,-488.816
463592.572,4271784.094,-464.800
463592.572,4271684.094,-433.553
463592.572,4271584.094,-397.823
463592.572,4271484.094,-350.428
463592.572,4271384.094,-314.562
463592.572,4271284.094,-280.839
463592.572,4271184.094,-243.361
463592.572,4271084.094,-204.231
463592.572,4270984.094,-166.986
463592.572,4270884.094,-142.082
463592.572,4266884.094,-145.640
463592.572,4266784.094,-184.489
463592.572,4266684.094,-234.598
463592.572,4266584.094,-281.251
463592.572,4266484.094,-310.791
463592.572,4266384.094,-341.954
463592.572,4266284.094,-388.974
463592.572,4266184.094,-442.623
463592.572,4266084.094,-486.511
463592.572,4265984.094,-522.077
463592.572,4265884.094,-552.459
463592.572,4265784.094,-579.663
463592.572,4265684.094,-604.465
463592.572,4265584.094,-630.394
463592.572,4265484.094,-658.559
463592.572,4265384.094,-686.877
463592.572,4265284.094,-716.772
463592.572,4265184.094,-748.930
463592.572,4265084.094,-786.770
463692.572,4273384.094,-791.119
463692.572,4273284.094,-738.765
463692.572,4273184.094,-682.453
463692.572,4273084.094,-647.301
463692.572,4272984.094,-622.542
463692.572,4272884.094,-610.399
463692.572,4272784.094,-596.261
463692.572,4272684.094,-574.685
463692.572,4272584.094,-562.063
463692.572,4272484.094,-558.633
463692.572,4272384.094,-553.608
463692.572,4272284.094,-542.928
463692.572,4272184.094,-532.853
463692.572,4272084.094,-523.207
463692.572,4271984.094,-511.155
463692.572,4271884.094,-494.707
463692.572,4271784.094,-470.629
463692.572,4271684.094,-438.592
463692.572,4271584.094,-406.880
463692.572,4271484.094,-369.147
463692.572,4271384.094,-339.374
463692.572,4271284.094,-313.842
463692.572,4271184.094,-282.815
463692.572,4271084.094,-249.194
463692.572,4270984.094,-217.430
463692.572,4270884.094,-197.539
463692.572,4270784.094,-160.490
463692.572,4270684.094,-125.781
463692.572,4269084.094,-125.507
463692.572,4268984.094,-135.240
463692.572,4268884.094,-129.788
463692.572,4268784.094,-129.166
463692.572,4268684.094,-132.076
463692.572,4266784.094,-160.419
463692.572,4266684.094,-210.282
463692.572,4266584.094,-240.974
463692.572,4266484.094,-265.720
463692.572,4266384.094,-315.386
463692.572,4266284.094,-377.359
463692.572,4266184.094,-428.297
463692.572,4266084.094,-471.099
463692.572,4265984.094,-504.516
463692.572,4265884.094,-533.474
463692.572,4265784.094,-561.196
463692.572,4265684.094,-589.604
463692.572,4265584.094,-617.732
463692.572,4265484.094,-645.963
463692.572,4265384.094,-677.588
463692.572,4265284.094,-713.300
463692.572,4265184.094,-745.622
463692.572,4265084.094,-777.053
463792.572,4273384.094,-784.284
463792.572,4273284.094,-734.030
463792.572,4273184.094,-682.592
463792.572,4273084.094,-645.590
463792.572,4272984.094,-630.149
463792.572,4272884.094,-610.519
463792.572,4272784.094,-589.358
463792.572,4272684.094,-552.504
463792.572,4272584.094,-551.125
463792.572,4272484.094,-567.901
463792.572,4272384.094,-564.282
463792.572,4272284.094,-548.325
463792.572,4272184.094,-539.473
463792.572,4272084.094,-529.294
463792.572,4271984.094,-515.937
463792.572,4271884.094,-499.849
463792.572,4271784.094,-477.553
463792.572,4271684.094,-452.419
463792.572,4271584.094,-420.214
463792.572,4271484.094,-389.314
463792.572,4271384.094,-371.207
463792.572,4271284.094,-348.393
463792.572,4271184.094,-320.261
463792.572,4271084.094,-289.041
463792.572,4270984.094,-267.312
463792.572,4270884.094,-241.160
463792.572,4270784.094,-196.671
463792.572,4270684.094,-173.302
463792.572,4270584.094,-134.518
463792.572,4270284.094,-125.526
463792.572,4269484.094,-132.353
463792.572,4269384.094,-128.527
463792.572,4269084.094,-175.542
463792.572,4268984.094,-186.608
463792.572,4268884.094,-165.867
463792.572,4268784.094,-165.474
463792.572,4268684.094,-159.828
463792.572,4268584.094,-141.384
463792.572,4266784.094,-132.875
463792.572,4266684.094,-175.557
463792.572,4266584.094,-221.600
463792.572,4266484.094,-268.367
463792.572,4266384.094,-320.744
463792.572,4266284.094,-371.950
463792.572,4266184.094,-417.080
463792.572,4266084.094,-455.328
463792.572,4265984.094,-489.719
463792.572,4265884.094,-521.407
463792.572,4265784.094,-550.933
463792.572,4265684.094,-578.045
463792.572,4265584.094,-603.702
463792.572,4265484.094,-632.517
463792.572,4265384.094,-666.502
463792.572,4265284.094,-702.020
463792.572,4265184.094,-735.758
463792.572,4265084.094,-749.944
463792.572,4264984.094,-766.481
463892.572,4273484.094,-795.500
463892.572,4273384.094,-754.862
463892.572,4273284.094,-709.368
463892.572,4273184.094,-676.277
463892.572,4273084.094,-650.396
463892.572,4272984.094,-635.088
463892.572,4272884.094,-623.774
463892.572,4272784.094,-606.824
463892.572,4272684.094,-585.649
463892.572,4272584.094,-578.151
463892.572,4272484.094,-583.677
463892.572,4272384.094,-574.867
463892.572,4272284.094,-557.751
463892.572,4272184.094,-546.411
463892.572,4272084.094,-536.359
463892.572,4271984.094,-523.924
463892.572,4271884.094,-508.494
463892.572,4271784.094,-490.310
463892.572,4271684.094,-458.939
463892.572,4271584.094,-426.109
463892.572,4271484.094,-416.327
463892.572,4271384.094,-399.937
463892.572,4271284.094,-376.893
463892.572,4271184.094,-350.983
463892.572,4271084.094,-326.900
463892.572,4270984.094,-297.821
463892.572,4270884.094,-263.510
463892.572,4270784.094,-238.789
463892.572,4270684.094,-211.616
463892.572,4270584.094,-180.880
463892.572,4270484.094,-151.236
463892.572,4270384.094,-161.843
463892.572,4270284.094,-182.631
463892.572,4270184.094,-167.322
463892.572,4270084.094,-162.874
463892.572,4269984.094,-146.272
463892.572,4269884.094,-161.300
463892.572,4269784.094,-131.477
463892.572,4269484.094,-162.516
463892.572,4269384.094,-162.459
463892.572,4269284.094,-137.019
463892.572,4269184.094,-167.655
463892.572,4269084.094,-208.386
463892.572,4268984.094,-235.071
463892.572,4268884.094,-212.983
463892.572,4268784.094,-206.671
463892.572,4268684.094,-187.775
463892.572,4268584.094,-158.276
463892.572,4268484.094,-131.890
463892.572,4266784.094,-127.920
463892.572,4266684.094,-165.296
463892.572,4266584.094,-218.509
463892.572,4266484.094,-277.112
463892.572,4266384.094,-326.658
463892.572,4266284.094,-370.455
463892.572,4266184.094,-409.105
463892.572,4266084.094,-446.431
463892.572,4265984.094,-480.430
463892.572,4265884.094,-512.168
463892.572,4265784.094,-541.460
463892.572,4265684.094,-567.859
463892.572,4265584.094,-593.475
463892.572,4265484.094,-624.255
463892.572,4265384.094,-656.007
463892.572,4265284.094,-686.757
463892.572,4265184.094,-717.572
463892.572,4265084.094,-728.633
463892.572,4264984.094,-753.222
463892.572,4264884.094,-784.837
463892.572,4264784.094,-791.950
463992.572,4273684.094,-794.959
463992.572,4273584.094,-775.647
463992.572,4273484.094,-750.160
463992.572,4273384.094,-722.465
463992.572,4273284.094,-697.967
463992.572,4273184.094,-675.205
463992.572,4273084.094,-646.131
463992.572,4272984.094,-638.385
463992.572,4272884.094,-634.099
463992.572,4272784.094,-632.546
463992.572,4272684.094,-621.255
463992.572,4272584.094,-613.464
463992.572,4272484.094,-599.860
463992.572,4272384.094,-581.067
463992.572,4272284.094,-567.696
463992.572,4272184.094,-557.810
463992.572,4272084.094,-543.929
463992.572,4271984.094,-529.946
463992.572,4271884.094,-513.956
463992.572,4271784.094,-489.423
463992.572,4271684.094,-459.263
463992.572,4271584.094,-441.269
463992.572,4271484.094,-442.165
463992.572,4271384.094,-425.068
463992.572,4271284.094,-400.944
463992.572,4271184.094,-377.425
463992.572,4271084.094,-357.180
463992.572,4270984.094,-326.658
463992.572,4270884.094,-299.853
463992.572,4270784.094,-282.150
463992.572,4270684.094,-254.543
463992.572,4270584.094,-231.907
463992.572,4270484.094,-209.243
463992.572,4270384.094,-212.330
463992.572,4270284.094,-230.250
463992.572,4270184.094,-215.640
463992.572,4270084.094,-204.771
463992.572,4269984.094,-193.682
463992.572,4269884.094,-214.277
463992.572,4269784.094,-163.445
463992.572,4269584.094,-147.239
463992.572,4269484.094,-195.734
463992.572,4269384.094,-211.181
463992.572,4269284.094,-183.799
463992.572,4269184.094,-223.104
463992.572,4269084.094,-247.497
463992.572,4268984.094,-270.598
463992.572,4268884.094,-256.135
463992.572,4268784.094,-234.200
463992.572,4268684.094,-209.366
463992.572,4268584.094,-187.244
463992.572,4268484.094,-180.214
463992.572,4268384.094,-146.125
463992.572,4266784.094,-134.207
463992.572,4266684.094,-173.346
463992.572,4266584.094,-214.279
463992.572,4266484.094,-264.953
463992.572,4266384.094,-311.319
463992.572,4266284.094,-357.496
463992.572,4266184.094,-398.098
463992.572,4266084.094,-433.091
463992.572,4265984.094,-467.405
463992.572,4265884.094,-500.185
463992.572,4265784.094,-530.012
463992.572,4265684.094,-556.622
463992.572,4265584.094,-588.158
463992.572,4265484.094,-620.442
463992.572,4265384.094,-647.477
463992.572,4265284.094,-673.133
463992.572,4265184.094,-693.278
463992.572,4265084.094,-709.465
463992.572,4264984.094,-713.647
463992.572,4264884.094,-748.251
463992.572,4264784.094,-777.294
464092.572,4273584.094,-786.723
464092.572,4273484.094,-746.604
464092.572,4273384.094,-729.800
464092.572,4273284.094,-702.066
464092.572,4273184.094,-687.989
464092.572,4273084.094,-660.648
464092.572,4272984.094,-656.306
464092.572,4272884.094,-657.762
464092.572,4272784.094,-653.770
464092.572,4272684.094,-639.913
464092.572,4272584.094,-629.894
464092.572,4272484.094,-614.067
464092.572,4272384.094,-596.153
464092.572,4272284.094,-585.640
464092.572,4272184.094,-570.162
464092.572,4272084.094,-549.473
464092.572,4271984.094,-529.664
464092.572,4271884.094,-508.879
464092.572,4271784.094,-483.586
464092.572,4271684.094,-459.321
464092.572,4271584.094,-459.169
464092.572,4271484.094,-464.799
464092.572,4271384.094,-445.741
464092.572,4271284.094,-423.387
464092.572,4271184.094,-407.071
464092.572,4271084.094,-384.493
464092.572,4270984.094,-360.871
464092.572,4270884.094,-336.343
464092.572,4270784.094,-324.009
464092.572,4270684.094,-300.516
464092.572,4270584.094,-280.649
464092.572,4270484.094,-268.334
464092.572,4270384.094,-272.177
464092.572,4270284.094,-277.549
464092.572,4270184.094,-261.726
464092.572,4270084.094,-242.518
464092.572,4269984.094,-250.617
464092.572,4269884.094,-252.411
464092.572,4269784.094,-187.626
464092.572,4269684.094,-161.575
464092.572,4269584.094,-191.605
464092.572,4269484.094,-244.804
464092.572,4269384.094,-262.491
464092.572,4269284.094,-237.427
464092.572,4269184.094,-269.821
464092.572,4269084.094,-288.432
464092.572,4268984.094,-302.434
464092.572,4268884.094,-279.608
464092.572,4268784.094,-263.111
464092.572,4268684.094,-255.555
464092.572,4268584.094,-227.899
464092.572,4268484.094,-190.311
464092.572,4268384.094,-147.726
464092.572,4266784.094,-150.213
464092.572,4266684.094,-195.452
464092.572,4266584.094,-220.066
464092.572,4266484.094,-254.609
464092.572,4266384.094,-298.512
464092.572,4266284.094,-341.287
464092.572,4266184.094,-381.804
464092.572,4266084.094,-421.325
464092.572,4265984.094,-458.847
464092.572,4265884.094,-492.575
464092.572,4265784.094,-523.522
464092.572,4265684.094,-553.098
464092.572,4265584.094,-584.437
464092.572,4265484.094,-617.165
464092.572,4265384.094,-640.721
464092.572,4265284.094,-662.422
464092.572,4265184.094,-678.399
464092.572,4265084.094,-695.423
464092.572,4264984.094,-742.725
464092.572,4264884.094,-791.524
464192.572,4273484.094,-772.138
464192.572,4273384.094,-749.487
464192.572,4273284.094,-735.786
464192.572,4273184.094,-725.403
464192.572,4273084.094,-703.956
464192.572,4272984.094,-694.259
464192.572,4272884.094,-695.908
464192.572,4272784.094,-675.409
464192.572,4272684.094,-656.207
464192.572,4272584.094,-648.122
464192.572,4272484.094,-635.129
464192.572,4272384.094,-617.267
464192.572,4272284.094,-603.714
464192.572,4272184.094,-585.975
464192.572,4272084.094,-565.236
464192.572,4271984.094,-544.228
464192.572,4271884.094,-524.382
464192.572,4271784.094,-498.209
464192.572,4271684.094,-488.472
464192.572,4271584.094,-490.680
464192.572,4271484.094,-487.107
464192.572,4271384.094,-467.070
464192.572,4271284.094,-453.571
464192.572,4271184.094,-438.535
464192.572,4271084.094,-420.243
464192.572,4270984.094,-395.714
464192.572,4270884.094,-377.492
464192.572,4270784.094,-364.606
464192.572,4270684.094,-345.640
464192.572,4270584.094,-329.955
464192.572,4270484.094,-323.527
464192.572,4270384.094,-333.505
464192.572,4270284.094,-326.727
464192.572,4270184.094,-295.298
464192.572,4270084.094,-291.213
464192.572,4269984.094,-307.722
464192.572,4269884.094,-278.752
464192.572,4269784.094,-231.558
464192.572,4269684.094,-219.654
464192.572,4269584.094,-251.080
464192.572,4269484.094,-291.590
464192.572,4269384.094,-310.803
464192.572,4269284.094,-304.749
464192.572,4269184.094,-313.310
464192.572,4269084.094,-334.363
464192.572,4268984.094,-324.995
464192.572,4268884.094,-311.452
464192.572,4268784.094,-301.721
464192.572,4268684.094,-264.422
464192.572,4268584.094,-212.929
464192.572,4268484.094,-164.997
464192.572,4266884.094,-149.879
464192.572,4266784.094,-193.470
464192.572,4266684.094,-231.804
464192.572,4266584.094,-248.826
464192.572,4266484.094,-258.073
464192.572,4266384.094,-280.147
464192.572,4266284.094,-320.645
464192.572,4266184.094,-363.521
464192.572,4266084.094,-410.329
464192.572,4265984.094,-451.862
464192.572,4265884.094,-486.501
464192.572,4265784.094,-519.586
464192.572,4265684.094,-550.979
464192.572,4265584.094,-582.092
464192.572,4265484.094,-609.823
464192.572,4265384.094,-634.164
464192.572,4265284.094,-654.135
464192.572,4265184.094,-671.386
464192.572,4265084.094,-709.492
464192.572,4264984.094,-770.221
464292.572,4273384.094,-791.071
464292.572,4273284.094,-784.273
464292.572,4273184.094,-768.686
464292.572,4273084.094,-756.621
464292.572,4272984.094,-740.500
464292.572,4272884.094,-720.283
464292.572,4272784.094,-696.646
464292.572,4272684.094,-681.956
464292.572,4272584.094,-662.666
464292.572,4272484.094,-650.174
464292.572,4272384.094,-636.547
464292.572,4272284.094,-619.669
464292.572,4272184.094,-603.257
464292.572,4272084.094,-585.352
464292.572,4271984.094,-569.777
464292.572,4271884.094,-553.546
464292.572,4271784.094,-537.259
464292.572,4271684.094,-518.651
464292.572,4271584.094,-516.716
464292.572,4271484.094,-510.701
464292.572,4271384.094,-496.463
464292.572,4271284.094,-484.460
464292.572,4271184.094,-473.632
464292.572,4271084.094,-448.423
464292.572,4270984.094,-434.533
464292.572,4270884.094,-425.611
464292.572,4270784.094,-407.645
464292.572,4270684.094,-386.221
464292.572,4270584.094,-375.254
464292.572,4270484.094,-375.173
464292.572,4270384.094,-397.293
464292.572,4270284.094,-361.743
464292.572,4270184.094,-345.993
464292.572,4270084.094,-339.758
464292.572,4269984.094,-344.928
464292.572,4269884.094,-305.957
464292.572,4269784.094,-262.623
464292.572,4269684.094,-278.228
464292.572,4269584.094,-308.703
464292.572,4269484.094,-338.796
464292.572,4269384.094,-349.291
464292.572,4269284.094,-351.855
464292.572,4269184.094,-362.563
464292.572,4269084.094,-366.472
464292.572,4268984.094,-351.991
464292.572,4268884.094,-338.915
464292.572,4268784.094,-295.038
464292.572,4268684.094,-249.402
464292.572,4268584.094,-212.314
464292.572,4268484.094,-171.276
464292.572,4268384.094,-123.752
464292.572,4266984.094,-158.772
464292.572,4266884.094,-202.323
464292.572,4266784.094,-230.201
464292.572,4266684.094,-262.598
464292.572,4266584.094,-282.395
464292.572,4266484.094,-291.151
464292.572,4266384.094,-282.547
464292.572,4266284.094,-307.960
464292.572,4266184.094,-357.945
464292.572,4266084.094,-405.174
464292.572,4265984.094,-445.809
464292.572,4265884.094,-482.803
464292.572,4265784.094,-517.004
464292.572,4265684.094,-548.492
464292.572,4265584.094,-575.947
464292.572,4265484.094,-604.016
464292.572,4265384.094,-630.899
464292.572,4265284.094,-659.982
464292.572,4265184.094,-689.401
464292.572,4265084.094,-734.030
464292.572,4264984.094,-780.762
464392.572,4273084.094,-783.893
464392.572,4272984.094,-759.867
464392.572,4272884.094,-743.638
464392.572,4272784.094,-725.207
464392.572,4272684.094,-697.112
464392.572,4272584.094,-676.323
464392.572,4272484.094,-661.586
464392.572,4272384.094,-647.052
464392.572,4272284.094,-630.893
464392.572,4272184.094,-618.442
464392.572,4272084.094,-607.582
464392.572,4271984.094,-597.389
464392.572,4271884.094,-578.440
464392.572,4271784.094,-565.079
464392.572,4271684.094,-542.250
464392.572,4271584.094,-543.813
464392.572,4271484.094,-538.254
464392.572,4271384.094,-529.285
464392.572,4271284.094,-519.051
464392.572,4271184.094,-502.160
464392.572,4271084.094,-479.680
464392.572,4270984.094,-475.755
464392.572,4270884.094,-468.188
464392.572,4270784.094,-439.914
464392.572,4270684.094,-427.797
464392.572,4270584.094,-419.610
464392.572,4270484.094,-427.086
464392.572,4270384.094,-436.491
464392.572,4270284.094,-401.483
464392.572,4270184.094,-393.689
464392.572,4270084.094,-391.961
464392.572,4269984.094,-382.591
464392.572,4269884.094,-328.045
464392.572,4269784.094,-292.738
464392.572,4269684.094,-327.580
464392.572,4269584.094,-378.809
464392.572,4269484.094,-390.288
464392.572,4269384.094,-389.917
464392.572,4269284.094,-394.157
464392.572,4269184.094,-400.517
464392.572,4269084.094,-396.038
464392.572,4268984.094,-381.906
464392.572,4268884.094,-337.761
464392.572,4268784.094,-298.933
464392.572,4268684.094,-263.977
464392.572,4268584.094,-223.649
464392.572,4268484.094,-179.853
464392.572,4268384.094,-127.992
464392.572,4266984.094,-165.740
464392.572,4266884.094,-224.426
464392.572,4266784.094,-272.054
464392.572,4266684.094,-303.092
464392.572,4266584.094,-316.193
464392.572,4266484.094,-329.701
464392.572,4266384.094,-320.335
464392.572,4266284.094,-315.289
464392.572,4266184.094,-355.799
464392.572,4266084.094,-402.749
464392.572,4265984.094,-442.885
464392.572,4265884.094,-480.665
464392.572,4265784.094,-515.570
464392.572,4265684.094,-543.712
464392.572,4265584.094,-567.694
464392.572,4265484.094,-596.607
464392.572,4265384.094,-630.355
464392.572,4265284.094,-676.454
464392.572,4265184.094,-720.882
464392.572,4265084.094,-757.353
464392.572,4264984.094,-797.710
464492.572,4272984.094,-775.188
464492.572,4272884.094,-761.481
464492.572,4272784.094,-741.158
464492.572,4272684.094,-706.906
464492.572,4272584.094,-694.339
464492.572,4272484.094,-677.015
464492.572,4272384.094,-659.197
464492.572,4272284.094,-640.318
464492.572,4272184.094,-638.352
464492.572,4272084.094,-635.128
464492.572,4271984.094,-625.592
464492.572,4271884.094,-608.161
464492.572,4271784.094,-582.240
464492.572,4271684.094,-568.827
464492.572,4271584.094,-575.274
464492.572,4271484.094,-569.709
464492.572,4271384.094,-561.982
464492.572,4271284.094,-549.278
464492.572,4271184.094,-528.980
464492.572,4271084.094,-517.431
464492.572,4270984.094,-519.739
464492.572,4270884.094,-506.423
464492.572,4270784.094,-476.919
464492.572,4270684.094,-471.245
464492.572,4270584.094,-455.628
464492.572,4270484.094,-475.585
464492.572,4270384.094,-470.189
464492.572,4270284.094,-449.527
464492.572,4270184.094,-436.547
464492.572,4270084.094,-435.273
464492.572,4269984.094,-410.212
464492.572,4269884.094,-365.319
464492.572,4269784.094,-350.315
464492.572,4269684.094,-383.680
464492.572,4269584.094,-428.404
464492.572,4269484.094,-430.548
464492.572,4269384.094,-429.217
464492.572,4269284.094,-430.177
464492.572,4269184.094,-428.713
464492.572,4269084.094,-421.350
464492.572,4268984.094,-384.190
464492.572,4268884.094,-341.563
464492.572,4268784.094,-303.134
464492.572,4268684.094,-271.731
464492.572,4268584.094,-235.735
464492.572,4268484.094,-173.466
464492.572,4266984.094,-144.957
464492.572,4266884.094,-215.299
464492.572,4266784.094,-276.963
464492.572,4266684.094,-328.627
464492.572,4266584.094,-355.313
464492.572,4266484.094,-366.125
464492.572,4266384.094,-363.232
464492.572,4266284.094,-348.504
464492.572,4266184.094,-374.202
464492.572,4266084.094,-412.700
464492.572,4265984.094,-450.890
464492.572,4265884.094,-487.399
464492.572,4265784.094,-520.915
464492.572,4265684.094,-550.356
464492.572,4265584.094,-575.669
464492.572,4265484.094,-604.566
464492.572,4265384.094,-637.144
464492.572,4265284.094,-685.506
464492.572,4265184.094,-737.517
464492.572,4265084.094,-779.635
464592.572,4273084.094,-795.930
464592.572,4272984.094,-784.667
464592.572,4272884.094,-770.814
464592.572,4272784.094,-742.153
464592.572,4272684.094,-723.421
464592.572,4272584.094,-712.875
464592.572,4272484.094,-706.994
464592.572,4272384.094,-680.374
464592.572,4272284.094,-663.629
464592.572,4272184.094,-668.172
464592.572,4272084.094,-660.719
464592.572,4271984.094,-648.962
464592.572,4271884.094,-627.622
464592.572,4271784.094,-601.531
464592.572,4271684.094,-593.071
464592.572,4271584.094,-603.332
464592.572,4271484.094,-601.257
464592.572,4271384.094,-593.175
464592.572,4271284.094,-573.769
464592.572,4271184.094,-562.146
464592.572,4271084.094,-556.047
464592.572,4270984.094,-562.850
464592.572,4270884.094,-538.537
464592.572,4270784.094,-523.784
464592.572,4270684.094,-505.815
464592.572,4270584.094,-499.000
464592.572,4270484.094,-518.702
464592.572,4270384.094,-507.114
464592.572,4270284.094,-487.706
464592.572,4270184.094,-477.853
464592.572,4270084.094,-471.085
464592.572,4269984.094,-435.192
464592.572,4269884.094,-414.801
464592.572,4269784.094,-404.980
464592.572,4269684.094,-441.388
464592.572,4269584.094,-474.811
464592.572,4269484.094,-468.293
464592.572,4269384.094,-466.560
464592.572,4269284.094,-461.489
464592.572,4269184.094,-454.697
464592.572,4269084.094,-425.632
464592.572,4268984.094,-373.462
464592.572,4268884.094,-339.580
464592.572,4268784.094,-321.918
464592.572,4268684.094,-291.390
464592.572,4268584.094,-233.425
464592.572,4268484.094,-159.396
464592.572,4266984.094,-128.567
464592.572,4266884.094,-195.811
464592.572,4266784.094,-260.880
464592.572,4266684.094,-322.169
464592.572,4266584.094,-379.978
464592.572,4266484.094,-404.364
464592.572,4266384.094,-410.488
464592.572,4266284.094,-402.644
464592.572,4266184.094,-421.962
464592.572,4266084.094,-442.420
464592.572,4265984.094,-476.344
464592.572,4265884.094,-513.822
464592.572,4265784.094,-550.591
464592.572,4265684.094,-582.887
464592.572,4265584.094,-609.891
464592.572,4265484.094,-632.349
464592.572,4265384.094,-666.297
464592.572,4265284.094,-706.680
464592.572,4265184.094,-760.047
464692.572,4272984.094,-789.692
464692.572,4272884.094,-768.736
464692.572,4272784.094,-747.889
464692.572,4272684.094,-739.324
464692.572,4272584.094,-737.615
464692.572,4272484.094,-731.969
464692.572,4272384.094,-704.377
464692.572,4272284.094,-686.223
464692.572,4272184.094,-697.263
464692.572,4272084.094,-687.726
464692.572,4271984.094,-669.991
464692.572,4271884.094,-648.951
464692.572,4271784.094,-627.209
464692.572,4271684.094,-616.905
464692.572,4271584.094,-633.053
464692.572,4271484.094,-634.104
464692.572,4271384.094,-622.089
464692.572,4271284.094,-600.973
464692.572,4271184.094,-593.765
464692.572,4271084.094,-590.949
464692.572,4270984.094,-598.269
464692.572,4270884.094,-575.753
464692.572,4270784.094,-554.713
464692.572,4270684.094,-536.515
464692.572,4270584.094,-539.995
464692.572,4270484.094,-553.298
464692.572,4270384.094,-541.281
464692.572,4270284.094,-526.983
464692.572,4270184.094,-512.026
464692.572,4270084.094,-504.476
464692.572,4269984.094,-478.396
464692.572,4269884.094,-465.868
464692.572,4269784.094,-460.815
464692.572,4269684.094,-478.142
464692.572,4269584.094,-510.951
464692.572,4269484.094,-502.133
464692.572,4269384.094,-501.309
464692.572,4269284.094,-491.388
464692.572,4269184.094,-470.311
464692.572,4269084.094,-409.072
464692.572,4268984.094,-386.134
464692.572,4268884.094,-368.813
464692.572,4268784.094,-344.577
464692.572,4268684.094,-302.486
464692.572,4268584.094,-240.667
464692.572,4268484.094,-171.753
464692.572,4266884.094,-184.125
464692.572,4266784.094,-253.227
464692.572,4266684.094,-318.215
464692.572,4266584.094,-369.370
464692.572,4266484.094,-412.557
464692.572,4266384.094,-445.497
464692.572,4266284.094,-451.524
464692.572,4266184.094,-464.050
464692.572,4266084.094,-487.431
464692.572,4265984.094,-511.267
464692.572,4265884.094,-548.265
464692.572,4265784.094,-584.283
464692.572,4265684.094,-618.209
464692.572,4265584.094,-646.130
464692.572,4265484.094,-659.357
464692.572,4265384.094,-672.856
464692.572,4265284.094,-726.672
464692.572,4265184.094,-777.029
464792.572,4272984.094,-785.563
464792.572,4272884.094,-768.383
464792.572,4272784.094,-763.323
464792.572,4272684.094,-759.153
464792.572,4272584.094,-763.809
464792.572,4272484.094,-755.760
464792.572,4272384.094,-726.358
464792.572,4272284.094,-718.284
464792.572,4272184.094,-722.136
464792.572,4272084.094,-706.854
464792.572,4271984.094,-684.511
464792.572,4271884.094,-674.619
464792.572,4271784.094,-656.047
464792.572,4271684.094,-648.972
464792.572,4271584.094,-660.759
464792.572,4271484.094,-665.051
464792.572,4271384.094,-646.887
464792.572,4271284.094,-634.781
464792.572,4271184.094,-629.790
464792.572,4271084.094,-627.315
464792.572,4270984.094,-628.581
464792.572,4270884.094,-606.730
464792.572,4270784.094,-581.285
464792.572,4270684.094,-564.545
464792.572,4270584.094,-574.958
464792.572,4270484.094,-584.897
464792.572,4270384.094,-573.303
464792.572,4270284.094,-556.853
464792.572,4270184.094,-541.393
464792.572,4270084.094,-535.626
464792.572,4269984.094,-518.596
464792.572,4269884.094,-516.379
464792.572,4269784.094,-517.213
464792.572,4269684.094,-533.115
464792.572,4269584.094,-543.211
464792.572,4269484.094,-534.193
464792.572,4269384.094,-528.509
464792.572,4269284.094,-515.305
464792.572,4269184.094,-469.214
464792.572,4269084.094,-434.277
464792.572,4268984.094,-415.176
464792.572,4268884.094,-392.035
464792.572,4268784.094,-362.043
464792.572,4268684.094,-316.628
464792.572,4268584.094,-257.577
464792.572,4268484.094,-196.135
464792.572,4268384.094,-129.686
464792.572,4267284.094,-122.808
464792.572,4266884.094,-191.717
464792.572,4266784.094,-257.214
464792.572,4266684.094,-321.387
464792.572,4266584.094,-372.914
464792.572,4266484.094,-412.632
464792.572,4266384.094,-450.087
464792.572,4266284.094,-485.886
464792.572,4266184.094,-502.120
464792.572,4266084.094,-522.666
464792.572,4265984.094,-540.946
464792.572,4265884.094,-569.597
464792.572,4265784.094,-607.551
464792.572,4265684.094,-644.486
464792.572,4265584.094,-677.399
464792.572,4265484.094,-686.153
464792.572,4265384.094,-690.014
464792.572,4265284.094,-737.276
464792.572,4265184.094,-787.989
464892.572,4272984.094,-785.945
464892.572,4272884.094,-783.258
464892.572,4272784.094,-784.384
464892.572,4272684.094,-784.084
464892.572,4272584.094,-790.091
464892.572,4272484.094,-785.474
464892.572,4272384.094,-772.009
464892.572,4272284.094,-752.897
464892.572,4272184.094,-741.795
464892.572,4272084.094,-719.405
464892.572,4271984.094,-701.130
464892.572,4271884.094,-696.119
464892.572,4271784.094,-678.954
464892.572,4271684.094,-675.840
464892.572,4271584.094,-683.468
464892.572,4271484.094,-688.934
464892.572,4271384.094,-672.798
464892.572,4271284.094,-667.403
464892.572,4271184.094,-665.531
464892.572,4271084.094,-663.613
464892.572,4270984.094,-657.416
464892.572,4270884.094,-631.033
464892.572,4270784.094,-613.375
464892.572,4270684.094,-592.622
464892.572,4270584.094,-598.243
464892.572,4270484.094,-613.657
464892.572,4270384.094,-601.499
464892.572,4270284.094,-582.542
464892.572,4270184.094,-576.865
464892.572,4270084.094,-570.739
464892.572,4269984.094,-560.498
464892.572,4269884.094,-556.438
464892.572,4269784.094,-566.217
464892.572,4269684.094,-579.829
464892.572,4269584.094,-571.776
464892.572,4269484.094,-561.617
464892.572,4269384.094,-551.832
464892.572,4269284.094,-526.658
464892.572,4269184.094,-475.660
464892.572,4269084.094,-458.249
464892.572,4268984.094,-435.357
464892.572,4268884.094,-414.199
464892.572,4268784.094,-381.187
464892.572,4268684.094,-336.441
464892.572,4268584.094,-283.120
464892.572,4268484.094,-225.036
464892.572,4268384.094,-161.717
464892.572,4268284.094,-129.869
464892.572,4268184.094,-128.621
464892.572,4268084.094,-135.709
464892.572,4267484.094,-137.385
464892.572,4267384.094,-153.934
464892.572,4267284.094,-169.916
464892.572,4267184.094,-172.804
464892.572,4267084.094,-163.994
464892.572,4266984.094,-169.668
464892.572,4266884.094,-213.596
464892.572,4266784.094,-275.283
464892.572,4266684.094,-339.267
464892.572,4266584.094,-390.744
464892.572,4266484.094,-428.070
464892.572,4266384.094,-454.853
464892.572,4266284.094,-486.565
464892.572,4266184.094,-520.208
464892.572,4266084.094,-545.357
464892.572,4265984.094,-569.774
464892.572,4265884.094,-601.195
464892.572,4265784.094,-634.670
464892.572,4265684.094,-668.104
464892.572,4265584.094,-696.949
464892.572,4265484.094,-720.855
464892.572,4265384.094,-739.606
464892.572,4265284.094,-767.459
464992.572,4272384.094,-792.976
464992.572,4272284.094,-771.355
464992.572,4272184.094,-759.208
464992.572,4272084.094,-743.667
464992.572,4271984.094,-731.553
464992.572,4271884.094,-711.424
464992.572,4271784.094,-710.147
464992.572,4271684.094,-702.482
464992.572,4271584.094,-712.446
464992.572,4271484.094,-714.430
464992.572,4271384.094,-700.111
464992.572,4271284.094,-697.898
464992.572,4271184.094,-697.801
464992.572,4271084.094,-697.116
464992.572,4270984.094,-681.323
464992.572,4270884.094,-661.724
464992.572,4270784.094,-646.387
464992.572,4270684.094,-621.497
464992.572,4270584.094,-627.164
464992.572,4270484.094,-642.358
464992.572,4270384.094,-629.066
464992.572,4270284.094,-616.292
464992.572,4270184.094,-608.040
464992.572,4270084.094,-607.098
464992.572,4269984.094,-599.125
464992.572,4269884.094,-602.352
464992.572,4269784.094,-619.697
464992.572,4269684.094,-611.201
464992.572,4269584.094,-596.931
464992.572,4269484.094,-583.270
464992.572,4269384.094,-567.496
464992.572,4269284.094,-524.110
464992.572,4269184.094,-502.143
464992.572,4269084.094,-479.347
464992.572,4268984.094,-455.225
464992.572,4268884.094,-434.767
464992.572,4268784.094,-403.891
464992.572,4268684.094,-362.044
464992.572,4268584.094,-312.356
464992.572,4268484.094,-255.131
464992.572,4268384.094,-211.437
464992.572,4268284.094,-182.017
464992.572,4268184.094,-180.691
464992.572,4268084.094,-159.236
464992.572,4267984.094,-123.209
464992.572,4267584.094,-139.471
464992.572,4267484.094,-174.414
464992.572,4267384.094,-196.259
464992.572,4267284.094,-212.019
464992.572,4267184.094,-227.609
464992.572,4267084.094,-226.910
464992.572,4266984.094,-237.619
464992.572,4266884.094,-256.565
464992.572,4266784.094,-300.434
464992.572,4266684.094,-359.285
464992.572,4266584.094,-411.594
464992.572,4266484.094,-443.053
464992.572,4266384.094,-463.020
464992.572,4266284.094,-488.652
464992.572,4266184.094,-524.209
464992.572,4266084.094,-561.081
464992.572,4265984.094,-593.797
464992.572,4265884.094,-620.905
464992.572,4265784.094,-648.863
464992.572,4265684.094,-681.912
464992.572,4265584.094,-712.974
464992.572,4265484.094,-743.640
464992.572,4265384.094,-771.191
465092.572,4272284.094,-791.240
465092.572,4272184.094,-777.596
465092.572,4272084.094,-762.106
465092.572,4271984.094,-744.269
465092.572,4271884.094,-724.604
465092.572,4271784.094,-741.099
465092.572,4271684.094,-735.779
465092.572,4271584.094,-745.869
465092.572,4271484.094,-738.377
465092.572,4271384.094,-727.277
465092.572,4271284.094,-726.904
465092.572,4271184.094,-724.474
465092.572,4271084.094,-726.297
465092.572,4270984.094,-708.882
465092.572,4270884.094,-696.727
465092.572,4270784.094,-674.615
465092.572,4270684.094,-648.422
465092.572,4270584.094,-664.096
465092.572,4270484.094,-669.563
465092.572,4270384.094,-657.165
465092.572,4270284.094,-648.701
465092.572,4270184.094,-640.332
465092.572,4270084.094,-641.427
465092.572,4269984.094,-639.060
465092.572,4269884.094,-652.645
465092.572,4269784.094,-649.769
465092.572,4269684.094,-632.902
465092.572,4269584.094,-616.629
465092.572,4269484.094,-603.180
465092.572,4269384.094,-568.388
465092.572,4269284.094,-543.997
465092.572,4269184.094,-523.030
465092.572,4269084.094,-495.061
465092.572,4268984.094,-479.823
465092.572,4268884.094,-456.631
465092.572,4268784.094,-427.985
465092.572,4268684.094,-394.034
465092.572,4268584.094,-349.561
465092.572,4268484.094,-305.026
465092.572,4268384.094,-275.420
465092.572,4268284.094,-248.681
465092.572,4268184.094,-242.001
465092.572,4268084.094,-217.459
465092.572,4267984.094,-191.232
465092.572,4267884.094,-155.069
465092.572,4267784.094,-140.434
465092.572,4267684.094,-152.121
465092.572,4267584.094,-186.380
