461404.814,4261618.255,-1447.844
461404.814,4261418.255,-1463.740
461404.814,4261218.255,-1475.676
461404.814,4261018.255,-1490.110
461404.814,4260818.255,-1501.144
461404.814,4260618.255,-1519.551
461404.814,4260418.255,-1526.630
461404.814,4260218.255,-1526.699
461404.814,4260018.255,-1531.932
461404.814,4259818.255,-1530.218
461404.814,4259618.255,-1531.618
461404.814,4259418.255,-1532.881
461404.814,4259218.255,-1532.853
461404.814,4259018.255,-1532.506
461404.814,4258818.255,-1530.293
461404.814,4258618.255,-1529.035
461404.814,4258418.255,-1529.987
461404.814,4258218.255,-1530.955
461404.814,4258018.255,-1531.230
461404.814,4257818.255,-1534.091
461404.814,4257618.255,-1537.228
461404.814,4257418.255,-1535.413
461404.814,4257218.255,-1534.302
461404.814,4257018.255,-1533.856
461404.814,4256818.255,-1534.054
461404.814,4256618.255,-1533.526
461404.814,4256418.255,-1532.688
461404.814,4256218.255,-1534.291
461404.814,4256018.255,-1532.108
461404.814,4255818.255,-1533.243
461404.814,4255618.255,-1533.491
461404.814,4255418.255,-1532.946
461404.814,4255218.255,-1532.512
461404.814,4255018.255,-1534.335
461404.814,4254818.255,-1534.163
461404.814,4254618.255,-1535.502
461404.814,4254418.255,-1537.360
461404.814,4254218.255,-1536.856
461404.814,4254018.255,-1535.856
461404.814,4253818.255,-1537.090
461404.814,4253618.255,-1536.509
461404.814,4253418.255,-1537.068
461404.814,4253218.255,-1534.259
461604.814,4290018.255,-2271.885
461604.814,4289818.255,-2231.057
461604.814,4289618.255,-2187.496
461604.814,4289418.255,-2178.813
461604.814,4289218.255,-2175.857
461604.814,4289018.255,-2162.345
461604.814,4288818.255,-2166.512
461604.814,4288618.255,-2135.879
461604.814,4288418.255,-2124.872
461604.814,4288218.255,-2121.973
461604.814,4288018.255,-2115.371
461604.814,4287818.255,-2109.676
461604.814,4287618.255,-2090.527
461604.814,4287418.255,-2079.188
461604.814,4287218.255,-2072.547
461604.814,4287018.255,-2047.021
461604.814,4286818.255,-2010.106
461604.814,4286618.255,-2002.804
461604.814,4286418.255,-2020.341
461604.814,4286218.255,-2029.473
461604.814,4286018.255,-2031.988
461604.814,4285818.255,-2027.571
461604.814,4285618.255,-2019.241
461604.814,4285418.255,-2015.921
461604.814,4285218.255,-2010.103
461604.814,4285018.255,-1994.000
461604.814,4284818.255,-1984.402
461604.814,4284618.255,-1979.165
461604.814,4284418.255,-1980.684
461604.814,4284218.255,-1970.679
461604.814,4284018.255,-1957.016
461604.814,4283818.255,-1963.541
461604.814,4283618.255,-1969.270
461604.814,4283418.255,-1971.106
461604.814,4283218.255,-1963.257
461604.814,4283018.255,-1963.552
461604.814,4282818.255,-1962.042
461604.814,4282618.255,-1955.147
461604.814,4282418.255,-1945.013
461604.814,4282218.255,-1938.945
461604.814,4282018.255,-1933.599
461604.814,4281818.255,-1928.144
461604.814,4281618.255,-1925.680
461604.814,4281418.255,-1922.223
461604.814,4281218.255,-1918.188
461604.814,4281018.255,-1914.980
461604.814,4280818.255,-1911.768
461604.814,4280618.255,-1908.038
461604.814,4280418.255,-1902.757
461604.814,4280218.255,-1903.717
461604.814,4280018.255,-1896.369
461604.814,4279818.255,-1862.447
461604.814,4279618.255,-1810.807
461604.814,4279418.255,-1793.066
461604.814,4279218.255,-1786.219
461604.814,4279018.255,-1774.820
461604.814,4278818.255,-1751.576
461604.814,4278618.255,-1734.769
461604.814,4278418.255,-1728.725
461604.814,4278218.255,-1726.933
461604.814,4278018.255,-1721.638
461604.814,4277818.255,-1720.868
461604.814,4277618.255,-1715.823
461604.814,4277418.255,-1702.606
461604.814,4277218.255,-1688.451
461604.814,4277018.255,-1675.642
461604.814,4276818.255,-1657.993
461604.814,4276618.255,-1623.462
461604.814,4276418.255,-1579.540
461604.814,4276218.255,-1521.712
461604.814,4276018.255,-1472.276
461604.814,4275818.255,-1418.566
461604.814,4275618.255,-1365.662
461604.814,4275418.255,-1312.713
461604.814,4275218.255,-1252.346
461604.814,4275018.255,-1190.406
461604.814,4274818.255,-1135.688
461604.814,4274618.255,-1100.534
461604.814,4274418.255,-1039.916
461604.814,4274218.255,-974.831
461604.814,4274018.255,-906.151
461604.814,4273818.255,-869.151
461604.814,4273618.255,-823.244
461604.814,4273418.255,-776.968
461604.814,4273218.255,-729.905
461604.814,4273018.255,-661.521
461604.814,4272818.255,-590.777
461604.814,4266618.255,-562.050
461604.814,4266418.255,-616.222
461604.814,4266218.255,-663.813
461604.814,4266018.255,-714.414
461604.814,4265818.255,-758.195
461604.814,4265618.255,-804.035
461604.814,4265418.255,-854.886
461604.814,4265218.255,-907.365
461604.814,4265018.255,-955.159
461604.814,4264818.255,-1005.289
461604.814,4264618.255,-1045.710
461604.814,4264418.255,-1081.775
461604.814,4264218.255,-1112.880
461604.814,4264018.255,-1146.437
461604.814,4263818.255,-1169.058
461604.814,4263618.255,-1196.609
461604.814,4263418.255,-1232.934
461604.814,4263218.255,-1275.333
461604.814,4263018.255,-1313.220
461604.814,4262818.255,-1341.675
461604.814,4262618.255,-1365.008
461604.814,4262418.255,-1385.466
461604.814,4262218.255,-1403.478
461604.814,4262018.255,-1418.957
461604.814,4261818.255,-1432.488
461604.814,4261618.255,-1444.596
461604.814,4261418.255,-1453.726
461604.814,4261218.255,-1466.807
461604.814,4261018.255,-1488.438
461604.814,4260818.255,-1501.525
461604.814,4260618.255,-1523.795
461604.814,4260418.255,-1528.533
461604.814,4260218.255,-1526.806
461604.814,4260018.255,-1529.992
461604.814,4259818.255,-1531.892
461604.814,4259618.255,-1533.105
461604.814,4259418.255,-1532.110
461604.814,4259218.255,-1532.474
461604.814,4259018.255,-1531.783
461604.814,4258818.255,-1531.402
461604.814,4258618.255,-1529.474
461604.814,4258418.255,-1527.828
461604.814,4258218.255,-1532.614
461604.814,4258018.255,-1533.104
461604.814,4257818.255,-1534.053
461604.814,4257618.255,-1537.502
461604.814,4257418.255,-1535.361
461604.814,4257218.255,-1533.850
461604.814,4257018.255,-1534.003
461604.814,4256818.255,-1533.584
461604.814,4256618.255,-1534.225
461604.814,4256418.255,-1532.032
461604.814,4256218.255,-1532.783
461604.814,4256018.255,-1532.384
461604.814,4255818.255,-1532.655
461604.814,4255618.255,-1533.552
461604.814,4255418.255,-1533.335
461604.814,4255218.255,-1532.359
461604.814,4255018.255,-1534.970
461604.814,4254818.255,-1536.077
461604.814,4254618.255,-1534.920
461604.814,4254418.255,-1534.772
461604.814,4254218.255,-1536.500
461604.814,4254018.255,-1536.603
461604.814,4253818.255,-1535.910
461604.814,4253618.255,-1536.413
461604.814,4253418.255,-1534.659
461604.814,4253218.255,-1535.950
461804.814,4290018.255,-2236.583
461804.814,4289818.255,-2201.717
461804.814,4289618.255,-2195.183
461804.814,4289418.255,-2188.903
461804.814,4289218.255,-2177.776
461804.814,4289018.255,-2158.650
461804.814,4288818.255,-2139.413
461804.814,4288618.255,-2124.730
461804.814,4288418.255,-2111.210
461804.814,4288218.255,-2109.924
461804.814,4288018.255,-2107.051
461804.814,4287818.255,-2101.719
461804.814,4287618.255,-2090.348
461804.814,4287418.255,-2072.492
461804.814,4287218.255,-2060.191
461804.814,4287018.255,-2024.553
461804.814,4286818.255,-2008.388
461804.814,4286618.255,-2022.957
461804.814,4286418.255,-2032.503
461804.814,4286218.255,-2033.461
461804.814,4286018.255,-2031.072
461804.814,4285818.255,-2025.870
461804.814,4285618.255,-2018.630
461804.814,4285418.255,-2011.205
461804.814,4285218.255,-1996.929
461804.814,4285018.255,-1987.598
461804.814,4284818.255,-1980.172
461804.814,4284618.255,-1972.564
461804.814,4284418.255,-1977.578
461804.814,4284218.255,-1964.745
461804.814,4284018.255,-1950.720
461804.814,4283818.255,-1938.846
461804.814,4283618.255,-1952.461
461804.814,4283418.255,-1942.148
461804.814,4283218.255,-1954.906
461804.814,4283018.255,-1955.319
461804.814,4282818.255,-1953.208
461804.814,4282618.255,-1953.777
461804.814,4282418.255,-1949.044
461804.814,4282218.255,-1946.175
461804.814,4282018.255,-1939.211
461804.814,4281818.255,-1932.345
461804.814,4281618.255,-1928.330
461804.814,4281418.255,-1924.573
461804.814,4281218.255,-1920.221
461804.814,4281018.255,-1917.904
461804.814,4280818.255,-1912.745
461804.814,4280618.255,-1907.363
461804.814,4280418.255,-1904.311
461804.814,4280218.255,-1902.953
461804.814,4280018.255,-1894.689
461804.814,4279818.255,-1871.807
461804.814,4279618.255,-1824.022
461804.814,4279418.255,-1806.727
461804.814,4279218.255,-1792.777
461804.814,4279018.255,-1776.840
461804.814,4278818.255,-1765.395
461804.814,4278618.255,-1764.816
461804.814,4278418.255,-1760.342
461804.814,4278218.255,-1748.393
461804.814,4278018.255,-1737.770
461804.814,4277818.255,-1735.842
461804.814,4277618.255,-1727.124
461804.814,4277418.255,-1715.756
461804.814,4277218.255,-1702.320
461804.814,4277018.255,-1689.896
461804.814,4276818.255,-1681.017
461804.814,4276618.255,-1642.608
461804.814,4276418.255,-1597.639
461804.814,4276218.255,-1537.425
461804.814,4276018.255,-1492.250
461804.814,4275818.255,-1438.838
461804.814,4275618.255,-1391.526
461804.814,4275418.255,-1336.180
461804.814,4275218.255,-1281.514
461804.814,4275018.255,-1230.532
461804.814,4274818.255,-1182.730
461804.814,4274618.255,-1121.658
461804.814,4274418.255,-1060.223
461804.814,4274218.255,-1007.485
461804.814,4274018.255,-952.798
461804.814,4273818.255,-921.892
461804.814,4273618.255,-886.737
461804.814,4273418.255,-830.822
461804.814,4273218.255,-763.289
461804.814,4273018.255,-695.134
461804.814,4272818.255,-628.186
461804.814,4272618.255,-552.015
461804.814,4266418.255,-577.425
461804.814,4266218.255,-636.505
461804.814,4266018.255,-676.736
461804.814,4265818.255,-721.059
461804.814,4265618.255,-785.310
461804.814,4265418.255,-847.390
461804.814,4265218.255,-903.254
461804.814,4265018.255,-941.148
461804.814,4264818.255,-990.783
461804.814,4264618.255,-987.400
461804.814,4264418.255,-1045.366
461804.814,4264218.255,-1073.750
461804.814,4264018.255,-1124.322
461804.814,4263818.255,-1166.067
461804.814,4263618.255,-1214.608
461804.814,4263418.255,-1249.626
461804.814,4263218.255,-1279.118
461804.814,4263018.255,-1308.113
461804.814,4262818.255,-1330.852
461804.814,4262618.255,-1355.514
461804.814,4262418.255,-1374.943
461804.814,4262218.255,-1396.685
461804.814,4262018.255,-1411.352
461804.814,4261818.255,-1420.989
461804.814,4261618.255,-1436.273
461804.814,4261418.255,-1452.257
461804.814,4261218.255,-1468.918
461804.814,4261018.255,-1478.887
461804.814,4260818.255,-1496.718
461804.814,4260618.255,-1513.224
461804.814,4260418.255,-1523.455
461804.814,4260218.255,-1529.804
461804.814,4260018.255,-1531.825
461804.814,4259818.255,-1530.537
461804.814,4259618.255,-1532.876
461804.814,4259418.255,-1534.324
461804.814,4259218.255,-1533.913
461804.814,4259018.255,-1533.251
461804.814,4258818.255,-1531.672
461804.814,4258618.255,-1529.146
461804.814,4258418.255,-1530.821
461804.814,4258218.255,-1533.294
461804.814,4258018.255,-1534.360
461804.814,4257818.255,-1535.710
461804.814,4257618.255,-1534.298
461804.814,4257418.255,-1534.496
461804.814,4257218.255,-1533.144
461804.814,4257018.255,-1533.302
461804.814,4256818.255,-1532.328
461804.814,4256618.255,-1532.090
461804.814,4256418.255,-1531.769
461804.814,4256218.255,-1531.789
461804.814,4256018.255,-1531.780
461804.814,4255818.255,-1532.931
461804.814,4255618.255,-1533.488
461804.814,4255418.255,-1532.115
461804.814,4255218.255,-1532.655
461804.814,4255018.255,-1533.755
461804.814,4254818.255,-1535.292
461804.814,4254618.255,-1534.191
461804.814,4254418.255,-1535.882
461804.814,4254218.255,-1535.909
461804.814,4254018.255,-1536.768
461804.814,4253818.255,-1535.012
461804.814,4253618.255,-1536.321
461804.814,4253418.255,-1535.722
461804.814,4253218.255,-1535.676
462004.814,4290018.255,-2222.728
462004.814,4289818.255,-2200.590
462004.814,4289618.255,-2197.243
462004.814,4289418.255,-2189.424
462004.814,4289218.255,-2187.319
462004.814,4289018.255,-2169.289
462004.814,4288818.255,-2147.209
462004.814,4288618.255,-2113.272
462004.814,4288418.255,-2105.615
462004.814,4288218.255,-2097.294
462004.814,4288018.255,-2089.307
462004.814,4287818.255,-2090.051
462004.814,4287618.255,-2070.049
462004.814,4287418.255,-2042.485
462004.814,4287218.255,-2021.690
462004.814,4287018.255,-2009.566
462004.814,4286818.255,-2020.978
462004.814,4286618.255,-2033.215
462004.814,4286418.255,-2038.516
462004.814,4286218.255,-2036.206
462004.814,4286018.255,-2031.693
462004.814,4285818.255,-2028.042
462004.814,4285618.255,-2015.597
462004.814,4285418.255,-2009.162
462004.814,4285218.255,-2012.526
462004.814,4285018.255,-2013.018
462004.814,4284818.255,-1992.465
462004.814,4284618.255,-1977.958
462004.814,4284418.255,-1975.655
462004.814,4284218.255,-1970.784
462004.814,4284018.255,-1960.219
462004.814,4283818.255,-1939.847
462004.814,4283618.255,-1939.377
462004.814,4283418.255,-1928.412
462004.814,4283218.255,-1940.934
462004.814,4283018.255,-1944.454
462004.814,4282818.255,-1946.097
462004.814,4282618.255,-1945.004
462004.814,4282418.255,-1943.107
462004.814,4282218.255,-1941.852
462004.814,4282018.255,-1939.581
462004.814,4281818.255,-1936.023
462004.814,4281618.255,-1929.738
462004.814,4281418.255,-1923.539
462004.814,4281218.255,-1920.650
462004.814,4281018.255,-1917.523
462004.814,4280818.255,-1912.805
462004.814,4280618.255,-1907.532
462004.814,4280418.255,-1904.849
462004.814,4280218.255,-1902.690
462004.814,4280018.255,-1899.030
462004.814,4279818.255,-1882.417
462004.814,4279618.255,-1820.792
462004.814,4279418.255,-1803.915
462004.814,4279218.255,-1790.984
462004.814,4279018.255,-1772.392
462004.814,4278818.255,-1777.385
462004.814,4278618.255,-1778.116
462004.814,4278418.255,-1776.663
462004.814,4278218.255,-1761.586
462004.814,4278018.255,-1748.947
462004.814,4277818.255,-1745.555
462004.814,4277618.255,-1737.278
462004.814,4277418.255,-1726.766
462004.814,4277218.255,-1713.297
462004.814,4277018.255,-1701.442
462004.814,4276818.255,-1696.896
462004.814,4276618.255,-1666.742
462004.814,4276418.255,-1619.187
462004.814,4276218.255,-1565.423
462004.814,4276018.255,-1516.453
462004.814,4275818.255,-1462.320
462004.814,4275618.255,-1412.300
462004.814,4275418.255,-1369.575
462004.814,4275218.255,-1314.523
462004.814,4275018.255,-1267.421
462004.814,4274818.255,-1214.506
462004.814,4274618.255,-1153.802
462004.814,4274418.255,-1089.333
462004.814,4274218.255,-1043.279
462004.814,4274018.255,-1028.744
462004.814,4273818.255,-981.299
462004.814,4273618.255,-914.433
462004.814,4273418.255,-844.034
462004.814,4273218.255,-798.395
462004.814,4273018.255,-728.852
462004.814,4272818.255,-653.783
462004.814,4272618.255,-571.519
462004.814,4266218.255,-599.514
462004.814,4266018.255,-655.485
462004.814,4265818.255,-710.369
462004.814,4265618.255,-760.057
462004.814,4265418.255,-826.507
462004.814,4265218.255,-890.688
462004.814,4265018.255,-913.650
462004.814,4264818.255,-947.129
462004.814,4264618.255,-990.167
462004.814,4264418.255,-1038.839
462004.814,4264218.255,-1089.951
462004.814,4264018.255,-1133.141
462004.814,4263818.255,-1168.577
462004.814,4263618.255,-1207.798
462004.814,4263418.255,-1235.598
462004.814,4263218.255,-1263.396
462004.814,4263018.255,-1294.318
462004.814,4262818.255,-1325.740
462004.814,4262618.255,-1351.447
462004.814,4262418.255,-1374.348
462004.814,4262218.255,-1393.098
462004.814,4262018.255,-1408.714
462004.814,4261818.255,-1423.271
462004.814,4261618.255,-1434.689
462004.814,4261418.255,-1448.024
462004.814,4261218.255,-1456.082
462004.814,4261018.255,-1477.132
462004.814,4260818.255,-1488.500
462004.814,4260618.255,-1511.410
462004.814,4260418.255,-1521.499
462004.814,4260218.255,-1521.026
462004.814,4260018.255,-1527.539
462004.814,4259818.255,-1530.927
462004.814,4259618.255,-1533.861
462004.814,4259418.255,-1534.400
462004.814,4259218.255,-1534.081
462004.814,4259018.255,-1531.133
462004.814,4258818.255,-1533.000
462004.814,4258618.255,-1532.485
462004.814,4258418.255,-1533.363
462004.814,4258218.255,-1532.226
462004.814,4258018.255,-1533.579
462004.814,4257818.255,-1535.757
462004.814,4257618.255,-1535.761
462004.814,4257418.255,-1535.307
462004.814,4257218.255,-1535.421
462004.814,4257018.255,-1534.703
462004.814,4256818.255,-1533.475
462004.814,4256618.255,-1532.387
462004.814,4256418.255,-1532.166
462004.814,4256218.255,-1532.418
462004.814,4256018.255,-1532.708
462004.814,4255818.255,-1532.663
462004.814,4255618.255,-1533.843
462004.814,4255418.255,-1532.409
462004.814,4255218.255,-1532.928
462004.814,4255018.255,-1534.123
462004.814,4254818.255,-1534.273
462004.814,4254618.255,-1535.491
462004.814,4254418.255,-1534.891
462004.814,4254218.255,-1537.964
462004.814,4254018.255,-1535.904
462004.814,4253818.255,-1535.039
462004.814,4253618.255,-1537.668
462004.814,4253418.255,-1535.215
462004.814,4253218.255,-1536.490
462204.814,4290018.255,-2212.713
462204.814,4289818.255,-2198.182
462204.814,4289618.255,-2197.927
462204.814,4289418.255,-2191.179
462204.814,4289218.255,-2184.610
462204.814,4289018.255,-2149.578
462204.814,4288818.255,-2135.782
462204.814,4288618.255,-2114.560
462204.814,4288418.255,-2098.118
462204.814,4288218.255,-2086.498
462204.814,4288018.255,-2088.387
462204.814,4287818.255,-2086.478
462204.814,4287618.255,-2057.682
462204.814,4287418.255,-2029.643
462204.814,4287218.255,-2013.793
462204.814,4287018.255,-2017.887
462204.814,4286818.255,-2033.669
462204.814,4286618.255,-2043.378
462204.814,4286418.255,-2043.044
462204.814,4286218.255,-2036.480
462204.814,4286018.255,-2035.474
462204.814,4285818.255,-2030.906
462204.814,4285618.255,-2018.231
462204.814,4285418.255,-2010.857
462204.814,4285218.255,-2014.843
462204.814,4285018.255,-2023.160
462204.814,4284818.255,-1999.865
462204.814,4284618.255,-1993.092
462204.814,4284418.255,-1982.036
462204.814,4284218.255,-1974.318
462204.814,4284018.255,-1967.482
462204.814,4283818.255,-1946.028
462204.814,4283618.255,-1950.601
462204.814,4283418.255,-1941.177
462204.814,4283218.255,-1937.409
462204.814,4283018.255,-1939.698
462204.814,4282818.255,-1939.694
462204.814,4282618.255,-1939.681
462204.814,4282418.255,-1938.807
462204.814,4282218.255,-1937.590
462204.814,4282018.255,-1937.295
462204.814,4281818.255,-1935.694
462204.814,4281618.255,-1929.620
462204.814,4281418.255,-1922.989
462204.814,4281218.255,-1919.563
462204.814,4281018.255,-1915.569
462204.814,4280818.255,-1912.250
462204.814,4280618.255,-1908.341
462204.814,4280418.255,-1904.395
462204.814,4280218.255,-1904.916
462204.814,4280018.255,-1899.212
462204.814,4279818.255,-1882.438
462204.814,4279618.255,-1819.848
462204.814,4279418.255,-1801.401
462204.814,4279218.255,-1792.938
462204.814,4279018.255,-1789.512
462204.814,4278818.255,-1783.562
462204.814,4278618.255,-1786.076
462204.814,4278418.255,-1784.648
462204.814,4278218.255,-1773.938
462204.814,4278018.255,-1769.627
462204.814,4277818.255,-1761.475
462204.814,4277618.255,-1749.469
462204.814,4277418.255,-1736.491
462204.814,4277218.255,-1720.448
462204.814,4277018.255,-1707.618
462204.814,4276818.255,-1697.218
462204.814,4276618.255,-1678.654
462204.814,4276418.255,-1636.814
462204.814,4276218.255,-1577.874
462204.814,4276018.255,-1542.595
462204.814,4275818.255,-1490.847
462204.814,4275618.255,-1442.801
462204.814,4275418.255,-1397.157
462204.814,4275218.255,-1340.127
462204.814,4275018.255,-1295.944
462204.814,4274818.255,-1221.858
462204.814,4274618.255,-1180.311
462204.814,4274418.255,-1143.652
462204.814,4274218.255,-1118.003
462204.814,4274018.255,-1064.566
462204.814,4273818.255,-1004.464
462204.814,4273618.255,-950.157
462204.814,4273418.255,-895.700
462204.814,4273218.255,-833.508
462204.814,4273018.255,-746.072
462204.814,4272818.255,-678.574
462204.814,4272618.255,-606.964
462204.814,4266218.255,-586.580
462204.814,4266018.255,-628.916
462204.814,4265818.255,-668.373
462204.814,4265618.255,-740.099
462204.814,4265418.255,-788.804
462204.814,4265218.255,-832.201
462204.814,4265018.255,-889.103
462204.814,4264818.255,-950.962
462204.814,4264618.255,-1001.467
462204.814,4264418.255,-1049.833
462204.814,4264218.255,-1088.431
462204.814,4264018.255,-1119.091
462204.814,4263818.255,-1150.566
462204.814,4263618.255,-1190.018
462204.814,4263418.255,-1226.648
462204.814,4263218.255,-1260.403
462204.814,4263018.255,-1293.528
462204.814,4262818.255,-1321.522
462204.814,4262618.255,-1347.430
462204.814,4262418.255,-1372.288
462204.814,4262218.255,-1391.696
462204.814,4262018.255,-1408.623
462204.814,4261818.255,-1420.361
462204.814,4261618.255,-1433.222
462204.814,4261418.255,-1448.726
462204.814,4261218.255,-1463.292
462204.814,4261018.255,-1478.751
462204.814,4260818.255,-1490.816
462204.814,4260618.255,-1508.717
462204.814,4260418.255,-1517.649
462204.814,4260218.255,-1527.434
462204.814,4260018.255,-1529.862
462204.814,4259818.255,-1531.667
462204.814,4259618.255,-1534.899
462204.814,4259418.255,-1533.984
462204.814,4259218.255,-1534.590
462204.814,4259018.255,-1533.641
462204.814,4258818.255,-1533.561
462204.814,4258618.255,-1531.953
462204.814,4258418.255,-1531.161
462204.814,4258218.255,-1534.148
462204.814,4258018.255,-1534.927
462204.814,4257818.255,-1534.303
462204.814,4257618.255,-1535.338
462204.814,4257418.255,-1537.913
462204.814,4257218.255,-1533.695
462204.814,4257018.255,-1534.659
462204.814,4256818.255,-1533.297
462204.814,4256618.255,-1532.135
462204.814,4256418.255,-1533.145
462204.814,4256218.255,-1533.958
462204.814,4256018.255,-1533.005
462204.814,4255818.255,-1532.921
462204.814,4255618.255,-1534.798
462204.814,4255418.255,-1533.551
462204.814,4255218.255,-1533.286
462204.814,4255018.255,-1533.068
462204.814,4254818.255,-1534.957
462204.814,4254618.255,-1535.399
462204.814,4254418.255,-1535.200
462204.814,4254218.255,-1536.413
462204.814,4254018.255,-1534.794
462204.814,4253818.255,-1535.165
462204.814,4253618.255,-1535.525
462204.814,4253418.255,-1536.721
462204.814,4253218.255,-1535.381
462404.814,4290018.255,-2204.324
462404.814,4289818.255,-2196.126
462404.814,4289618.255,-2195.549
462404.814,4289418.255,-2174.788
462404.814,4289218.255,-2159.678
462404.814,4289018.255,-2142.860
462404.814,4288818.255,-2130.119
462404.814,4288618.255,-2113.309
462404.814,4288418.255,-2078.342
462404.814,4288218.255,-2086.635
462404.814,4288018.255,-2089.291
462404.814,4287818.255,-2077.073
462404.814,4287618.255,-2049.580
462404.814,4287418.255,-2028.949
462404.814,4287218.255,-2026.414
462404.814,4287018.255,-2036.649
462404.814,4286818.255,-2047.831
462404.814,4286618.255,-2048.665
462404.814,4286418.255,-2048.568
462404.814,4286218.255,-2043.716
462404.814,4286018.255,-2037.830
462404.814,4285818.255,-2030.865
462404.814,4285618.255,-2023.900
462404.814,4285418.255,-2021.661
462404.814,4285218.255,-2024.369
462404.814,4285018.255,-2026.051
462404.814,4284818.255,-2012.137
462404.814,4284618.255,-1996.908
462404.814,4284418.255,-1987.397
462404.814,4284218.255,-1975.019
462404.814,4284018.255,-1970.431
462404.814,4283818.255,-1959.722
462404.814,4283618.255,-1959.229
462404.814,4283418.255,-1950.519
462404.814,4283218.255,-1945.056
462404.814,4283018.255,-1939.337
462404.814,4282818.255,-1938.278
462404.814,4282618.255,-1936.004
462404.814,4282418.255,-1931.522
462404.814,4282218.255,-1935.284
462404.814,4282018.255,-1932.833
462404.814,4281818.255,-1927.212
462404.814,4281618.255,-1927.251
462404.814,4281418.255,-1921.778
462404.814,4281218.255,-1917.448
462404.814,4281018.255,-1912.275
462404.814,4280818.255,-1909.092
462404.814,4280618.255,-1904.753
462404.814,4280418.255,-1902.326
462404.814,4280218.255,-1903.229
462404.814,4280018.255,-1896.632
462404.814,4279818.255,-1851.619
462404.814,4279618.255,-1825.207
462404.814,4279418.255,-1816.801
462404.814,4279218.255,-1805.411
462404.814,4279018.255,-1793.497
462404.814,4278818.255,-1792.346
462404.814,4278618.255,-1797.405
462404.814,4278418.255,-1795.287
462404.814,4278218.255,-1790.446
462404.814,4278018.255,-1789.068
462404.814,4277818.255,-1777.632
462404.814,4277618.255,-1762.703
462404.814,4277418.255,-1745.000
462404.814,4277218.255,-1724.269
462404.814,4277018.255,-1707.686
462404.814,4276818.255,-1694.094
462404.814,4276618.255,-1681.672
462404.814,4276418.255,-1646.882
462404.814,4276218.255,-1595.020
462404.814,4276018.255,-1562.495
462404.814,4275818.255,-1523.867
462404.814,4275618.255,-1470.919
462404.814,4275418.255,-1426.043
462404.814,4275218.255,-1372.810
462404.814,4275018.255,-1317.190
462404.814,4274818.255,-1269.730
462404.814,4274618.255,-1233.594
462404.814,4274418.255,-1187.458
462404.814,4274218.255,-1136.113
462404.814,4274018.255,-1085.803
462404.814,4273818.255,-1028.888
462404.814,4273618.255,-979.631
462404.814,4273418.255,-917.590
462404.814,4273218.255,-856.024
462404.814,4273018.255,-781.729
462404.814,4272818.255,-714.319
462404.814,4272618.255,-640.940
462404.814,4272418.255,-577.543
462404.814,4266018.255,-619.638
462404.814,4265818.255,-667.793
462404.814,4265618.255,-729.251
462404.814,4265418.255,-799.445
462404.814,4265218.255,-861.153
462404.814,4265018.255,-906.845
462404.814,4264818.255,-945.397
462404.814,4264618.255,-987.147
462404.814,4264418.255,-1025.891
462404.814,4264218.255,-1062.889
462404.814,4264018.255,-1106.264
462404.814,4263818.255,-1146.337
462404.814,4263618.255,-1184.924
462404.814,4263418.255,-1221.036
462404.814,4263218.255,-1254.737
462404.814,4263018.255,-1284.812
462404.814,4262818.255,-1315.042
462404.814,4262618.255,-1339.261
462404.814,4262418.255,-1372.521
462404.814,4262218.255,-1397.534
462404.814,4262018.255,-1413.514
462404.814,4261818.255,-1425.462
462404.814,4261618.255,-1439.223
462404.814,4261418.255,-1451.752
462404.814,4261218.255,-1463.692
462404.814,4261018.255,-1473.905
462404.814,4260818.255,-1484.616
462404.814,4260618.255,-1503.250
462404.814,4260418.255,-1518.970
462404.814,4260218.255,-1530.930
462404.814,4260018.255,-1531.688
462404.814,4259818.255,-1530.138
462404.814,4259618.255,-1532.521
462404.814,4259418.255,-1533.364
462404.814,4259218.255,-1532.863
462404.814,4259018.255,-1530.989
462404.814,4258818.255,-1530.709
462404.814,4258618.255,-1530.778
462404.814,4258418.255,-1530.480
462404.814,4258218.255,-1533.403
462404.814,4258018.255,-1535.588
462404.814,4257818.255,-1536.215
462404.814,4257618.255,-1536.133
462404.814,4257418.255,-1535.784
462404.814,4257218.255,-1533.880
462404.814,4257018.255,-1534.382
462404.814,4256818.255,-1534.606
462404.814,4256618.255,-1532.516
462404.814,4256418.255,-1532.964
462404.814,4256218.255,-1533.616
462404.814,4256018.255,-1533.338
462404.814,4255818.255,-1532.531
462404.814,4255618.255,-1531.592
462404.814,4255418.255,-1534.112
462404.814,4255218.255,-1532.965
462404.814,4255018.255,-1533.615
462404.814,4254818.255,-1532.407
462404.814,4254618.255,-1534.700
462404.814,4254418.255,-1533.268
462404.814,4254218.255,-1534.492
462404.814,4254018.255,-1534.764
462404.814,4253818.255,-1536.078
462404.814,4253618.255,-1532.851
462404.814,4253418.255,-1533.371
462404.814,4253218.255,-1533.841
462604.814,4290018.255,-2201.824
462604.814,4289818.255,-2187.003
462604.814,4289618.255,-2180.145
462604.814,4289418.255,-2170.654
462604.814,4289218.255,-2142.021
462604.814,4289018.255,-2123.832
462604.814,4288818.255,-2125.197
462604.814,4288618.255,-2105.727
462604.814,4288418.255,-2076.630
462604.814,4288218.255,-2082.972
462604.814,4288018.255,-2077.882
462604.814,4287818.255,-2059.832
462604.814,4287618.255,-2045.449
462604.814,4287418.255,-2040.997
462604.814,4287218.255,-2036.126
462604.814,4287018.255,-2048.899
462604.814,4286818.255,-2053.147
462604.814,4286618.255,-2048.979
462604.814,4286418.255,-2048.362
462604.814,4286218.255,-2044.426
462604.814,4286018.255,-2041.116
462604.814,4285818.255,-2035.839
462604.814,4285618.255,-2026.387
462604.814,4285418.255,-2029.965
462604.814,4285218.255,-2029.902
462604.814,4285018.255,-2028.889
462604.814,4284818.255,-2001.177
462604.814,4284618.255,-1988.994
462604.814,4284418.255,-1979.936
462604.814,4284218.255,-1973.985
462604.814,4284018.255,-1970.788
462604.814,4283818.255,-1963.623
462604.814,4283618.255,-1962.860
462604.814,4283418.255,-1955.997
462604.814,4283218.255,-1948.604
462604.814,4283018.255,-1944.109
462604.814,4282818.255,-1939.890
462604.814,4282618.255,-1930.481
462604.814,4282418.255,-1928.058
462604.814,4282218.255,-1927.292
462604.814,4282018.255,-1923.976
462604.814,4281818.255,-1921.107
462604.814,4281618.255,-1918.828
462604.814,4281418.255,-1917.219
462604.814,4281218.255,-1915.380
462604.814,4281018.255,-1910.766
462604.814,4280818.255,-1906.131
462604.814,4280618.255,-1903.395
462604.814,4280418.255,-1901.291
462604.814,4280218.255,-1901.880
462604.814,4280018.255,-1897.376
462604.814,4279818.255,-1879.920
462604.814,4279618.255,-1869.499
462604.814,4279418.255,-1848.219
462604.814,4279218.255,-1818.809
462604.814,4279018.255,-1795.629
462604.814,4278818.255,-1813.376
462604.814,4278618.255,-1819.272
462604.814,4278418.255,-1816.012
462604.814,4278218.255,-1805.738
462604.814,4278018.255,-1790.443
462604.814,4277818.255,-1771.429
462604.814,4277618.255,-1752.845
462604.814,4277418.255,-1739.498
462604.814,4277218.255,-1724.109
462604.814,4277018.255,-1706.627
462604.814,4276818.255,-1690.269
462604.814,4276618.255,-1672.426
462604.814,4276418.255,-1654.093
462604.814,4276218.255,-1625.549
462604.814,4276018.255,-1596.934
462604.814,4275818.255,-1556.448
462604.814,4275618.255,-1513.107
462604.814,4275418.255,-1466.297
462604.814,4275218.255,-1419.141
462604.814,4275018.255,-1357.771
462604.814,4274818.255,-1311.737
462604.814,4274618.255,-1255.735
462604.814,4274418.255,-1211.702
462604.814,4274218.255,-1165.476
462604.814,4274018.255,-1114.528
462604.814,4273818.255,-1062.229
462604.814,4273618.255,-1003.512
462604.814,4273418.255,-942.887
462604.814,4273218.255,-888.782
462604.814,4273018.255,-817.227
462604.814,4272818.255,-744.745
462604.814,4272618.255,-669.822
462604.814,4272418.255,-606.651
462604.814,4266018.255,-599.693
462604.814,4265818.255,-668.736
462604.814,4265618.255,-728.680
462604.814,4265418.255,-772.285
462604.814,4265218.255,-817.242
462604.814,4265018.255,-869.904
462604.814,4264818.255,-920.602
462604.814,4264618.255,-969.615
462604.814,4264418.255,-1012.955
462604.814,4264218.255,-1058.620
462604.814,4264018.255,-1100.227
462604.814,4263818.255,-1136.505
462604.814,4263618.255,-1169.189
462604.814,4263418.255,-1212.868
462604.814,4263218.255,-1241.516
462604.814,4263018.255,-1278.054
462604.814,4262818.255,-1309.357
462604.814,4262618.255,-1335.003
462604.814,4262418.255,-1371.049
462604.814,4262218.255,-1391.466
462604.814,4262018.255,-1410.786
462604.814,4261818.255,-1419.980
462604.814,4261618.255,-1435.491
462604.814,4261418.255,-1447.061
462604.814,4261218.255,-1458.878
462604.814,4261018.255,-1466.282
462604.814,4260818.255,-1475.021
462604.814,4260618.255,-1490.733
462604.814,4260418.255,-1509.654
462604.814,4260218.255,-1523.786
462604.814,4260018.255,-1529.496
462604.814,4259818.255,-1530.888
462604.814,4259618.255,-1532.371
462604.814,4259418.255,-1532.330
462604.814,4259218.255,-1532.113
462604.814,4259018.255,-1529.148
462604.814,4258818.255,-1528.040
462604.814,4258618.255,-1526.836
462604.814,4258418.255,-1527.380
462604.814,4258218.255,-1531.735
462604.814,4258018.255,-1531.627
462604.814,4257818.255,-1539.086
462604.814,4257618.255,-1538.057
462604.814,4257418.255,-1534.729
462604.814,4257218.255,-1535.670
462604.814,4257018.255,-1534.023
462604.814,4256818.255,-1535.201
462604.814,4256618.255,-1533.420
462604.814,4256418.255,-1533.431
462604.814,4256218.255,-1532.316
462604.814,4256018.255,-1532.735
462604.814,4255818.255,-1532.766
462604.814,4255618.255,-1532.616
462604.814,4255418.255,-1532.571
462604.814,4255218.255,-1532.421
462604.814,4255018.255,-1533.974
462604.814,4254818.255,-1532.247
462604.814,4254618.255,-1533.854
462604.814,4254418.255,-1533.836
462604.814,4254218.255,-1534.590
462604.814,4254018.255,-1533.101
462604.814,4253818.255,-1534.461
462604.814,4253618.255,-1533.584
462604.814,4253418.255,-1534.124
462604.814,4253218.255,-1532.397
462804.814,4290018.255,-2200.088
462804.814,4289818.255,-2190.095
462804.814,4289618.255,-2170.278
462804.814,4289418.255,-2134.512
462804.814,4289218.255,-2126.922
462804.814,4289018.255,-2123.791
462804.814,4288818.255,-2116.249
462804.814,4288618.255,-2101.315
462804.814,4288418.255,-2087.533
462804.814,4288218.255,-2079.124
462804.814,4288018.255,-2064.375
462804.814,4287818.255,-2052.167
462804.814,4287618.255,-2055.926
462804.814,4287418.255,-2051.261
462804.814,4287218.255,-2050.722
462804.814,4287018.255,-2056.647
462804.814,4286818.255,-2058.015
462804.814,4286618.255,-2056.145
462804.814,4286418.255,-2053.216
462804.814,4286218.255,-2052.240
462804.814,4286018.255,-2048.811
462804.814,4285818.255,-2046.003
462804.814,4285618.255,-2040.731
462804.814,4285418.255,-2037.698
462804.814,4285218.255,-2033.769
462804.814,4285018.255,-2010.514
462804.814,4284818.255,-1992.180
462804.814,4284618.255,-1983.974
462804.814,4284418.255,-1972.525
462804.814,4284218.255,-1969.492
462804.814,4284018.255,-1967.100
462804.814,4283818.255,-1956.382
462804.814,4283618.255,-1951.701
462804.814,4283418.255,-1955.618
462804.814,4283218.255,-1946.359
462804.814,4283018.255,-1944.860
462804.814,4282818.255,-1937.058
462804.814,4282618.255,-1928.910
462804.814,4282418.255,-1923.976
462804.814,4282218.255,-1923.198
462804.814,4282018.255,-1921.226
462804.814,4281818.255,-1917.791
462804.814,4281618.255,-1914.453
462804.814,4281418.255,-1911.512
462804.814,4281218.255,-1911.901
462804.814,4281018.255,-1910.090
462804.814,4280818.255,-1906.817
462804.814,4280618.255,-1903.400
462804.814,4280418.255,-1900.421
462804.814,4280218.255,-1899.450
462804.814,4280018.255,-1899.310
462804.814,4279818.255,-1888.050
462804.814,4279618.255,-1876.955
462804.814,4279418.255,-1867.269
462804.814,4279218.255,-1859.473
462804.814,4279018.255,-1840.504
462804.814,4278818.255,-1843.012
462804.814,4278618.255,-1834.180
462804.814,4278418.255,-1818.378
462804.814,4278218.255,-1799.968
462804.814,4278018.255,-1784.704
462804.814,4277818.255,-1769.324
462804.814,4277618.255,-1751.842
462804.814,4277418.255,-1736.601
462804.814,4277218.255,-1719.309
462804.814,4277018.255,-1701.094
462804.814,4276818.255,-1682.518
462804.814,4276618.255,-1662.362
462804.814,4276418.255,-1640.892
462804.814,4276218.255,-1619.532
462804.814,4276018.255,-1591.650
462804.814,4275818.255,-1558.143
462804.814,4275618.255,-1513.693
462804.814,4275418.255,-1477.624
462804.814,4275218.255,-1428.414
462804.814,4275018.255,-1379.869
462804.814,4274818.255,-1333.890
462804.814,4274618.255,-1286.955
462804.814,4274418.255,-1240.661
462804.814,4274218.255,-1189.888
462804.814,4274018.255,-1134.421
462804.814,4273818.255,-1082.247
462804.814,4273618.255,-1018.376
462804.814,4273418.255,-954.099
462804.814,4273218.255,-893.102
462804.814,4273018.255,-828.978
462804.814,4272818.255,-761.482
462804.814,4272618.255,-687.843
462804.814,4272418.255,-622.611
462804.814,4272218.255,-569.811
462804.814,4266018.255,-600.175
462804.814,4265818.255,-650.027
462804.814,4265618.255,-699.765
462804.814,4265418.255,-755.872
462804.814,4265218.255,-808.030
462804.814,4265018.255,-864.436
462804.814,4264818.255,-913.868
462804.814,4264618.255,-957.006
462804.814,4264418.255,-1002.235
462804.814,4264218.255,-1047.344
462804.814,4264018.255,-1088.130
462804.814,4263818.255,-1129.993
462804.814,4263618.255,-1173.365
462804.814,4263418.255,-1212.073
462804.814,4263218.255,-1245.007
462804.814,4263018.255,-1279.210
462804.814,4262818.255,-1310.194
462804.814,4262618.255,-1338.345
462804.814,4262418.255,-1363.829
462804.814,4262218.255,-1384.829
462804.814,4262018.255,-1404.755
462804.814,4261818.255,-1419.987
462804.814,4261618.255,-1435.014
462804.814,4261418.255,-1453.188
462804.814,4261218.255,-1462.908
462804.814,4261018.255,-1470.635
462804.814,4260818.255,-1480.472
462804.814,4260618.255,-1497.559
462804.814,4260418.255,-1512.636
462804.814,4260218.255,-1520.542
462804.814,4260018.255,-1531.340
462804.814,4259818.255,-1530.768
462804.814,4259618.255,-1533.556
462804.814,4259418.255,-1533.746
462804.814,4259218.255,-1533.141
462804.814,4259018.255,-1532.899
462804.814,4258818.255,-1532.900
462804.814,4258618.255,-1531.217
462804.814,4258418.255,-1532.336
462804.814,4258218.255,-1533.938
462804.814,4258018.255,-1532.949
462804.814,4257818.255,-1537.430
462804.814,4257618.255,-1534.480
462804.814,4257418.255,-1534.158
462804.814,4257218.255,-1535.342
462804.814,4257018.255,-1534.269
462804.814,4256818.255,-1533.424
462804.814,4256618.255,-1533.786
462804.814,4256418.255,-1532.648
462804.814,4256218.255,-1531.618
462804.814,4256018.255,-1532.168
462804.814,4255818.255,-1532.517
462804.814,4255618.255,-1532.286
462804.814,4255418.255,-1532.372
462804.814,4255218.255,-1532.311
462804.814,4255018.255,-1533.870
462804.814,4254818.255,-1532.928
462804.814,4254618.255,-1532.872
462804.814,4254418.255,-1532.021
462804.814,4254218.255,-1534.419
462804.814,4254018.255,-1532.381
462804.814,4253818.255,-1532.065
462804.814,4253618.255,-1534.417
462804.814,4253418.255,-1535.199
462804.814,4253218.255,-1535.638
463004.814,4290018.255,-2178.194
463004.814,4289818.255,-2166.620
463004.814,4289618.255,-2150.680
463004.814,4289418.255,-2131.402
463004.814,4289218.255,-2126.462
463004.814,4289018.255,-2121.580
463004.814,4288818.255,-2112.037
463004.814,4288618.255,-2095.555
463004.814,4288418.255,-2085.735
463004.814,4288218.255,-2067.692
463004.814,4288018.255,-2054.438
463004.814,4287818.255,-2050.808
463004.814,4287618.255,-2054.099
463004.814,4287418.255,-2053.546
463004.814,4287218.255,-2057.922
463004.814,4287018.255,-2060.779
463004.814,4286818.255,-2061.453
463004.814,4286618.255,-2058.312
463004.814,4286418.255,-2058.784
463004.814,4286218.255,-2056.485
463004.814,4286018.255,-2053.316
463004.814,4285818.255,-2049.696
463004.814,4285618.255,-2040.948
463004.814,4285418.255,-2035.832
463004.814,4285218.255,-2030.327
463004.814,4285018.255,-2018.308
463004.814,4284818.255,-2004.971
463004.814,4284618.255,-1989.145
463004.814,4284418.255,-1979.032
463004.814,4284218.255,-1965.330
463004.814,4284018.255,-1959.410
463004.814,4283818.255,-1953.926
463004.814,4283618.255,-1955.339
463004.814,4283418.255,-1945.637
463004.814,4283218.255,-1942.039
463004.814,4283018.255,-1942.154
463004.814,4282818.255,-1933.311
463004.814,4282618.255,-1926.784
463004.814,4282418.255,-1918.009
463004.814,4282218.255,-1919.667
463004.814,4282018.255,-1916.960
463004.814,4281818.255,-1915.379
463004.814,4281618.255,-1913.246
463004.814,4281418.255,-1909.349
463004.814,4281218.255,-1907.998
463004.814,4281018.255,-1906.182
463004.814,4280818.255,-1903.003
463004.814,4280618.255,-1901.208
463004.814,4280418.255,-1898.216
463004.814,4280218.255,-1897.054
463004.814,4280018.255,-1893.125
463004.814,4279818.255,-1887.292
463004.814,4279618.255,-1865.667
463004.814,4279418.255,-1853.381
463004.814,4279218.255,-1861.078
463004.814,4279018.255,-1858.849
463004.814,4278818.255,-1842.269
463004.814,4278618.255,-1827.841
463004.814,4278418.255,-1804.227
463004.814,4278218.255,-1784.134
463004.814,4278018.255,-1773.344
463004.814,4277818.255,-1761.332
463004.814,4277618.255,-1749.130
463004.814,4277418.255,-1737.532
463004.814,4277218.255,-1714.382
463004.814,4277018.255,-1686.027
463004.814,4276818.255,-1676.508
463004.814,4276618.255,-1657.347
463004.814,4276418.255,-1635.250
463004.814,4276218.255,-1605.188
463004.814,4276018.255,-1579.511
463004.814,4275818.255,-1549.284
463004.814,4275618.255,-1507.487
463004.814,4275418.255,-1474.614
463004.814,4275218.255,-1430.410
463004.814,4275018.255,-1391.999
463004.814,4274818.255,-1345.238
463004.814,4274618.255,-1297.404
463004.814,4274418.255,-1249.969
463004.814,4274218.255,-1196.892
463004.814,4274018.255,-1136.476
463004.814,4273818.255,-1086.928
463004.814,4273618.255,-1021.155
463004.814,4273418.255,-958.427
463004.814,4273218.255,-912.476
463004.814,4273018.255,-846.288
463004.814,4272818.255,-780.521
463004.814,4272618.255,-713.463
463004.814,4272418.255,-659.142
463004.814,4272218.255,-596.818
463004.814,4266018.255,-589.704
463004.814,4265818.255,-648.027
463004.814,4265618.255,-699.542
463004.814,4265418.255,-755.460
463004.814,4265218.255,-799.979
463004.814,4265018.255,-846.938
463004.814,4264818.255,-896.962
463004.814,4264618.255,-944.293
463004.814,4264418.255,-992.340
463004.814,4264218.255,-1037.130
463004.814,4264018.255,-1085.038
463004.814,4263818.255,-1129.656
463004.814,4263618.255,-1173.699
463004.814,4263418.255,-1212.702
463004.814,4263218.255,-1243.486
463004.814,4263018.255,-1276.054
463004.814,4262818.255,-1307.727
463004.814,4262618.255,-1335.927
463004.814,4262418.255,-1361.268
463004.814,4262218.255,-1383.337
463004.814,4262018.255,-1403.572
463004.814,4261818.255,-1421.527
463004.814,4261618.255,-1431.672
463004.814,4261418.255,-1450.232
463004.814,4261218.255,-1461.034
463004.814,4261018.255,-1470.898
463004.814,4260818.255,-1482.032
463004.814,4260618.255,-1495.026
463004.814,4260418.255,-1507.537
463004.814,4260218.255,-1523.034
463004.814,4260018.255,-1530.991
463004.814,4259818.255,-1530.561
463004.814,4259618.255,-1534.254
463004.814,4259418.255,-1536.799
463004.814,4259218.255,-1533.689
463004.814,4259018.255,-1534.833
463004.814,4258818.255,-1531.733
463004.814,4258618.255,-1530.016
463004.814,4258418.255,-1529.964
463004.814,4258218.255,-1528.836
463004.814,4258018.255,-1534.964
463004.814,4257818.255,-1536.894
463004.814,4257618.255,-1535.313
463004.814,4257418.255,-1534.864
463004.814,4257218.255,-1533.032
463004.814,4257018.255,-1532.822
463004.814,4256818.255,-1533.442
463004.814,4256618.255,-1533.035
463004.814,4256418.255,-1531.807
463004.814,4256218.255,-1533.127
463004.814,4256018.255,-1533.888
463004.814,4255818.255,-1533.288
463004.814,4255618.255,-1532.165
463004.814,4255418.255,-1532.398
463004.814,4255218.255,-1531.967
463004.814,4255018.255,-1533.949
463004.814,4254818.255,-1534.014
463004.814,4254618.255,-1533.837
463004.814,4254418.255,-1533.153
463004.814,4254218.255,-1532.415
463004.814,4254018.255,-1533.899
463004.814,4253818.255,-1534.940
463004.814,4253618.255,-1534.611
463004.814,4253418.255,-1534.165
463004.814,4253218.255,-1535.467
463204.814,4290018.255,-2174.989
463204.814,4289818.255,-2159.998
463204.814,4289618.255,-2144.418
463204.814,4289418.255,-2134.310
463204.814,4289218.255,-2125.552
463204.814,4289018.255,-2113.736
463204.814,4288818.255,-2108.797
463204.814,4288618.255,-2096.519
463204.814,4288418.255,-2070.258
463204.814,4288218.255,-2058.935
463204.814,4288018.255,-2052.647
463204.814,4287818.255,-2051.542
463204.814,4287618.255,-2051.347
463204.814,4287418.255,-2058.677
463204.814,4287218.255,-2059.643
463204.814,4287018.255,-2063.147
463204.814,4286818.255,-2061.331
463204.814,4286618.255,-2068.202
463204.814,4286418.255,-2064.500
463204.814,4286218.255,-2057.931
463204.814,4286018.255,-2052.512
463204.814,4285818.255,-2046.733
463204.814,4285618.255,-2039.366
463204.814,4285418.255,-2031.983
463204.814,4285218.255,-2018.973
463204.814,4285018.255,-2010.225
463204.814,4284818.255,-1995.792
463204.814,4284618.255,-1979.924
463204.814,4284418.255,-1973.688
463204.814,4284218.255,-1962.853
463204.814,4284018.255,-1955.029
463204.814,4283818.255,-1949.693
463204.814,4283618.255,-1944.296
463204.814,4283418.255,-1942.886
463204.814,4283218.255,-1935.035
463204.814,4283018.255,-1922.611
463204.814,4282818.255,-1924.811
463204.814,4282618.255,-1922.383
463204.814,4282418.255,-1915.371
463204.814,4282218.255,-1914.593
463204.814,4282018.255,-1915.116
463204.814,4281818.255,-1912.450
463204.814,4281618.255,-1909.906
463204.814,4281418.255,-1904.838
463204.814,4281218.255,-1904.473
463204.814,4281018.255,-1902.052
463204.814,4280818.255,-1900.493
463204.814,4280618.255,-1899.152
463204.814,4280418.255,-1896.720
463204.814,4280218.255,-1895.624
463204.814,4280018.255,-1892.551
463204.814,4279818.255,-1889.773
463204.814,4279618.255,-1880.465
463204.814,4279418.255,-1872.692
463204.814,4279218.255,-1867.202
463204.814,4279018.255,-1853.419
463204.814,4278818.255,-1837.369
463204.814,4278618.255,-1820.241
463204.814,4278418.255,-1801.253
463204.814,4278218.255,-1783.679
463204.814,4278018.255,-1771.819
463204.814,4277818.255,-1763.476
463204.814,4277618.255,-1753.029
463204.814,4277418.255,-1734.642
463204.814,4277218.255,-1706.234
463204.814,4277018.255,-1665.482
463204.814,4276818.255,-1650.351
463204.814,4276618.255,-1640.892
463204.814,4276418.255,-1623.317
463204.814,4276218.255,-1595.227
463204.814,4276018.255,-1570.686
463204.814,4275818.255,-1543.413
463204.814,4275618.255,-1507.683
463204.814,4275418.255,-1471.472
463204.814,4275218.255,-1427.243
463204.814,4275018.255,-1384.502
463204.814,4274818.255,-1337.833
463204.814,4274618.255,-1290.605
463204.814,4274418.255,-1242.661
463204.814,4274218.255,-1191.000
463204.814,4274018.255,-1134.814
463204.814,4273818.255,-1089.396
463204.814,4273618.255,-1025.270
463204.814,4273418.255,-952.857
463204.814,4273218.255,-911.724
463204.814,4273018.255,-854.002
463204.814,4272818.255,-795.808
463204.814,4272618.255,-732.837
463204.814,4272418.255,-649.958
463204.814,4272218.255,-568.201
463204.814,4266018.255,-567.230
463204.814,4265818.255,-627.627
463204.814,4265618.255,-677.542
463204.814,4265418.255,-731.082
463204.814,4265218.255,-778.506
463204.814,4265018.255,-833.836
463204.814,4264818.255,-891.401
463204.814,4264618.255,-941.841
463204.814,4264418.255,-972.970
463204.814,4264218.255,-1016.349
463204.814,4264018.255,-1073.237
463204.814,4263818.255,-1123.070
463204.814,4263618.255,-1165.124
463204.814,4263418.255,-1209.288
463204.814,4263218.255,-1244.455
463204.814,4263018.255,-1276.390
463204.814,4262818.255,-1306.971
463204.814,4262618.255,-1330.287
463204.814,4262418.255,-1358.353
463204.814,4262218.255,-1383.909
463204.814,4262018.255,-1403.410
463204.814,4261818.255,-1423.460
463204.814,4261618.255,-1440.398
463204.814,4261418.255,-1454.680
463204.814,4261218.255,-1467.714
463204.814,4261018.255,-1478.870
463204.814,4260818.255,-1489.810
463204.814,4260618.255,-1502.802
463204.814,4260418.255,-1510.989
463204.814,4260218.255,-1523.416
463204.814,4260018.255,-1528.347
463204.814,4259818.255,-1531.500
463204.814,4259618.255,-1533.445
463204.814,4259418.255,-1534.912
463204.814,4259218.255,-1533.268
463204.814,4259018.255,-1531.633
463204.814,4258818.255,-1532.301
463204.814,4258618.255,-1529.390
463204.814,4258418.255,-1531.192
463204.814,4258218.255,-1532.617
463204.814,4258018.255,-1534.256
463204.814,4257818.255,-1536.335
463204.814,4257618.255,-1535.352
463204.814,4257418.255,-1534.576
463204.814,4257218.255,-1534.443
463204.814,4257018.255,-1532.641
