444559.947,4265222.882,-108.358
444559.947,4265172.882,-115.690
444559.947,4265122.882,-125.581
444559.947,4265072.882,-146.561
444559.947,4265022.882,-162.409
444559.947,4264972.882,-175.420
444559.947,4264922.882,-193.744
444559.947,4264872.882,-216.038
444559.947,4264822.882,-235.365
444609.947,4267972.882,-236.490
444609.947,4267922.882,-232.240
444609.947,4267872.882,-212.738
444609.947,4267822.882,-187.025
444609.947,4267772.882,-157.493
444609.947,4267722.882,-120.780
444609.947,4267672.882,-80.828
444609.947,4267622.882,-57.313
444609.947,4267572.882,-43.043
444609.947,4267522.882,-37.095
444609.947,4267472.882,-36.590
444609.947,4267422.882,-36.907
444609.947,4267372.882,-36.905
444609.947,4267322.882,-36.904
444609.947,4267272.882,-36.904
444609.947,4267222.882,-36.903
444609.947,4267172.882,-36.899
444609.947,4267122.882,-36.900
444609.947,4267072.882,-36.896
444609.947,4267022.882,-36.891
444609.947,4266972.882,-36.878
444609.947,4266922.882,-36.881
444609.947,4266872.882,-36.819
444609.947,4266822.882,-36.871
444609.947,4266772.882,-37.027
444609.947,4266722.882,-37.213
444609.947,4266672.882,-37.320
444609.947,4266622.882,-37.425
444609.947,4266572.882,-37.498
444609.947,4266522.882,-37.645
444609.947,4266472.882,-37.756
444609.947,4266422.882,-37.866
444609.947,4266372.882,-37.974
444609.947,4266322.882,-38.083
444609.947,4266272.882,-38.193
444609.947,4266222.882,-38.308
444609.947,4266172.882,-38.415
444609.947,4266122.882,-38.386
444609.947,4266072.882,-38.377
444609.947,4266022.882,-38.441
444609.947,4265972.882,-38.572
444609.947,4265922.882,-37.964
444609.947,4265872.882,-36.802
444609.947,4265822.882,-36.188
444609.947,4265772.882,-35.595
444609.947,4265722.882,-37.181
444609.947,4265672.882,-43.322
444609.947,4265622.882,-55.539
444609.947,4265572.882,-68.365
444609.947,4265522.882,-79.741
444609.947,4265472.882,-96.544
444609.947,4265422.882,-116.025
444609.947,4265372.882,-126.199
444609.947,4265322.882,-119.040
444609.947,4265272.882,-117.516
444609.947,4265222.882,-132.938
444609.947,4265172.882,-143.310
444609.947,4265122.882,-146.303
444609.947,4265072.882,-159.716
444609.947,4265022.882,-182.865
444609.947,4264972.882,-201.028
444609.947,4264922.882,-217.667
444609.947,4264872.882,-235.028
444609.947,4264822.882,-244.190
444659.947,4267872.882,-225.560
444659.947,4267822.882,-189.396
444659.947,4267772.882,-146.453
444659.947,4267722.882,-114.723
444659.947,4267672.882,-90.768
444659.947,4267622.882,-71.642
444659.947,4267572.882,-51.929
444659.947,4267522.882,-38.536
444659.947,4267472.882,-36.213
444659.947,4267422.882,-38.385
444659.947,4267372.882,-38.920
444659.947,4267322.882,-38.774
444659.947,4267272.882,-38.678
444659.947,4267222.882,-38.628
444659.947,4267172.882,-38.763
444659.947,4267122.882,-38.957
444659.947,4267072.882,-39.079
444659.947,4267022.882,-39.109
444659.947,4266972.882,-39.237
444659.947,4266922.882,-39.418
444659.947,4266872.882,-39.529
444659.947,4266822.882,-39.669
444659.947,4266772.882,-39.823
444659.947,4266722.882,-39.987
444659.947,4266672.882,-40.159
444659.947,4266622.882,-40.304
444659.947,4266572.882,-40.491
444659.947,4266522.882,-40.651
444659.947,4266472.882,-41.108
444659.947,4266422.882,-41.758
444659.947,4266372.882,-42.403
444659.947,4266322.882,-43.054
444659.947,4266272.882,-43.578
444659.947,4266222.882,-43.394
444659.947,4266172.882,-42.677
444659.947,4266122.882,-41.187
444659.947,4266072.882,-39.457
444659.947,4266022.882,-40.380
444659.947,4265972.882,-41.850
444659.947,4265922.882,-41.005
444659.947,4265872.882,-40.020
444659.947,4265822.882,-40.944
444659.947,4265772.882,-43.553
444659.947,4265722.882,-50.765
444659.947,4265672.882,-62.396
444659.947,4265622.882,-76.874
444659.947,4265572.882,-91.149
444659.947,4265522.882,-100.883
444659.947,4265472.882,-113.375
444659.947,4265422.882,-131.240
444659.947,4265372.882,-147.169
444659.947,4265322.882,-147.126
444659.947,4265272.882,-145.043
444659.947,4265222.882,-157.998
444659.947,4265172.882,-169.250
444659.947,4265122.882,-173.317
444659.947,4265072.882,-180.977
444659.947,4265022.882,-201.660
444659.947,4264972.882,-221.355
444659.947,4264922.882,-236.921
444709.947,4267872.882,-229.880
444709.947,4267822.882,-180.443
444709.947,4267772.882,-147.303
444709.947,4267722.882,-133.932
444709.947,4267672.882,-119.424
444709.947,4267622.882,-94.561
444709.947,4267572.882,-66.446
444709.947,4267522.882,-52.547
444709.947,4267472.882,-52.946
444709.947,4267422.882,-44.543
444709.947,4267372.882,-39.257
444709.947,4267322.882,-39.103
444709.947,4267272.882,-38.752
444709.947,4267222.882,-38.782
444709.947,4267172.882,-38.862
444709.947,4267122.882,-38.942
444709.947,4267072.882,-39.006
444709.947,4267022.882,-39.089
444709.947,4266972.882,-39.150
444709.947,4266922.882,-39.215
444709.947,4266872.882,-39.310
444709.947,4266822.882,-39.351
444709.947,4266772.882,-39.425
444709.947,4266722.882,-39.484
444709.947,4266672.882,-39.577
444709.947,4266622.882,-39.629
444709.947,4266572.882,-39.710
444709.947,4266522.882,-39.780
444709.947,4266472.882,-39.856
444709.947,4266422.882,-40.537
444709.947,4266372.882,-43.387
444709.947,4266322.882,-47.671
444709.947,4266272.882,-48.143
444709.947,4266222.882,-45.965
444709.947,4266172.882,-43.885
444709.947,4266122.882,-42.437
444709.947,4266072.882,-44.565
444709.947,4266022.882,-49.812
444709.947,4265972.882,-53.084
444709.947,4265922.882,-56.691
444709.947,4265872.882,-58.746
444709.947,4265822.882,-58.975
444709.947,4265772.882,-62.133
444709.947,4265722.882,-67.325
444709.947,4265672.882,-74.835
444709.947,4265622.882,-91.340
444709.947,4265572.882,-111.151
444709.947,4265522.882,-123.202
444709.947,4265472.882,-132.611
444709.947,4265422.882,-147.682
444709.947,4265372.882,-164.625
444709.947,4265322.882,-175.633
444709.947,4265272.882,-175.867
444709.947,4265222.882,-185.523
444709.947,4265172.882,-195.766
444709.947,4265122.882,-202.707
444709.947,4265072.882,-209.941
444709.947,4265022.882,-225.246
444709.947,4264972.882,-242.260
444759.947,4267872.882,-225.200
444759.947,4267822.882,-197.732
444759.947,4267772.882,-183.359
444759.947,4267722.882,-160.785
444759.947,4267672.882,-133.090
444759.947,4267622.882,-101.470
444759.947,4267572.882,-78.712
444759.947,4267522.882,-78.600
444759.947,4267472.882,-79.840
444759.947,4267422.882,-63.238
444759.947,4267372.882,-46.674
444759.947,4267322.882,-39.270
444759.947,4267272.882,-37.812
444759.947,4267222.882,-38.447
444759.947,4267172.882,-38.702
444759.947,4267122.882,-38.948
444759.947,4267072.882,-39.005
444759.947,4267022.882,-39.039
444759.947,4266972.882,-39.064
444759.947,4266922.882,-39.071
444759.947,4266872.882,-38.994
444759.947,4266822.882,-38.798
444759.947,4266772.882,-38.623
444759.947,4266722.882,-38.400
444759.947,4266672.882,-37.823
444759.947,4266622.882,-37.210
444759.947,4266572.882,-37.223
444759.947,4266522.882,-37.905
444759.947,4266472.882,-38.563
444759.947,4266422.882,-40.304
444759.947,4266372.882,-43.876
444759.947,4266322.882,-50.422
444759.947,4266272.882,-59.564
444759.947,4266222.882,-64.278
444759.947,4266172.882,-63.315
444759.947,4266122.882,-60.152
444759.947,4266072.882,-65.644
444759.947,4266022.882,-77.923
444759.947,4265972.882,-82.535
444759.947,4265922.882,-83.548
444759.947,4265872.882,-79.796
444759.947,4265822.882,-76.299
444759.947,4265772.882,-77.573
444759.947,4265722.882,-81.625
444759.947,4265672.882,-83.898
444759.947,4265622.882,-96.219
444759.947,4265572.882,-120.289
444759.947,4265522.882,-141.972
444759.947,4265472.882,-153.799
444759.947,4265422.882,-165.841
444759.947,4265372.882,-181.036
444759.947,4265322.882,-196.688
444759.947,4265272.882,-207.193
444759.947,4265222.882,-214.736
444759.947,4265172.882,-221.990
444759.947,4265122.882,-228.201
444759.947,4265072.882,-232.917
444759.947,4265022.882,-243.120
444809.947,4267872.882,-238.464
444809.947,4267822.882,-222.632
444809.947,4267772.882,-197.018
444809.947,4267722.882,-163.832
444809.947,4267672.882,-132.275
444809.947,4267622.882,-112.181
444809.947,4267572.882,-109.572
444809.947,4267522.882,-111.604
444809.947,4267472.882,-103.468
444809.947,4267422.882,-85.973
444809.947,4267372.882,-66.090
444809.947,4267322.882,-48.406
444809.947,4267272.882,-40.634
444809.947,4267222.882,-39.986
444809.947,4267172.882,-39.907
444809.947,4267122.882,-40.992
444809.947,4267072.882,-41.511
444809.947,4267022.882,-42.593
444809.947,4266972.882,-44.372
444809.947,4266922.882,-45.625
444809.947,4266872.882,-44.719
444809.947,4266822.882,-43.560
444809.947,4266772.882,-43.723
444809.947,4266722.882,-43.297
444809.947,4266672.882,-40.176
444809.947,4266622.882,-37.687
444809.947,4266572.882,-37.951
444809.947,4266522.882,-40.230
444809.947,4266472.882,-42.973
444809.947,4266422.882,-48.918
444809.947,4266372.882,-59.805
444809.947,4266322.882,-71.458
444809.947,4266272.882,-82.727
444809.947,4266222.882,-90.502
444809.947,4266172.882,-89.128
444809.947,4266122.882,-83.241
444809.947,4266072.882,-86.586
444809.947,4266022.882,-103.266
444809.947,4265972.882,-112.979
444809.947,4265922.882,-108.579
444809.947,4265872.882,-96.328
444809.947,4265822.882,-89.520
444809.947,4265772.882,-91.175
444809.947,4265722.882,-101.589
444809.947,4265672.882,-103.976
444809.947,4265622.882,-112.060
444809.947,4265572.882,-131.773
444809.947,4265522.882,-156.471
444809.947,4265472.882,-174.403
444809.947,4265422.882,-186.062
444809.947,4265372.882,-200.164
444809.947,4265322.882,-215.783
444809.947,4265272.882,-229.600
444809.947,4265222.882,-235.860
444809.947,4265172.882,-235.858
444809.947,4265122.882,-241.422
444859.947,4267822.882,-235.661
444859.947,4267772.882,-204.024
444859.947,4267722.882,-175.249
444859.947,4267672.882,-151.353
444859.947,4267622.882,-143.554
444859.947,4267572.882,-143.537
444859.947,4267522.882,-136.820
444859.947,4267472.882,-125.093
444859.947,4267422.882,-107.766
444859.947,4267372.882,-85.660
444859.947,4267322.882,-68.343
444859.947,4267272.882,-58.212
444859.947,4267222.882,-50.103
444859.947,4267172.882,-43.550
444859.947,4267122.882,-40.405
444859.947,4267072.882,-41.280
444859.947,4267022.882,-45.319
444859.947,4266972.882,-50.264
444859.947,4266922.882,-52.033
444859.947,4266872.882,-47.974
444859.947,4266822.882,-44.280
444859.947,4266772.882,-44.710
444859.947,4266722.882,-47.974
444859.947,4266672.882,-47.160
444859.947,4266622.882,-43.248
444859.947,4266572.882,-46.130
444859.947,4266522.882,-54.674
444859.947,4266472.882,-62.126
444859.947,4266422.882,-70.685
444859.947,4266372.882,-81.035
444859.947,4266322.882,-93.035
444859.947,4266272.882,-104.684
444859.947,4266222.882,-114.806
444859.947,4266172.882,-116.800
444859.947,4266122.882,-111.850
444859.947,4266072.882,-113.141
444859.947,4266022.882,-128.214
444859.947,4265972.882,-142.125
444859.947,4265922.882,-132.816
444859.947,4265872.882,-118.289
444859.947,4265822.882,-105.849
444859.947,4265772.882,-108.932
444859.947,4265722.882,-126.335
444859.947,4265672.882,-132.098
444859.947,4265622.882,-137.367
444859.947,4265572.882,-152.874
444859.947,4265522.882,-174.269
444859.947,4265472.882,-194.885
444859.947,4265422.882,-207.131
444859.947,4265372.882,-219.979
444859.947,4265322.882,-234.475
444909.947,4267772.882,-218.621
444909.947,4267722.882,-196.138
444909.947,4267672.882,-178.113
444909.947,4267622.882,-173.871
444909.947,4267572.882,-166.780
444909.947,4267522.882,-159.211
444909.947,4267472.882,-147.712
444909.947,4267422.882,-125.309
444909.947,4267372.882,-102.136
444909.947,4267322.882,-89.972
444909.947,4267272.882,-77.176
444909.947,4267222.882,-71.007
444909.947,4267172.882,-62.445
444909.947,4267122.882,-47.590
444909.947,4267072.882,-39.569
444909.947,4267022.882,-47.664
444909.947,4266972.882,-55.431
444909.947,4266922.882,-59.036
444909.947,4266872.882,-56.238
444909.947,4266822.882,-41.644
444909.947,4266772.882,-48.363
444909.947,4266722.882,-67.339
444909.947,4266672.882,-69.556
444909.947,4266622.882,-67.066
444909.947,4266572.882,-69.695
444909.947,4266522.882,-77.631
444909.947,4266472.882,-85.992
444909.947,4266422.882,-92.316
444909.947,4266372.882,-96.430
444909.947,4266322.882,-111.551
444909.947,4266272.882,-125.424
444909.947,4266222.882,-137.700
444909.947,4266172.882,-145.498
444909.947,4266122.882,-143.179
444909.947,4266072.882,-143.136
444909.947,4266022.882,-151.552
444909.947,4265972.882,-163.716
444909.947,4265922.882,-157.833
444909.947,4265872.882,-144.269
444909.947,4265822.882,-130.932
444909.947,4265772.882,-135.424
444909.947,4265722.882,-152.307
444909.947,4265672.882,-159.408
444909.947,4265622.882,-162.888
444909.947,4265572.882,-177.148
444909.947,4265522.882,-198.815
444909.947,4265472.882,-217.928
444909.947,4265422.882,-227.745
444909.947,4265372.882,-238.902
444959.947,4267772.882,-241.021
444959.947,4267722.882,-221.326
444959.947,4267672.882,-206.565
444959.947,4267622.882,-199.233
444959.947,4267572.882,-189.939
444959.947,4267522.882,-180.709
444959.947,4267472.882,-161.834
444959.947,4267422.882,-140.188
444959.947,4267372.882,-125.424
444959.947,4267322.882,-114.113
444959.947,4267272.882,-97.812
444959.947,4267222.882,-90.918
444959.947,4267172.882,-78.544
444959.947,4267122.882,-60.360
444959.947,4267072.882,-51.033
444959.947,4267022.882,-59.956
444959.947,4266972.882,-75.228
444959.947,4266922.882,-81.656
444959.947,4266872.882,-74.142
444959.947,4266822.882,-61.237
444959.947,4266772.882,-71.946
444959.947,4266722.882,-89.846
444959.947,4266672.882,-92.190
444959.947,4266622.882,-89.690
444959.947,4266572.882,-94.806
444959.947,4266522.882,-100.881
444959.947,4266472.882,-109.068
444959.947,4266422.882,-111.534
444959.947,4266372.882,-109.102
444959.947,4266322.882,-125.626
444959.947,4266272.882,-146.070
444959.947,4266222.882,-157.900
444959.947,4266172.882,-168.131
444959.947,4266122.882,-170.861
444959.947,4266072.882,-171.255
444959.947,4266022.882,-179.269
444959.947,4265972.882,-190.939
444959.947,4265922.882,-187.469
444959.947,4265872.882,-169.298
444959.947,4265822.882,-158.154
444959.947,4265772.882,-164.526
444959.947,4265722.882,-179.954
444959.947,4265672.882,-185.727
444959.947,4265622.882,-189.751
444959.947,4265572.882,-204.201
444959.947,4265522.882,-223.874
444959.947,4265472.882,-236.609
444959.947,4265422.882,-243.470
445009.947,4267772.882,-249.850
445009.947,4267722.882,-243.827
445009.947,4267672.882,-234.432
445009.947,4267622.882,-221.276
445009.947,4267572.882,-210.211
445009.947,4267522.882,-193.493
445009.947,4267472.882,-170.396
445009.947,4267422.882,-156.816
445009.947,4267372.882,-146.285
445009.947,4267322.882,-137.133
445009.947,4267272.882,-121.368
445009.947,4267222.882,-104.224
445009.947,4267172.882,-87.706
445009.947,4267122.882,-76.890
445009.947,4267072.882,-68.822
445009.947,4267022.882,-74.281
445009.947,4266972.882,-91.790
445009.947,4266922.882,-103.006
445009.947,4266872.882,-96.137
445009.947,4266822.882,-87.802
445009.947,4266772.882,-99.798
445009.947,4266722.882,-112.990
445009.947,4266672.882,-111.680
445009.947,4266622.882,-107.828
445009.947,4266572.882,-116.857
445009.947,4266522.882,-123.831
445009.947,4266472.882,-130.369
445009.947,4266422.882,-136.353
445009.947,4266372.882,-138.454
445009.947,4266322.882,-148.661
445009.947,4266272.882,-167.091
445009.947,4266222.882,-177.583
445009.947,4266172.882,-188.165
445009.947,4266122.882,-195.281
445009.947,4266072.882,-200.150
445009.947,4266022.882,-209.015
445009.947,4265972.882,-219.888
445009.947,4265922.882,-218.588
445009.947,4265872.882,-196.626
445009.947,4265822.882,-183.282
445009.947,4265772.882,-189.285
445009.947,4265722.882,-206.214
445009.947,4265672.882,-212.863
445009.947,4265622.882,-217.029
445009.947,4265572.882,-229.113
445009.947,4265522.882,-234.515
445059.947,4267572.882,-233.022
445059.947,4267522.882,-211.631
445059.947,4267472.882,-191.202
445059.947,4267422.882,-181.304
445059.947,4267372.882,-172.313
445059.947,4267322.882,-159.667
445059.947,4267272.882,-141.258
445059.947,4267222.882,-118.190
445059.947,4267172.882,-104.968
445059.947,4267122.882,-98.094
445059.947,4267072.882,-88.644
445059.947,4267022.882,-91.861
445059.947,4266972.882,-107.756
445059.947,4266922.882,-122.816
445059.947,4266872.882,-117.608
445059.947,4266822.882,-112.230
445059.947,4266772.882,-125.712
445059.947,4266722.882,-136.389
445059.947,4266672.882,-131.631
445059.947,4266622.882,-127.492
445059.947,4266572.882,-137.200
445059.947,4266522.882,-145.797
445059.947,4266472.882,-151.309
445059.947,4266422.882,-157.707
445059.947,4266372.882,-164.890
445059.947,4266322.882,-175.954
445059.947,4266272.882,-188.883
445059.947,4266222.882,-198.588
445059.947,4266172.882,-209.286
445059.947,4266122.882,-217.894
445059.947,4266072.882,-223.539
445059.947,4266022.882,-233.286
445059.947,4265872.882,-221.847
445059.947,4265822.882,-202.692
445059.947,4265772.882,-209.318
445059.947,4265722.882,-229.703
445059.947,4265672.882,-238.466
445059.947,4265622.882,-236.707
445109.947,4267572.882,-247.652
445109.947,4267522.882,-234.378
445109.947,4267472.882,-215.862
445109.947,4267422.882,-206.137
445109.947,4267372.882,-196.130
445109.947,4267322.882,-181.295
445109.947,4267272.882,-158.817
445109.947,4267222.882,-142.629
445109.947,4267172.882,-133.646
445109.947,4267122.882,-125.402
445109.947,4267072.882,-116.219
445109.947,4267022.882,-119.522
445109.947,4266972.882,-131.918
445109.947,4266922.882,-144.842
445109.947,4266872.882,-142.555
445109.947,4266822.882,-137.516
445109.947,4266772.882,-148.787
445109.947,4266722.882,-156.312
445109.947,4266672.882,-150.018
445109.947,4266622.882,-147.917
445109.947,4266572.882,-156.997
445109.947,4266522.882,-167.038
445109.947,4266472.882,-172.907
445109.947,4266422.882,-179.525
445109.947,4266372.882,-188.447
445109.947,4266322.882,-201.109
445109.947,4266272.882,-212.071
445109.947,4266222.882,-220.528
445109.947,4266172.882,-230.678
445109.947,4266122.882,-239.399
445109.947,4266072.882,-244.504
445109.947,4265872.882,-242.016
445109.947,4265822.882,-222.002
445109.947,4265772.882,-229.074
445159.947,4267522.882,-246.660
445159.947,4267472.882,-236.241
445159.947,4267422.882,-229.439
445159.947,4267372.882,-217.199
445159.947,4267322.882,-199.421
445159.947,4267272.882,-179.551
445159.947,4267222.882,-170.234
445159.947,4267172.882,-164.009
445159.947,4267122.882,-156.497
445159.947,4267072.882,-145.953
445159.947,4267022.882,-147.392
445159.947,4266972.882,-157.510
445159.947,4266922.882,-167.780
445159.947,4266872.882,-167.061
445159.947,4266822.882,-162.282
445159.947,4266772.882,-169.216
445159.947,4266722.882,-175.463
445159.947,4266672.882,-170.790
445159.947,4266622.882,-169.417
445159.947,4266572.882,-177.312
445159.947,4266522.882,-187.752
445159.947,4266472.882,-195.569
445159.947,4266422.882,-201.262
445159.947,4266372.882,-209.352
445159.947,4266322.882,-220.738
445159.947,4266272.882,-233.485
445159.947,4266222.882,-238.342
445159.947,4265822.882,-239.467
445209.947,4267422.882,-245.702
445209.947,4267372.882,-234.485
445209.947,4267322.882,-217.326
445209.947,4267272.882,-202.923
445209.947,4267222.882,-197.610
445209.947,4267172.882,-194.151
445209.947,4267122.882,-186.357
445209.947,4267072.882,-175.595
445209.947,4267022.882,-175.564
445209.947,4266972.882,-186.496
445209.947,4266922.882,-192.157
445209.947,4266872.882,-189.841
445209.947,4266822.882,-185.869
445209.947,4266772.882,-191.490
445209.947,4266722.882,-196.697
445209.947,4266672.882,-195.050
445209.947,4266622.882,-193.893
445209.947,4266572.882,-198.978
445209.947,4266522.882,-207.580
445209.947,4266472.882,-216.233
445209.947,4266422.882,-222.584
445209.947,4266372.882,-230.302
445209.947,4266322.882,-239.814
445209.947,4266272.882,-245.820
445259.947,4267322.882,-237.559
445259.947,4267272.882,-232.249
445259.947,4267222.882,-226.411
445259.947,4267172.882,-225.276
445259.947,4267122.882,-215.466
445259.947,4267072.882,-202.517
445259.947,4267022.882,-203.836
445259.947,4266972.882,-213.042
445259.947,4266922.882,-214.854
445259.947,4266872.882,-211.639
445259.947,4266822.882,-209.092
445259.947,4266772.882,-213.841
445259.947,4266722.882,-218.547
445259.947,4266672.882,-218.040
445259.947,4266622.882,-218.021
445259.947,4266572.882,-220.576
445259.947,4266522.882,-227.972
445259.947,4266472.882,-236.987
445259.947,4266422.882,-239.375
445309.947,4267122.882,-239.832
445309.947,4267072.882,-231.675
445309.947,4267022.882,-231.980
445309.947,4266972.882,-235.974
445309.947,4266922.882,-236.399
445309.947,4266872.882,-234.944
445309.947,4266822.882,-232.780
445309.947,4266772.882,-236.217
445309.947,4266722.882,-240.209
445309.947,4266672.882,-240.500
445309.947,4266622.882,-240.947
445309.947,4266572.882,-242.977
455209.947,4271522.882,-239.662
455209.947,4271472.882,-236.849
455209.947,4271422.882,-231.744
455209.947,4271372.882,-227.460
455209.947,4271322.882,-232.159
455259.947,4271822.882,-238.144
455259.947,4271772.882,-227.854
455259.947,4271722.882,-222.350
455259.947,4271672.882,-227.386
455259.947,4271622.882,-231.528
455259.947,4271572.882,-227.337
455259.947,4271522.882,-216.738
455259.947,4271472.882,-210.121
455259.947,4271422.882,-206.394
455259.947,4271372.882,-203.688
455259.947,4271322.882,-208.551
455259.947,4271272.882,-221.882
455259.947,4271222.882,-234.458
455259.947,4271172.882,-238.795
455259.947,4271072.882,-244.276
455259.947,4271022.882,-242.940
455309.947,4271922.882,-246.020
455309.947,4271872.882,-234.314
455309.947,4271822.882,-218.943
455309.947,4271772.882,-204.419
455309.947,4271722.882,-195.912
455309.947,4271672.882,-198.892
455309.947,4271622.882,-202.575
455309.947,4271572.882,-204.084
455309.947,4271522.882,-191.288
455309.947,4271472.882,-182.695
455309.947,4271422.882,-177.876
455309.947,4271372.882,-176.260
455309.947,4271322.882,-182.717
455309.947,4271272.882,-192.597
455309.947,4271222.882,-205.341
455309.947,4271172.882,-222.368
455309.947,4271122.882,-231.064
455309.947,4271072.882,-223.613
455309.947,4271022.882,-222.459
455309.947,4270972.882,-235.699
455359.947,4271972.882,-235.142
455359.947,4271922.882,-222.686
455359.947,4271872.882,-210.591
455359.947,4271822.882,-195.585
455359.947,4271772.882,-178.369
455359.947,4271722.882,-168.113
455359.947,4271672.882,-167.992
455359.947,4271622.882,-171.073
455359.947,4271572.882,-170.128
455359.947,4271522.882,-159.627
455359.947,4271472.882,-154.176
455359.947,4271422.882,-149.375
455359.947,4271372.882,-147.776
455359.947,4271322.882,-152.257
455359.947,4271272.882,-162.672
455359.947,4271222.882,-179.874
455359.947,4271172.882,-197.882
455359.947,4271122.882,-205.051
455359.947,4271072.882,-199.702
455359.947,4271022.882,-198.986
455359.947,4270972.882,-210.217
455359.947,4270922.882,-222.850
455359.947,4270872.882,-239.669
455409.947,4272022.882,-227.591
455409.947,4271972.882,-210.637
455409.947,4271922.882,-198.123
455409.947,4271872.882,-187.564
455409.947,4271822.882,-170.715
455409.947,4271772.882,-151.821
455409.947,4271722.882,-144.049
455409.947,4271672.882,-141.492
455409.947,4271622.882,-140.770
455409.947,4271572.882,-134.018
455409.947,4271522.882,-125.094
455409.947,4271472.882,-126.913
455409.947,4271422.882,-125.014
455409.947,4271372.882,-126.761
455409.947,4271322.882,-128.414
455409.947,4271272.882,-133.837
455409.947,4271222.882,-151.889
455409.947,4271172.882,-169.018
455409.947,4271122.882,-174.458
455409.947,4271072.882,-171.969
455409.947,4271022.882,-171.428
455409.947,4270972.882,-181.310
455409.947,4270922.882,-194.340
455409.947,4270872.882,-213.266
455409.947,4270822.882,-234.515
455459.947,4272122.882,-242.330
455459.947,4272072.882,-227.306
455459.947,4272022.882,-207.300
455459.947,4271972.882,-185.648
455459.947,4271922.882,-165.361
455459.947,4271872.882,-153.618
455459.947,4271822.882,-141.219
455459.947,4271772.882,-132.874
455459.947,4271722.882,-128.635
455459.947,4271672.882,-125.212
455459.947,4271622.882,-121.840
455459.947,4271572.882,-117.421
455459.947,4271522.882,-113.683
455459.947,4271472.882,-113.929
455459.947,4271422.882,-112.245
455459.947,4271372.882,-113.672
455459.947,4271322.882,-114.580
455459.947,4271272.882,-115.521
455459.947,4271222.882,-126.971
455459.947,4271172.882,-139.964
455459.947,4271122.882,-141.309
455459.947,4271072.882,-132.673
455459.947,4271022.882,-138.458
455459.947,4270972.882,-154.587
455459.947,4270922.882,-168.787
455459.947,4270872.882,-189.459
455459.947,4270822.882,-216.464
455509.947,4272172.882,-247.780
455509.947,4272122.882,-234.390
455509.947,4272072.882,-208.825
455509.947,4272022.882,-181.839
455509.947,4271972.882,-155.384
455509.947,4271922.882,-137.998
455509.947,4271872.882,-131.361
455509.947,4271822.882,-126.404
455509.947,4271772.882,-121.952
455509.947,4271722.882,-118.554
455509.947,4271672.882,-115.621
455509.947,4271622.882,-114.300
455509.947,4271572.882,-113.652
455509.947,4271522.882,-111.422
455509.947,4271472.882,-108.707
455509.947,4271422.882,-109.717
455509.947,4271372.882,-111.307
455509.947,4271322.882,-110.206
455509.947,4271272.882,-111.571
455509.947,4271222.882,-115.634
455509.947,4271172.882,-121.182
455509.947,4271122.882,-115.610
455509.947,4271072.882,-105.346
455509.947,4271022.882,-119.041
455509.947,4270972.882,-136.379
455509.947,4270922.882,-150.083
455509.947,4270872.882,-171.585
455509.947,4270822.882,-200.097
455509.947,4270772.882,-228.679
455559.947,4272372.882,-234.656
455559.947,4272322.882,-228.298
455559.947,4272272.882,-228.474
455559.947,4272222.882,-235.548
455559.947,4272172.882,-231.611
455559.947,4272122.882,-210.526
455559.947,4272072.882,-186.570
455559.947,4272022.882,-160.859
455559.947,4271972.882,-138.538
455559.947,4271922.882,-124.944
455559.947,4271872.882,-121.310
455559.947,4271822.882,-118.596
455559.947,4271772.882,-115.721
455559.947,4271722.882,-114.512
455559.947,4271672.882,-113.887
455559.947,4271622.882,-113.323
455559.947,4271572.882,-111.339
455559.947,4271522.882,-106.613
455559.947,4271472.882,-103.814
455559.947,4271422.882,-106.661
455559.947,4271372.882,-109.664
455559.947,4271322.882,-109.181
455559.947,4271272.882,-110.377
455559.947,4271222.882,-111.437
455559.947,4271172.882,-112.076
455559.947,4271122.882,-104.134
455559.947,4271072.882,-99.728
455559.947,4271022.882,-116.695
455559.947,4270972.882,-133.427
455559.947,4270922.882,-149.729
455559.947,4270872.882,-163.160
455559.947,4270822.882,-181.200
455559.947,4270772.882,-209.501
455609.947,4272472.882,-236.634
455609.947,4272422.882,-219.399
455609.947,4272372.882,-204.070
455609.947,4272322.882,-196.265
455609.947,4272272.882,-199.170
455609.947,4272222.882,-206.182
455609.947,4272172.882,-203.975
455609.947,4272122.882,-187.288
455609.947,4272072.882,-162.270
455609.947,4272022.882,-139.378
455609.947,4271972.882,-125.239
455609.947,4271922.882,-118.604
455609.947,4271872.882,-115.691
455609.947,4271822.882,-114.294
455609.947,4271772.882,-113.608
455609.947,4271722.882,-113.453
455609.947,4271672.882,-111.906
455609.947,4271622.882,-110.771
455609.947,4271572.882,-108.841
455609.947,4271522.882,-105.352
455609.947,4271472.882,-103.219
455609.947,4271422.882,-103.602
455609.947,4271372.882,-105.574
455609.947,4271322.882,-108.166
455609.947,4271272.882,-108.586
455609.947,4271222.882,-107.390
455609.947,4271172.882,-104.597
455609.947,4271122.882,-98.370
455609.947,4271072.882,-100.910
455609.947,4271022.882,-121.385
455609.947,4270972.882,-148.268
455609.947,4270922.882,-170.037
455609.947,4270872.882,-179.207
455609.947,4270822.882,-186.585
455609.947,4270772.882,-203.963
455609.947,4270722.882,-230.066
455659.947,4272572.882,-238.170
455659.947,4272522.882,-229.842
455659.947,4272472.882,-211.443
455659.947,4272422.882,-194.651
455659.947,4272372.882,-178.799
455659.947,4272322.882,-167.176
455659.947,4272272.882,-169.365
455659.947,4272222.882,-177.072
455659.947,4272172.882,-175.489
455659.947,4272122.882,-161.908
455659.947,4272072.882,-138.900
455659.947,4272022.882,-122.328
455659.947,4271972.882,-116.351
455659.947,4271922.882,-113.768
455659.947,4271872.882,-113.648
455659.947,4271822.882,-113.366
455659.947,4271772.882,-111.785
455659.947,4271722.882,-110.251
455659.947,4271672.882,-107.513
455659.947,4271622.882,-105.844
455659.947,4271572.882,-106.101
455659.947,4271522.882,-104.035
455659.947,4271472.882,-102.713
455659.947,4271422.882,-102.316
455659.947,4271372.882,-103.149
455659.947,4271322.882,-104.025
455659.947,4271272.882,-104.326
455659.947,4271222.882,-104.344
455659.947,4271172.882,-101.979
455659.947,4271122.882,-99.569
455659.947,4271072.882,-107.364
455659.947,4271022.882,-133.702
455659.947,4270972.882,-164.028
455659.947,4270922.882,-190.475
455659.947,4270872.882,-206.962
455659.947,4270822.882,-211.201
455659.947,4270772.882,-216.831
455659.947,4270722.882,-234.381
455709.947,4272572.882,-226.774
455709.947,4272522.882,-206.541
455709.947,4272472.882,-187.221
455709.947,4272422.882,-169.163
455709.947,4272372.882,-152.358
455709.947,4272322.882,-140.009
455709.947,4272272.882,-140.232
455709.947,4272222.882,-146.739
455709.947,4272172.882,-144.157
455709.947,4272122.882,-131.383
455709.947,4272072.882,-115.951
455709.947,4272022.882,-112.396
455709.947,4271972.882,-112.218
455709.947,4271922.882,-110.539
455709.947,4271872.882,-112.091
455709.947,4271822.882,-110.950
455709.947,4271772.882,-108.957
455709.947,4271722.882,-106.989
455709.947,4271672.882,-105.043
455709.947,4271622.882,-102.092
455709.947,4271572.882,-103.875
455709.947,4271522.882,-102.679
455709.947,4271472.882,-101.237
455709.947,4271422.882,-101.408
455709.947,4271372.882,-102.254
455709.947,4271322.882,-102.259
455709.947,4271272.882,-102.812
455709.947,4271222.882,-103.110
455709.947,4271172.882,-101.518
455709.947,4271122.882,-103.891
455709.947,4271072.882,-120.375
455709.947,4271022.882,-149.514
455709.947,4270972.882,-176.861
455709.947,4270922.882,-201.903
455709.947,4270872.882,-227.603
455709.947,4270822.882,-240.717
455709.947,4270772.882,-244.591
455759.947,4272622.882,-228.466
455759.947,4272572.882,-202.197
455759.947,4272522.882,-179.814
455759.947,4272472.882,-163.139
455759.947,4272422.882,-143.022
455759.947,4272372.882,-125.375
455759.947,4272322.882,-112.780
455759.947,4272272.882,-116.042
455759.947,4272222.882,-123.316
455759.947,4272172.882,-118.912
455759.947,4272122.882,-110.916
455759.947,4272072.882,-105.962
455759.947,4272022.882,-106.029
455759.947,4271972.882,-106.645
455759.947,4271922.882,-107.375
455759.947,4271872.882,-109.297
455759.947,4271822.882,-108.499
455759.947,4271772.882,-107.867
455759.947,4271722.882,-106.856
455759.947,4271672.882,-105.013
455759.947,4271622.882,-104.095
455759.947,4271572.882,-102.879
455759.947,4271522.882,-101.744
455759.947,4271472.882,-101.046
455759.947,4271422.882,-101.471
455759.947,4271372.882,-101.683
455759.947,4271322.882,-101.989
455759.947,4271272.882,-101.545
455759.947,4271222.882,-101.095
455759.947,4271172.882,-102.135
455759.947,4271122.882,-107.776
455759.947,4271072.882,-127.678
455759.947,4271022.882,-157.671
455759.947,4270972.882,-185.638
455759.947,4270922.882,-212.461
455759.947,4270872.882,-237.497
455809.947,4272672.882,-235.005
455809.947,4272622.882,-206.486
455809.947,4272572.882,-180.362
455809.947,4272522.882,-155.485
455809.947,4272472.882,-137.875
455809.947,4272422.882,-118.381
455809.947,4272372.882,-102.793
455809.947,4272322.882,-97.201
455809.947,4272272.882,-103.402
455809.947,4272222.882,-110.604
455809.947,4272172.882,-109.662
455809.947,4272122.882,-105.169
455809.947,4272072.882,-101.915
455809.947,4272022.882,-101.180
455809.947,4271972.882,-101.762
455809.947,4271922.882,-103.692
455809.947,4271872.882,-105.616
455809.947,4271822.882,-106.816
455809.947,4271772.882,-106.691
455809.947,4271722.882,-105.181
455809.947,4271672.882,-103.050
455809.947,4271622.882,-102.349
455809.947,4271572.882,-101.383
455809.947,4271522.882,-100.472
455809.947,4271472.882,-99.979
455809.947,4271422.882,-99.857
455809.947,4271372.882,-99.534
455809.947,4271322.882,-100.283
455809.947,4271272.882,-99.523
455809.947,4271222.882,-98.833
455809.947,4271172.882,-100.758
455809.947,4271122.882,-105.497
455809.947,4271072.882,-122.139
455809.947,4271022.882,-153.155
455809.947,4270972.882,-183.463
455809.947,4270922.882,-211.057
455809.947,4270872.882,-237.897
455859.947,4272722.882,-238.888
455859.947,4272672.882,-216.608
455859.947,4272622.882,-184.803
455859.947,4272572.882,-160.846
455859.947,4272522.882,-137.148
455859.947,4272472.882,-119.925
455859.947,4272422.882,-104.239
455859.947,4272372.882,-94.139
455859.947,4272322.882,-97.129
455859.947,4272272.882,-100.257
455859.947,4272222.882,-103.943
455859.947,4272172.882,-104.429
455859.947,4272122.882,-100.308
455859.947,4272072.882,-99.146
455859.947,4272022.882,-98.453
455859.947,4271972.882,-98.793
455859.947,4271922.882,-100.510
455859.947,4271872.882,-101.493
455859.947,4271822.882,-103.771
455859.947,4271772.882,-104.133
455859.947,4271722.882,-102.866
455859.947,4271672.882,-101.359
455859.947,4271622.882,-100.815
455859.947,4271572.882,-100.000
455859.947,4271522.882,-98.824
455859.947,4271472.882,-98.454
455859.947,4271422.882,-98.188
455859.947,4271372.882,-98.178
455859.947,4271322.882,-98.918
455859.947,4271272.882,-98.979
455859.947,4271222.882,-98.946
455859.947,4271172.882,-100.422
455859.947,4271122.882,-103.745
455859.947,4271072.882,-113.721
455859.947,4271022.882,-140.981
455859.947,4270972.882,-173.556
455859.947,4270922.882,-201.742
455859.947,4270872.882,-229.771
455909.947,4272772.882,-247.620
455909.947,4272722.882,-229.628
455909.947,4272672.882,-200.302
455909.947,4272622.882,-170.066
455909.947,4272572.882,-142.810
455909.947,4272522.882,-121.978
455909.947,4272472.882,-106.679
455909.947,4272422.882,-103.699
455909.947,4272372.882,-98.431
455909.947,4272322.882,-96.673
455909.947,4272272.882,-94.884
455909.947,4272222.882,-98.992
455909.947,4272172.882,-100.745
455909.947,4272122.882,-100.804
455909.947,4272072.882,-99.527
455909.947,4272022.882,-96.584
455909.947,4271972.882,-95.877
455909.947,4271922.882,-96.225
455909.947,4271872.882,-97.773
455909.947,4271822.882,-100.021
455909.947,4271772.882,-100.856
455909.947,4271722.882,-100.462
455909.947,4271672.882,-99.467
455909.947,4271622.882,-98.926
455909.947,4271572.882,-98.352
455909.947,4271522.882,-97.406
455909.947,4271472.882,-97.296
455909.947,4271422.882,-97.782
455909.947,4271372.882,-98.058
455909.947,4271322.882,-98.033
455909.947,4271272.882,-97.255
455909.947,4271222.882,-97.655
455909.947,4271172.882,-99.933
455909.947,4271122.882,-102.564
455909.947,4271072.882,-110.078
455909.947,4271022.882,-138.182
455909.947,4270972.882,-173.087
455909.947,4270922.882,-204.789
455909.947,4270872.882,-231.638
455959.947,4272772.882,-235.194
455959.947,4272722.882,-218.257
455959.947,4272672.882,-186.386
455959.947,4272622.882,-157.423
455959.947,4272572.882,-132.811
455959.947,4272522.882,-113.408
455959.947,4272472.882,-96.372
455959.947,4272422.882,-98.759
455959.947,4272372.882,-98.765
455959.947,4272322.882,-96.227
455959.947,4272272.882,-94.133
455959.947,4272222.882,-96.490
455959.947,4272172.882,-98.135
455959.947,4272122.882,-98.237
455959.947,4272072.882,-96.250
455959.947,4272022.882,-94.399
455959.947,4271972.882,-93.985
455959.947,4271922.882,-93.860
455959.947,4271872.882,-94.285
455959.947,4271822.882,-96.031
455959.947,4271772.882,-97.334
455959.947,4271722.882,-97.401
455959.947,4271672.882,-96.170
455959.947,4271622.882,-95.995
455959.947,4271572.882,-96.110
455959.947,4271522.882,-95.715
455959.947,4271472.882,-96.498
455959.947,4271422.882,-96.475
455959.947,4271372.882,-96.751
455959.947,4271322.882,-96.928
455959.947,4271272.882,-96.601
455959.947,4271222.882,-97.167
455959.947,4271172.882,-99.426
455959.947,4271122.882,-103.205
455959.947,4271072.882,-113.715
455959.947,4271022.882,-140.184
455959.947,4270972.882,-169.402
455959.947,4270922.882,-197.379
455959.947,4270872.882,-223.657
456009.947,4272772.882,-234.147
456009.947,4272722.882,-214.057
456009.947,4272672.882,-182.467
456009.947,4272622.882,-153.353
456009.947,4272572.882,-130.853
456009.947,4272522.882,-114.255
456009.947,4272472.882,-101.061
456009.947,4272422.882,-93.399
456009.947,4272372.882,-94.223
456009.947,4272322.882,-96.362
456009.947,4272272.882,-95.851
456009.947,4272222.882,-94.909
456009.947,4272172.882,-95.385
456009.947,4272122.882,-95.317
456009.947,4272072.882,-93.700
456009.947,4272022.882,-92.334
456009.947,4271972.882,-91.808
456009.947,4271922.882,-91.614
456009.947,4271872.882,-91.118
456009.947,4271822.882,-91.579
456009.947,4271772.882,-91.804
456009.947,4271722.882,-90.968
456009.947,4271672.882,-89.434
456009.947,4271622.882,-89.470
456009.947,4271572.882,-92.453
456009.947,4271522.882,-93.627
456009.947,4271472.882,-94.944
456009.947,4271422.882,-94.995
456009.947,4271372.882,-94.895
456009.947,4271322.882,-95.181
456009.947,4271272.882,-95.533
456009.947,4271222.882,-97.412
456009.947,4271172.882,-99.541
456009.947,4271122.882,-102.840
456009.947,4271072.882,-110.679
456009.947,4271022.882,-131.613
456009.947,4270972.882,-157.325
456009.947,4270922.882,-176.314
456009.947,4270872.882,-200.775
456009.947,4270822.882,-229.199
456059.947,4272772.882,-242.698
456059.947,4272722.882,-223.103
456059.947,4272672.882,-194.091
456059.947,4272622.882,-166.568
456059.947,4272572.882,-139.097
456059.947,4272522.882,-116.361
456059.947,4272472.882,-105.957
456059.947,4272422.882,-98.194
456059.947,4272372.882,-94.102
456059.947,4272322.882,-95.632
456059.947,4272272.882,-95.621
456059.947,4272222.882,-94.133
456059.947,4272172.882,-93.310
456059.947,4272122.882,-92.398
456059.947,4272072.882,-91.135
456059.947,4272022.882,-89.705
456059.947,4271972.882,-89.049
456059.947,4271922.882,-88.790
456059.947,4271872.882,-86.612
456059.947,4271822.882,-84.306
456059.947,4271772.882,-79.672
456059.947,4271722.882,-78.083
456059.947,4271672.882,-80.123
456059.947,4271622.882,-80.436
456059.947,4271572.882,-86.398
456059.947,4271522.882,-90.502
456059.947,4271472.882,-92.598
456059.947,4271422.882,-93.443
456059.947,4271372.882,-93.385
456059.947,4271322.882,-93.577
456059.947,4271272.882,-94.217
456059.947,4271222.882,-95.988
456059.947,4271172.882,-97.924
456059.947,4271122.882,-100.509
456059.947,4271072.882,-103.897
456059.947,4271022.882,-114.687
456059.947,4270972.882,-135.979
456059.947,4270922.882,-157.181
456059.947,4270872.882,-179.317
456059.947,4270822.882,-203.055
456059.947,4270772.882,-226.721
456059.947,4270722.882,-238.742
456109.947,4272722.882,-239.675
456109.947,4272672.882,-215.949
456109.947,4272622.882,-187.226
456109.947,4272572.882,-155.348
456109.947,4272522.882,-123.583
456109.947,4272472.882,-98.096
456109.947,4272422.882,-99.495
456109.947,4272372.882,-99.681
456109.947,4272322.882,-97.437
456109.947,4272272.882,-95.493
456109.947,4272222.882,-94.175
456109.947,4272172.882,-92.614
456109.947,4272122.882,-90.539
456109.947,4272072.882,-88.081
456109.947,4272022.882,-85.047
456109.947,4271972.882,-84.069
456109.947,4271922.882,-82.666
456109.947,4271872.882,-77.975
456109.947,4271822.882,-74.537
456109.947,4271772.882,-70.546
456109.947,4271722.882,-68.803
456109.947,4271672.882,-70.208
456109.947,4271622.882,-71.197
456109.947,4271572.882,-77.932
456109.947,4271522.882,-86.136
456109.947,4271472.882,-90.310
456109.947,4271422.882,-91.962
456109.947,4271372.882,-92.212
456109.947,4271322.882,-92.497
456109.947,4271272.882,-93.514
456109.947,4271222.882,-95.298
456109.947,4271172.882,-96.517
456109.947,4271122.882,-98.018
456109.947,4271072.882,-100.452
456109.947,4271022.882,-103.765
456109.947,4270972.882,-114.609
456109.947,4270922.882,-130.462
456109.947,4270872.882,-150.096
456109.947,4270822.882,-169.160
456109.947,4270772.882,-200.134
456109.947,4270722.882,-237.103
456159.947,4272672.882,-236.400
456159.947,4272622.882,-206.393
456159.947,4272572.882,-172.874
456159.947,4272522.882,-138.108
456159.947,4272472.882,-102.873
456159.947,4272422.882,-98.791
456159.947,4272372.882,-101.284
456159.947,4272322.882,-99.289
456159.947,4272272.882,-97.664
456159.947,4272222.882,-95.761
456159.947,4272172.882,-93.581
456159.947,4272122.882,-91.437
456159.947,4272072.882,-88.444
456159.947,4272022.882,-84.060
456159.947,4271972.882,-77.924
456159.947,4271922.882,-72.110
456159.947,4271872.882,-70.009
456159.947,4271822.882,-68.419
456159.947,4271772.882,-66.427
456159.947,4271722.882,-64.120
456159.947,4271672.882,-63.999
456159.947,4271622.882,-64.671
456159.947,4271572.882,-68.033
456159.947,4271522.882,-79.297
456159.947,4271472.882,-87.953
456159.947,4271422.882,-90.105
456159.947,4271372.882,-90.769
456159.947,4271322.882,-91.007
456159.947,4271272.882,-91.804
456159.947,4271222.882,-93.331
456159.947,4271172.882,-94.456
456159.947,4271122.882,-95.521
456159.947,4271072.882,-97.196
456159.947,4271022.882,-99.442
456159.947,4270972.882,-100.373
456159.947,4270922.882,-106.780
456159.947,4270872.882,-126.246
456159.947,4270822.882,-155.703
456159.947,4270772.882,-189.920
456159.947,4270722.882,-223.290
456209.947,4272622.882,-223.936
456209.947,4272572.882,-189.164
456209.947,4272522.882,-157.424
456209.947,4272472.882,-128.295
456209.947,4272422.882,-112.181
456209.947,4272372.882,-106.598
456209.947,4272322.882,-102.774
456209.947,4272272.882,-99.809
456209.947,4272222.882,-97.276
456209.947,4272172.882,-94.614
456209.947,4272122.882,-92.325
456209.947,4272072.882,-89.600
456209.947,4272022.882,-85.327
456209.947,4271972.882,-77.650
456209.947,4271922.882,-70.238
456209.947,4271872.882,-65.096
456209.947,4271822.882,-64.474
456209.947,4271772.882,-63.429
456209.947,4271722.882,-62.056
456209.947,4271672.882,-61.198
456209.947,4271622.882,-61.737
456209.947,4271572.882,-66.809
456209.947,4271522.882,-78.151
456209.947,4271472.882,-85.338
456209.947,4271422.882,-87.561
456209.947,4271372.882,-88.453
456209.947,4271322.882,-89.209
456209.947,4271272.882,-90.252
456209.947,4271222.882,-91.605
456209.947,4271172.882,-92.810
456209.947,4271122.882,-93.793
456209.947,4271072.882,-94.741
456209.947,4271022.882,-96.004
456209.947,4270972.882,-95.771
456209.947,4270922.882,-97.945
456209.947,4270872.882,-113.727
456209.947,4270822.882,-145.634
456209.947,4270772.882,-181.210
456209.947,4270722.882,-219.754
456259.947,4272572.882,-209.341
456259.947,4272522.882,-180.477
456259.947,4272472.882,-154.506
456259.947,4272422.882,-131.217
456259.947,4272372.882,-114.320
456259.947,4272322.882,-106.567
456259.947,4272272.882,-101.219
456259.947,4272222.882,-98.998
456259.947,4272172.882,-95.945
456259.947,4272122.882,-92.858
456259.947,4272072.882,-89.713
456259.947,4272022.882,-86.017
456259.947,4271972.882,-80.059
456259.947,4271922.882,-69.943
456259.947,4271872.882,-62.003
456259.947,4271822.882,-61.311
456259.947,4271772.882,-60.510
456259.947,4271722.882,-59.766
456259.947,4271672.882,-59.036
456259.947,4271622.882,-59.547
456259.947,4271572.882,-65.228
456259.947,4271522.882,-76.935
456259.947,4271472.882,-83.590
456259.947,4271422.882,-85.634
456259.947,4271372.882,-86.677
456259.947,4271322.882,-87.521
456259.947,4271272.882,-88.525
456259.947,4271222.882,-89.840
456259.947,4271172.882,-91.078
456259.947,4271122.882,-91.910
456259.947,4271072.882,-92.778
456259.947,4271022.882,-93.659
456259.947,4270972.882,-94.906
456259.947,4270922.882,-97.206
456259.947,4270872.882,-111.724
456259.947,4270822.882,-145.160
456259.947,4270772.882,-185.773
456259.947,4270722.882,-227.197
456309.947,4272572.882,-229.051
456309.947,4272522.882,-201.283
456309.947,4272472.882,-174.671
456309.947,4272422.882,-147.293
456309.947,4272372.882,-121.207
456309.947,4272322.882,-108.812
456309.947,4272272.882,-104.111
456309.947,4272222.882,-101.419
456309.947,4272172.882,-97.465
456309.947,4272122.882,-93.129
456309.947,4272072.882,-89.566
456309.947,4272022.882,-85.926
456309.947,4271972.882,-79.979
456309.947,4271922.882,-68.173
456309.947,4271872.882,-60.700
456309.947,4271822.882,-58.845
456309.947,4271772.882,-57.706
456309.947,4271722.882,-57.564
456309.947,4271672.882,-57.051
456309.947,4271622.882,-56.800
456309.947,4271572.882,-62.477
456309.947,4271522.882,-74.762
456309.947,4271472.882,-81.765
456309.947,4271422.882,-83.583
456309.947,4271372.882,-84.710
456309.947,4271322.882,-85.558
456309.947,4271272.882,-86.369
456309.947,4271222.882,-87.771
456309.947,4271172.882,-89.415
456309.947,4271122.882,-90.703
456309.947,4271072.882,-91.444
456309.947,4271022.882,-93.413
456309.947,4270972.882,-96.942
456309.947,4270922.882,-106.822
456309.947,4270872.882,-131.477
456309.947,4270822.882,-164.944
456309.947,4270772.882,-203.414
456309.947,4270722.882,-241.392
456359.947,4272572.882,-233.825
456359.947,4272522.882,-213.614
456359.947,4272472.882,-182.227
456359.947,4272422.882,-152.530
456359.947,4272372.882,-126.723
456359.947,4272322.882,-111.061
456359.947,4272272.882,-104.127
456359.947,4272222.882,-101.716
456359.947,4272172.882,-97.858
456359.947,4272122.882,-93.265
456359.947,4272072.882,-89.397
456359.947,4272022.882,-85.568
456359.947,4271972.882,-80.771
456359.947,4271922.882,-72.572
456359.947,4271872.882,-65.075
456359.947,4271822.882,-60.092
456359.947,4271772.882,-57.833
456359.947,4271722.882,-56.347
456359.947,4271672.882,-55.412
456359.947,4271622.882,-54.067
456359.947,4271572.882,-59.653
456359.947,4271522.882,-72.679
456359.947,4271472.882,-79.336
456359.947,4271422.882,-80.800
456359.947,4271372.882,-82.091
456359.947,4271322.882,-83.431
456359.947,4271272.882,-84.678
456359.947,4271222.882,-85.800
456359.947,4271172.882,-86.934
456359.947,4271122.882,-88.286
456359.947,4271072.882,-90.050
456359.947,4271022.882,-92.013
456359.947,4270972.882,-95.092
456359.947,4270922.882,-108.287
456359.947,4270872.882,-139.971
456359.947,4270822.882,-174.306
456359.947,4270772.882,-206.742
456409.947,4272572.882,-241.269
456409.947,4272522.882,-221.000
456409.947,4272472.882,-192.588
456409.947,4272422.882,-165.615
456409.947,4272372.882,-140.372
456409.947,4272322.882,-115.653
456409.947,4272272.882,-104.275
456409.947,4272222.882,-100.809
456409.947,4272172.882,-97.066
456409.947,4272122.882,-92.927
456409.947,4272072.882,-88.975
456409.947,4272022.882,-85.013
456409.947,4271972.882,-81.435
456409.947,4271922.882,-76.876
456409.947,4271872.882,-71.351
456409.947,4271822.882,-66.562
456409.947,4271772.882,-63.395
456409.947,4271722.882,-59.063
456409.947,4271672.882,-54.474
456409.947,4271622.882,-53.298
456409.947,4271572.882,-58.565
456409.947,4271522.882,-69.498
456409.947,4271472.882,-76.361
