551253.711,4428881.996,-163.567
551253.711,4428781.996,-167.905
551253.711,4428681.996,-172.778
551253.711,4428581.996,-179.008
551253.711,4428481.996,-186.377
551253.711,4428381.996,-193.865
551253.711,4428281.996,-199.517
551253.711,4428181.996,-203.459
551253.711,4428081.996,-207.926
551253.711,4427981.996,-213.851
551253.711,4427881.996,-221.215
551253.711,4427781.996,-229.631
551253.711,4427681.996,-237.720
551253.711,4427581.996,-245.344
551253.711,4427481.996,-252.127
551253.711,4427381.996,-261.948
551253.711,4427281.996,-274.635
551253.711,4427181.996,-294.525
551253.711,4427081.996,-321.078
551253.711,4426981.996,-347.434
551253.711,4426881.996,-373.926
551253.711,4426781.996,-393.551
551253.711,4426681.996,-414.289
551253.711,4426581.996,-441.911
551253.711,4426481.996,-464.106
551253.711,4426381.996,-485.860
551253.711,4426281.996,-509.518
551253.711,4426181.996,-525.932
551253.711,4426081.996,-540.827
551253.711,4425981.996,-554.218
551253.711,4425881.996,-563.716
551253.711,4425781.996,-564.926
551253.711,4425681.996,-560.934
551253.711,4425581.996,-572.542
551253.711,4425481.996,-598.662
551253.711,4425381.996,-624.692
551253.711,4425281.996,-642.184
551253.711,4425181.996,-648.903
551253.711,4425081.996,-651.023
551253.711,4424981.996,-652.830
551253.711,4424881.996,-654.434
551253.711,4424781.996,-657.504
551253.711,4424681.996,-660.909
551253.711,4424581.996,-664.357
551253.711,4424481.996,-667.041
551253.711,4424381.996,-669.865
551253.711,4424281.996,-672.489
551253.711,4424181.996,-675.063
551253.711,4424081.996,-678.078
551253.711,4423981.996,-680.654
551253.711,4423881.996,-682.085
551253.711,4423781.996,-683.990
551253.711,4423681.996,-686.236
551253.711,4423581.996,-688.477
551253.711,4423481.996,-690.684
551253.711,4423381.996,-693.029
551253.711,4423281.996,-695.241
551253.711,4423181.996,-697.224
551253.711,4423081.996,-698.763
551253.711,4422981.996,-699.206
551253.711,4407181.996,-678.563
551253.711,4407081.996,-658.007
551253.711,4406981.996,-617.977
551253.711,4406881.996,-576.738
551253.711,4406781.996,-533.890
551253.711,4406681.996,-500.767
551253.711,4406581.996,-480.869
551253.711,4406481.996,-471.231
551253.711,4406381.996,-467.714
551253.711,4406281.996,-467.215
551253.711,4406181.996,-468.100
551253.711,4406081.996,-469.704
551253.711,4405981.996,-472.752
551253.711,4405881.996,-477.927
551253.711,4405781.996,-482.812
551253.711,4405681.996,-486.104
551253.711,4405581.996,-488.804
551253.711,4405481.996,-491.592
551253.711,4405381.996,-494.187
551253.711,4405281.996,-496.673
551253.711,4405181.996,-499.286
551253.711,4405081.996,-502.448
551253.711,4404981.996,-506.018
551253.711,4404881.996,-509.589
551253.711,4404781.996,-513.354
551253.711,4404681.996,-517.357
551253.711,4404581.996,-521.490
551253.711,4404481.996,-525.147
551253.711,4404381.996,-528.272
551253.711,4404281.996,-530.919
551253.711,4404181.996,-532.428
551253.711,4404081.996,-533.658
551253.711,4403981.996,-535.180
551253.711,4403881.996,-537.116
551253.711,4403781.996,-539.291
551253.711,4403681.996,-541.201
551253.711,4403581.996,-543.470
551253.711,4403481.996,-545.892
551253.711,4403381.996,-547.980
551253.711,4403281.996,-548.748
551253.711,4403181.996,-548.982
551253.711,4403081.996,-549.572
551253.711,4402981.996,-550.122
551253.711,4402881.996,-550.329
551253.711,4402781.996,-550.042
551253.711,4402681.996,-550.076
551253.711,4402581.996,-550.587
551353.711,4431481.996,-100.230
551353.711,4431381.996,-101.046
551353.711,4431281.996,-102.222
551353.711,4431181.996,-103.509
551353.711,4431081.996,-104.983
551353.711,4430981.996,-106.910
551353.711,4430881.996,-108.811
551353.711,4430781.996,-110.594
551353.711,4430681.996,-113.068
551353.711,4430581.996,-116.166
551353.711,4430481.996,-119.343
551353.711,4430381.996,-122.935
551353.711,4430281.996,-126.695
551353.711,4430181.996,-130.621
551353.711,4430081.996,-133.951
551353.711,4429981.996,-136.357
551353.711,4429881.996,-138.254
551353.711,4429781.996,-140.354
551353.711,4429681.996,-142.538
551353.711,4429581.996,-144.444
551353.711,4429481.996,-145.932
551353.711,4429381.996,-147.704
551353.711,4429281.996,-150.039
551353.711,4429181.996,-152.808
551353.711,4429081.996,-155.538
551353.711,4428981.996,-158.513
551353.711,4428881.996,-162.087
551353.711,4428781.996,-166.664
551353.711,4428681.996,-171.853
551353.711,4428581.996,-178.176
551353.711,4428481.996,-185.361
551353.711,4428381.996,-193.071
551353.711,4428281.996,-199.076
551353.711,4428181.996,-202.250
551353.711,4428081.996,-205.685
551353.711,4427981.996,-211.220
551353.711,4427881.996,-218.444
551353.711,4427781.996,-226.654
551353.711,4427681.996,-235.779
551353.711,4427581.996,-247.370
551353.711,4427481.996,-264.184
551353.711,4427381.996,-292.198
551353.711,4427281.996,-312.356
551353.711,4427181.996,-331.850
551353.711,4427081.996,-359.232
551353.711,4426981.996,-379.724
551353.711,4426881.996,-396.689
551353.711,4426781.996,-417.861
551353.711,4426681.996,-442.592
551353.711,4426581.996,-459.014
551353.711,4426481.996,-469.553
551353.711,4426381.996,-487.656
551353.711,4426281.996,-505.983
551353.711,4426181.996,-517.807
551353.711,4426081.996,-530.961
551353.711,4425981.996,-549.577
551353.711,4425881.996,-563.670
551353.711,4425781.996,-568.996
551353.711,4425681.996,-571.898
551353.711,4425581.996,-582.624
551353.711,4425481.996,-598.644
551353.711,4425381.996,-617.285
551353.711,4425281.996,-637.110
551353.711,4425181.996,-646.835
551353.711,4425081.996,-649.225
551353.711,4424981.996,-651.636
551353.711,4424881.996,-654.513
551353.711,4424781.996,-656.359
551353.711,4424681.996,-659.278
551353.711,4424581.996,-662.869
551353.711,4424481.996,-665.911
551353.711,4424381.996,-669.350
551353.711,4424281.996,-671.979
551353.711,4424181.996,-674.166
551353.711,4424081.996,-676.778
551353.711,4423981.996,-679.744
551353.711,4423881.996,-681.245
551353.711,4423781.996,-683.034
551353.711,4423681.996,-684.917
551353.711,4423581.996,-687.601
551353.711,4423481.996,-689.987
551353.711,4423381.996,-692.146
551353.711,4423281.996,-694.345
551353.711,4423181.996,-696.384
551353.711,4423081.996,-698.117
551353.711,4407181.996,-669.679
551353.711,4407081.996,-649.450
551353.711,4406981.996,-612.582
551353.711,4406881.996,-574.685
551353.711,4406781.996,-536.679
551353.711,4406681.996,-505.970
551353.711,4406581.996,-483.549
551353.711,4406481.996,-473.305
551353.711,4406381.996,-470.794
551353.711,4406281.996,-471.080
551353.711,4406181.996,-472.541
551353.711,4406081.996,-474.311
551353.711,4405981.996,-476.572
551353.711,4405881.996,-480.607
551353.711,4405781.996,-486.649
551353.711,4405681.996,-490.845
551353.711,4405581.996,-493.091
551353.711,4405481.996,-495.487
551353.711,4405381.996,-498.176
551353.711,4405281.996,-500.892
551353.711,4405181.996,-503.785
551353.711,4405081.996,-507.093
551353.711,4404981.996,-510.752
551353.711,4404881.996,-514.378
551353.711,4404781.996,-518.025
551353.711,4404681.996,-521.497
551353.711,4404581.996,-524.811
551353.711,4404481.996,-527.942
551353.711,4404381.996,-530.754
551353.711,4404281.996,-533.232
551353.711,4404181.996,-534.348
551353.711,4404081.996,-535.666
551353.711,4403981.996,-537.474
551353.711,4403881.996,-539.205
551353.711,4403781.996,-540.830
551353.711,4403681.996,-542.427
551353.711,4403581.996,-544.398
551353.711,4403481.996,-546.407
551353.711,4403381.996,-548.156
551353.711,4403281.996,-548.880
551353.711,4403181.996,-549.051
551353.711,4403081.996,-549.270
551353.711,4402981.996,-549.576
551353.711,4402881.996,-550.056
551353.711,4402781.996,-549.702
551353.711,4402681.996,-549.785
551453.711,4431381.996,-101.046
551453.711,4431281.996,-102.029
551453.711,4431181.996,-103.272
551453.711,4431081.996,-104.587
551453.711,4430981.996,-106.335
551453.711,4430881.996,-108.355
551453.711,4430781.996,-110.325
551453.711,4430681.996,-112.525
551453.711,4430581.996,-115.585
551453.711,4430481.996,-119.136
551453.711,4430381.996,-123.092
551453.711,4430281.996,-126.786
551453.711,4430181.996,-130.546
551453.711,4430081.996,-133.965
551453.711,4429981.996,-136.511
551453.711,4429881.996,-138.272
551453.711,4429781.996,-140.016
551453.711,4429681.996,-141.979
551453.711,4429581.996,-144.008
551453.711,4429481.996,-145.512
551453.711,4429381.996,-147.124
551453.711,4429281.996,-149.139
551453.711,4429181.996,-151.831
551453.711,4429081.996,-154.652
551453.711,4428981.996,-157.758
551453.711,4428881.996,-161.559
551453.711,4428781.996,-165.811
551453.711,4428681.996,-168.873
551453.711,4428581.996,-171.557
551453.711,4428481.996,-177.622
551453.711,4428381.996,-188.180
551453.711,4428281.996,-197.041
551453.711,4428181.996,-201.126
551453.711,4428081.996,-203.925
551453.711,4427981.996,-208.811
551453.711,4427881.996,-215.614
551453.711,4427781.996,-224.709
551453.711,4427681.996,-244.470
551453.711,4427581.996,-276.982
551453.711,4427481.996,-306.318
551453.711,4427381.996,-331.338
551453.711,4427281.996,-349.406
551453.711,4427181.996,-367.797
551453.711,4427081.996,-399.938
551453.711,4426981.996,-427.449
551453.711,4426881.996,-438.156
551453.711,4426781.996,-456.280
551453.711,4426681.996,-488.469
551453.711,4426581.996,-506.462
551453.711,4426481.996,-506.370
551453.711,4426381.996,-515.482
551453.711,4426281.996,-529.997
551453.711,4426181.996,-540.489
551453.711,4426081.996,-550.288
551453.711,4425981.996,-567.149
551453.711,4425881.996,-579.795
551453.711,4425781.996,-585.740
551453.711,4425681.996,-591.638
551453.711,4425581.996,-601.891
551453.711,4425481.996,-613.863
551453.711,4425381.996,-623.218
551453.711,4425281.996,-633.203
551453.711,4425181.996,-641.583
551453.711,4425081.996,-646.654
551453.711,4424981.996,-650.676
551453.711,4424881.996,-653.351
551453.711,4424781.996,-655.006
551453.711,4424681.996,-657.584
551453.711,4424581.996,-660.418
551453.711,4424481.996,-662.927
551453.711,4424381.996,-666.630
551453.711,4424281.996,-670.086
551453.711,4424181.996,-672.534
551453.711,4424081.996,-675.363
551453.711,4423981.996,-678.392
551453.711,4423881.996,-680.983
551453.711,4423781.996,-683.218
551453.711,4423681.996,-684.482
551453.711,4423581.996,-686.594
551453.711,4423481.996,-689.007
551453.711,4423381.996,-691.596
551453.711,4423281.996,-693.957
551453.711,4423181.996,-695.954
551453.711,4423081.996,-698.065
551453.711,4407181.996,-671.578
551453.711,4407081.996,-640.438
551453.711,4406981.996,-605.213
551453.711,4406881.996,-572.793
551453.711,4406781.996,-545.883
551453.711,4406681.996,-518.200
551453.711,4406581.996,-491.100
551453.711,4406481.996,-477.665
551453.711,4406381.996,-475.159
551453.711,4406281.996,-475.968
551453.711,4406181.996,-477.608
551453.711,4406081.996,-479.489
551453.711,4405981.996,-482.129
551453.711,4405881.996,-484.335
551453.711,4405781.996,-488.873
551453.711,4405681.996,-494.660
551453.711,4405581.996,-498.061
551453.711,4405481.996,-500.121
551453.711,4405381.996,-502.401
551453.711,4405281.996,-505.003
551453.711,4405181.996,-508.151
551453.711,4405081.996,-511.865
551453.711,4404981.996,-515.635
551453.711,4404881.996,-518.462
551453.711,4404781.996,-521.469
551453.711,4404681.996,-524.494
551453.711,4404581.996,-527.419
551453.711,4404481.996,-530.382
551453.711,4404381.996,-533.101
551453.711,4404281.996,-535.460
551453.711,4404181.996,-537.122
551453.711,4404081.996,-538.025
551453.711,4403981.996,-539.703
551453.711,4403881.996,-540.800
551453.711,4403781.996,-541.651
551453.711,4403681.996,-542.544
551453.711,4403581.996,-544.097
551453.711,4403481.996,-546.071
551453.711,4403381.996,-548.146
551453.711,4403281.996,-548.964
551453.711,4403181.996,-549.219
551453.711,4403081.996,-549.272
551453.711,4402981.996,-549.352
551453.711,4402881.996,-548.977
551453.711,4402781.996,-549.087
551553.711,4431381.996,-100.644
551553.711,4431281.996,-101.802
551553.711,4431181.996,-103.049
551553.711,4431081.996,-104.199
551553.711,4430981.996,-105.677
551553.711,4430881.996,-107.637
551553.711,4430781.996,-109.753
551553.711,4430681.996,-111.623
551553.711,4430581.996,-114.367
551553.711,4430481.996,-117.707
551553.711,4430381.996,-121.857
551553.711,4430281.996,-125.960
551553.711,4430181.996,-130.125
551553.711,4430081.996,-134.005
551553.711,4429981.996,-136.900
551553.711,4429881.996,-138.669
551553.711,4429781.996,-140.062
551553.711,4429681.996,-141.688
551553.711,4429581.996,-143.659
551553.711,4429481.996,-145.463
551553.711,4429381.996,-147.160
551553.711,4429281.996,-149.048
551553.711,4429181.996,-151.621
551553.711,4429081.996,-154.516
551553.711,4428981.996,-157.371
551553.711,4428881.996,-158.723
551553.711,4428781.996,-155.618
551553.711,4428681.996,-150.261
551553.711,4428581.996,-146.977
551553.711,4428481.996,-153.236
551553.711,4428381.996,-171.862
551553.711,4428281.996,-189.874
551553.711,4428181.996,-198.805
551553.711,4428081.996,-202.444
551553.711,4427981.996,-207.040
551553.711,4427881.996,-213.448
551553.711,4427781.996,-225.084
551553.711,4427681.996,-259.457
551553.711,4427581.996,-307.646
551553.711,4427481.996,-343.873
551553.711,4427381.996,-364.587
551553.711,4427281.996,-385.530
551553.711,4427181.996,-404.649
551553.711,4427081.996,-428.451
551553.711,4426981.996,-457.149
551553.711,4426881.996,-471.449
551553.711,4426781.996,-488.235
551553.711,4426681.996,-508.535
551553.711,4426581.996,-523.764
551553.711,4426481.996,-528.106
551553.711,4426381.996,-534.046
551553.711,4426281.996,-545.145
551553.711,4426181.996,-555.673
551553.711,4426081.996,-565.102
551553.711,4425981.996,-576.095
551553.711,4425881.996,-585.266
551553.711,4425781.996,-592.630
551553.711,4425681.996,-599.666
551553.711,4425581.996,-609.493
551553.711,4425481.996,-618.552
551553.711,4425381.996,-625.815
551553.711,4425281.996,-631.318
551553.711,4425181.996,-636.933
551553.711,4425081.996,-642.718
551553.711,4424981.996,-647.980
551553.711,4424881.996,-651.317
551553.711,4424781.996,-652.919
551553.711,4424681.996,-654.199
551553.711,4424581.996,-656.468
551553.711,4424481.996,-659.304
551553.711,4424381.996,-663.123
551553.711,4424281.996,-667.187
551553.711,4424181.996,-670.697
551553.711,4424081.996,-673.946
551553.711,4423981.996,-676.920
551553.711,4423881.996,-679.126
551553.711,4423781.996,-681.078
551553.711,4423681.996,-683.791
551553.711,4423581.996,-686.237
551553.711,4423481.996,-688.532
551553.711,4423381.996,-690.967
551553.711,4423281.996,-693.464
551553.711,4423181.996,-695.537
551553.711,4423081.996,-697.564
551553.711,4407181.996,-689.241
551553.711,4407081.996,-655.669
551553.711,4406981.996,-611.793
551553.711,4406881.996,-578.556
551553.711,4406781.996,-550.149
551553.711,4406681.996,-521.552
551553.711,4406581.996,-494.989
551553.711,4406481.996,-481.637
551553.711,4406381.996,-479.621
551553.711,4406281.996,-480.898
551553.711,4406181.996,-482.446
551553.711,4406081.996,-483.785
551553.711,4405981.996,-485.851
551553.711,4405881.996,-487.738
551553.711,4405781.996,-490.361
551553.711,4405681.996,-495.861
551553.711,4405581.996,-501.939
551553.711,4405481.996,-505.112
551553.711,4405381.996,-506.945
551553.711,4405281.996,-509.345
551553.711,4405181.996,-512.799
551553.711,4405081.996,-516.772
551553.711,4404981.996,-520.044
551553.711,4404881.996,-521.844
551553.711,4404781.996,-524.115
551553.711,4404681.996,-527.133
551553.711,4404581.996,-530.058
551553.711,4404481.996,-532.360
551553.711,4404381.996,-534.569
551553.711,4404281.996,-536.749
551553.711,4404181.996,-538.492
551553.711,4404081.996,-539.001
551553.711,4403981.996,-539.580
551553.711,4403881.996,-540.469
551553.711,4403781.996,-541.375
551553.711,4403681.996,-542.226
551553.711,4403581.996,-543.255
551553.711,4403481.996,-545.314
551553.711,4403381.996,-547.574
551553.711,4403281.996,-549.008
551553.711,4403181.996,-549.631
551553.711,4403081.996,-549.531
551553.711,4402981.996,-549.541
551553.711,4402881.996,-549.571
551653.711,4431481.996,-100.290
551653.711,4431381.996,-100.303
551653.711,4431281.996,-101.413
551653.711,4431181.996,-102.692
551653.711,4431081.996,-103.682
551653.711,4430981.996,-104.936
551653.711,4430881.996,-106.710
551653.711,4430781.996,-108.882
551653.711,4430681.996,-110.531
551653.711,4430581.996,-112.603
551653.711,4430481.996,-115.716
551653.711,4430381.996,-120.624
551653.711,4430281.996,-125.360
551653.711,4430181.996,-129.535
551653.711,4430081.996,-133.525
551653.711,4429981.996,-136.881
551653.711,4429881.996,-138.935
551653.711,4429781.996,-140.256
551653.711,4429681.996,-141.628
551653.711,4429581.996,-143.254
551653.711,4429481.996,-144.576
551653.711,4429381.996,-145.132
551653.711,4429281.996,-145.679
551653.711,4429181.996,-147.182
551653.711,4429081.996,-149.409
551653.711,4428981.996,-148.292
551653.711,4428881.996,-142.492
551653.711,4428781.996,-131.847
551653.711,4428681.996,-120.943
551653.711,4428581.996,-115.037
551653.711,4428481.996,-122.274
551653.711,4428381.996,-147.834
551653.711,4428281.996,-176.804
551653.711,4428181.996,-194.534
551653.711,4428081.996,-200.826
551653.711,4427981.996,-205.929
551653.711,4427881.996,-213.858
551653.711,4427781.996,-229.904
551653.711,4427681.996,-267.064
551653.711,4427581.996,-316.082
551653.711,4427481.996,-366.041
551653.711,4427381.996,-407.206
551653.711,4427281.996,-428.496
551653.711,4427181.996,-444.869
551653.711,4427081.996,-460.140
551653.711,4426981.996,-474.431
551653.711,4426881.996,-490.265
551653.711,4426781.996,-507.109
551653.711,4426681.996,-519.597
551653.711,4426581.996,-530.972
551653.711,4426481.996,-539.520
551653.711,4426381.996,-544.767
551653.711,4426281.996,-553.159
551653.711,4426181.996,-562.919
551653.711,4426081.996,-572.184
551653.711,4425981.996,-581.178
551653.711,4425881.996,-589.220
551653.711,4425781.996,-596.898
551653.711,4425681.996,-603.884
551653.711,4425581.996,-611.288
551653.711,4425481.996,-618.622
551653.711,4425381.996,-624.555
551653.711,4425281.996,-628.604
551653.711,4425181.996,-633.301
551653.711,4425081.996,-638.908
551653.711,4424981.996,-643.391
551653.711,4424881.996,-645.266
551653.711,4424781.996,-646.172
551653.711,4424681.996,-647.966
551653.711,4424581.996,-651.570
551653.711,4424481.996,-656.069
551653.711,4424381.996,-660.511
551653.711,4424281.996,-664.528
551653.711,4424181.996,-668.354
551653.711,4424081.996,-672.131
551653.711,4423981.996,-675.518
551653.711,4423881.996,-677.879
551653.711,4423781.996,-680.133
551653.711,4423681.996,-682.607
551653.711,4423581.996,-685.065
551653.711,4423481.996,-687.772
551653.711,4423381.996,-690.537
551653.711,4423281.996,-692.913
551653.711,4423181.996,-694.862
551653.711,4423081.996,-696.558
551653.711,4422981.996,-698.814
551653.711,4407181.996,-691.866
551653.711,4407081.996,-656.060
551653.711,4406981.996,-608.521
551653.711,4406881.996,-574.161
551653.711,4406781.996,-546.251
551653.711,4406681.996,-520.803
551653.711,4406581.996,-496.652
551653.711,4406481.996,-485.315
551653.711,4406381.996,-484.154
551653.711,4406281.996,-485.176
551653.711,4406181.996,-486.437
551653.711,4406081.996,-487.670
551653.711,4405981.996,-488.857
551653.711,4405881.996,-490.535
551653.711,4405781.996,-492.587
551653.711,4405681.996,-495.829
551653.711,4405581.996,-501.951
551653.711,4405481.996,-508.078
551653.711,4405381.996,-511.501
551653.711,4405281.996,-514.055
551653.711,4405181.996,-517.369
551653.711,4405081.996,-520.695
551653.711,4404981.996,-523.298
551653.711,4404881.996,-525.102
551653.711,4404781.996,-527.025
551653.711,4404681.996,-529.481
551653.711,4404581.996,-531.681
551653.711,4404481.996,-533.497
551653.711,4404381.996,-535.227
551653.711,4404281.996,-536.947
551653.711,4404181.996,-538.009
551653.711,4404081.996,-537.980
551653.711,4403981.996,-538.308
551653.711,4403881.996,-539.149
551653.711,4403781.996,-539.941
551653.711,4403681.996,-541.033
551653.711,4403581.996,-542.636
551653.711,4403481.996,-544.899
551653.711,4403381.996,-547.449
551653.711,4403281.996,-549.158
551653.711,4403181.996,-549.684
551653.711,4403081.996,-549.764
551653.711,4402981.996,-549.746
551653.711,4402881.996,-550.094
551653.711,4402781.996,-549.607
551653.711,4402681.996,-549.301
551753.711,4431381.996,-100.300
551753.711,4431281.996,-101.076
551753.711,4431181.996,-102.344
551753.711,4431081.996,-103.388
551753.711,4430981.996,-104.410
551753.711,4430881.996,-105.820
551753.711,4430781.996,-107.849
551753.711,4430681.996,-109.730
551753.711,4430581.996,-111.548
551753.711,4430481.996,-114.382
551753.711,4430381.996,-119.521
551753.711,4430281.996,-124.800
551753.711,4430181.996,-129.007
551753.711,4430081.996,-132.871
551753.711,4429981.996,-136.428
551753.711,4429881.996,-138.954
551753.711,4429781.996,-140.537
551753.711,4429681.996,-141.365
551753.711,4429581.996,-140.668
551753.711,4429481.996,-138.890
551753.711,4429381.996,-136.957
551753.711,4429281.996,-135.619
551753.711,4429181.996,-135.021
551753.711,4429081.996,-134.709
551753.711,4428981.996,-131.988
551753.711,4428881.996,-120.121
551753.711,4428781.996,-116.768
551753.711,4428681.996,-116.839
551753.711,4428581.996,-112.738
551753.711,4428481.996,-104.596
551753.711,4428381.996,-132.207
551753.711,4428281.996,-169.366
551753.711,4428181.996,-191.730
551753.711,4428081.996,-200.460
551753.711,4427981.996,-208.773
551753.711,4427881.996,-222.603
551753.711,4427781.996,-245.532
551753.711,4427681.996,-279.421
551753.711,4427581.996,-318.609
551753.711,4427481.996,-366.650
551753.711,4427381.996,-417.613
551753.711,4427281.996,-448.152
551753.711,4427181.996,-464.232
551753.711,4427081.996,-477.855
551753.711,4426981.996,-490.742
551753.711,4426881.996,-501.613
551753.711,4426781.996,-512.098
551753.711,4426681.996,-523.228
551753.711,4426581.996,-535.384
551753.711,4426481.996,-546.586
551753.711,4426381.996,-554.676
551753.711,4426281.996,-559.434
551753.711,4426181.996,-567.634
551753.711,4426081.996,-575.740
551753.711,4425981.996,-583.221
551753.711,4425881.996,-590.972
551753.711,4425781.996,-598.167
551753.711,4425681.996,-604.001
551753.711,4425581.996,-609.174
551753.711,4425481.996,-615.702
551753.711,4425381.996,-622.014
551753.711,4425281.996,-626.397
551753.711,4425181.996,-631.010
551753.711,4425081.996,-635.163
551753.711,4424981.996,-637.519
551753.711,4424881.996,-639.243
551753.711,4424781.996,-641.574
551753.711,4424681.996,-644.558
551753.711,4424581.996,-648.613
551753.711,4424481.996,-653.360
551753.711,4424381.996,-658.110
551753.711,4424281.996,-662.336
551753.711,4424181.996,-666.108
551753.711,4424081.996,-669.825
551753.711,4423981.996,-673.565
551753.711,4423881.996,-676.695
551753.711,4423781.996,-678.908
551753.711,4423681.996,-681.257
551753.711,4423581.996,-684.660
551753.711,4423481.996,-687.557
551753.711,4423381.996,-689.862
551753.711,4423281.996,-691.734
551753.711,4423181.996,-693.637
551753.711,4423081.996,-695.649
551753.711,4422981.996,-697.807
551753.711,4422881.996,-699.335
551753.711,4407181.996,-690.660
551753.711,4407081.996,-653.031
551753.711,4406981.996,-607.186
551753.711,4406881.996,-566.937
551753.711,4406781.996,-535.749
551753.711,4406681.996,-514.986
551753.711,4406581.996,-496.312
551753.711,4406481.996,-488.586
551753.711,4406381.996,-487.957
551753.711,4406281.996,-488.580
551753.711,4406181.996,-489.746
551753.711,4406081.996,-490.779
551753.711,4405981.996,-492.290
551753.711,4405881.996,-493.449
551753.711,4405781.996,-494.756
551753.711,4405681.996,-496.772
551753.711,4405581.996,-500.901
551753.711,4405481.996,-507.718
551753.711,4405381.996,-514.184
551753.711,4405281.996,-517.918
551753.711,4405181.996,-520.466
551753.711,4405081.996,-523.075
551753.711,4404981.996,-526.079
551753.711,4404881.996,-528.426
551753.711,4404781.996,-530.058
551753.711,4404681.996,-531.688
551753.711,4404581.996,-533.230
551753.711,4404481.996,-534.506
551753.711,4404381.996,-535.687
551753.711,4404281.996,-537.174
551753.711,4404181.996,-538.260
551753.711,4404081.996,-537.767
551753.711,4403981.996,-537.672
551753.711,4403881.996,-538.267
551753.711,4403781.996,-539.207
551753.711,4403681.996,-540.238
551753.711,4403581.996,-542.020
551753.711,4403481.996,-544.857
551753.711,4403381.996,-547.201
551753.711,4403281.996,-548.748
551753.711,4403181.996,-549.473
551753.711,4403081.996,-549.660
551753.711,4402981.996,-549.549
551753.711,4402881.996,-549.223
551753.711,4402781.996,-548.856
551753.711,4402681.996,-549.016
551753.711,4402581.996,-551.127
551853.711,4431281.996,-100.808
551853.711,4431181.996,-101.965
551853.711,4431081.996,-103.098
551853.711,4430981.996,-104.016
551853.711,4430881.996,-105.167
551853.711,4430781.996,-107.012
551853.711,4430681.996,-109.194
551853.711,4430581.996,-111.002
551853.711,4430481.996,-113.531
551853.711,4430381.996,-118.384
551853.711,4430281.996,-124.017
551853.711,4430181.996,-128.521
551853.711,4430081.996,-132.323
551853.711,4429981.996,-136.048
551853.711,4429881.996,-139.019
551853.711,4429781.996,-140.861
551853.711,4429681.996,-140.450
551853.711,4429581.996,-136.615
551853.711,4429481.996,-133.284
551853.711,4429381.996,-128.066
551853.711,4429281.996,-121.603
551853.711,4429181.996,-118.368
551853.711,4429081.996,-115.054
551853.711,4428981.996,-116.413
551853.711,4428881.996,-113.554
551853.711,4428781.996,-116.995
551853.711,4428681.996,-117.075
551853.711,4428581.996,-111.506
551853.711,4428481.996,-118.923
551853.711,4428381.996,-147.554
551853.711,4428281.996,-176.101
551853.711,4428181.996,-194.943
551853.711,4428081.996,-208.565
551853.711,4427981.996,-224.916
551853.711,4427881.996,-243.888
551853.711,4427781.996,-267.574
551853.711,4427681.996,-299.334
551853.711,4427581.996,-329.461
551853.711,4427481.996,-366.256
551853.711,4427381.996,-412.783
551853.711,4427281.996,-451.995
551853.711,4427181.996,-474.150
551853.711,4427081.996,-484.224
551853.711,4426981.996,-495.794
551853.711,4426881.996,-508.541
551853.711,4426781.996,-519.064
551853.711,4426681.996,-528.656
551853.711,4426581.996,-539.476
551853.711,4426481.996,-551.547
551853.711,4426381.996,-561.413
551853.711,4426281.996,-566.405
551853.711,4426181.996,-571.875
551853.711,4426081.996,-577.477
551853.711,4425981.996,-583.844
551853.711,4425881.996,-590.572
551853.711,4425781.996,-596.620
551853.711,4425681.996,-601.652
551853.711,4425581.996,-605.973
551853.711,4425481.996,-611.551
551853.711,4425381.996,-618.520
551853.711,4425281.996,-623.921
551853.711,4425181.996,-627.158
551853.711,4425081.996,-629.653
551853.711,4424981.996,-632.476
551853.711,4424881.996,-634.983
551853.711,4424781.996,-638.139
551853.711,4424681.996,-641.553
551853.711,4424581.996,-645.773
551853.711,4424481.996,-650.112
551853.711,4424381.996,-654.312
551853.711,4424281.996,-659.040
551853.711,4424181.996,-663.865
551853.711,4424081.996,-667.451
551853.711,4423981.996,-671.133
551853.711,4423881.996,-674.915
551853.711,4423781.996,-677.855
551853.711,4423681.996,-679.764
551853.711,4423581.996,-682.897
551853.711,4423481.996,-685.867
551853.711,4423381.996,-688.150
551853.711,4423281.996,-690.108
551853.711,4423181.996,-692.353
551853.711,4423081.996,-694.513
551853.711,4422981.996,-696.738
551853.711,4422881.996,-699.145
551853.711,4422781.996,-699.714
551853.711,4407281.996,-689.616
551853.711,4407181.996,-679.732
551853.711,4407081.996,-639.877
551853.711,4406981.996,-596.729
551853.711,4406881.996,-560.972
551853.711,4406781.996,-528.609
551853.711,4406681.996,-506.484
551853.711,4406581.996,-496.024
551853.711,4406481.996,-493.410
551853.711,4406381.996,-493.065
551853.711,4406281.996,-493.139
551853.711,4406181.996,-493.518
551853.711,4406081.996,-494.675
551853.711,4405981.996,-495.328
551853.711,4405881.996,-495.753
551853.711,4405781.996,-496.404
551853.711,4405681.996,-497.805
551853.711,4405581.996,-500.962
551853.711,4405481.996,-506.566
551853.711,4405381.996,-513.882
551853.711,4405281.996,-519.751
551853.711,4405181.996,-522.683
551853.711,4405081.996,-525.025
551853.711,4404981.996,-528.481
551853.711,4404881.996,-530.992
551853.711,4404781.996,-532.326
551853.711,4404681.996,-533.539
551853.711,4404581.996,-534.678
551853.711,4404481.996,-535.593
551853.711,4404381.996,-536.452
551853.711,4404281.996,-537.845
551853.711,4404181.996,-538.753
551853.711,4404081.996,-537.725
551853.711,4403981.996,-537.511
551853.711,4403881.996,-538.224
551853.711,4403781.996,-539.307
551853.711,4403681.996,-540.391
551853.711,4403581.996,-542.317
551853.711,4403481.996,-544.456
551853.711,4403381.996,-546.899
551853.711,4403281.996,-548.584
551853.711,4403181.996,-549.209
551853.711,4403081.996,-549.260
551853.711,4402981.996,-549.153
551853.711,4402881.996,-548.946
551853.711,4402781.996,-549.135
551853.711,4402681.996,-549.952
551853.711,4402581.996,-551.555
551853.711,4402481.996,-551.036
551953.711,4431281.996,-100.434
551953.711,4431181.996,-101.633
551953.711,4431081.996,-102.872
551953.711,4430981.996,-103.845
551953.711,4430881.996,-104.810
551953.711,4430781.996,-106.305
551953.711,4430681.996,-108.408
551953.711,4430581.996,-110.550
551953.711,4430481.996,-113.183
551953.711,4430381.996,-117.534
551953.711,4430281.996,-122.962
551953.711,4430181.996,-128.009
551953.711,4430081.996,-132.046
551953.711,4429981.996,-136.001
551953.711,4429881.996,-139.123
551953.711,4429781.996,-140.981
551953.711,4429681.996,-139.716
551953.711,4429581.996,-134.596
551953.711,4429481.996,-126.635
551953.711,4429381.996,-112.577
551953.711,4429281.996,-109.616
551953.711,4429181.996,-111.295
551953.711,4429081.996,-111.823
551953.711,4428981.996,-114.185
551953.711,4428881.996,-111.242
551953.711,4428781.996,-118.292
551953.711,4428681.996,-128.012
551953.711,4428581.996,-138.239
551953.711,4428481.996,-152.632
551953.711,4428381.996,-171.300
551953.711,4428281.996,-189.233
551953.711,4428181.996,-209.293
551953.711,4428081.996,-229.013
551953.711,4427981.996,-249.144
551953.711,4427881.996,-270.066
551953.711,4427781.996,-293.925
551953.711,4427681.996,-324.450
551953.711,4427581.996,-355.732
551953.711,4427481.996,-385.385
551953.711,4427381.996,-416.328
551953.711,4427281.996,-448.641
551953.711,4427181.996,-476.058
551953.711,4427081.996,-492.453
551953.711,4426981.996,-502.894
551953.711,4426881.996,-514.141
551953.711,4426781.996,-526.243
551953.711,4426681.996,-536.078
551953.711,4426581.996,-545.367
551953.711,4426481.996,-555.127
551953.711,4426381.996,-562.865
551953.711,4426281.996,-567.814
551953.711,4426181.996,-571.467
551953.711,4426081.996,-577.216
551953.711,4425981.996,-583.381
551953.711,4425881.996,-588.900
551953.711,4425781.996,-594.075
551953.711,4425681.996,-599.428
551953.711,4425581.996,-604.360
551953.711,4425481.996,-607.977
551953.711,4425381.996,-613.221
551953.711,4425281.996,-618.696
551953.711,4425181.996,-623.057
551953.711,4425081.996,-626.455
551953.711,4424981.996,-629.347
551953.711,4424881.996,-632.327
551953.711,4424781.996,-636.513
551953.711,4424681.996,-640.315
551953.711,4424581.996,-643.924
551953.711,4424481.996,-648.264
551953.711,4424381.996,-652.272
551953.711,4424281.996,-656.921
551953.711,4424181.996,-661.836
551953.711,4424081.996,-665.569
551953.711,4423981.996,-669.246
551953.711,4423881.996,-672.697
551953.711,4423781.996,-675.502
551953.711,4423681.996,-677.241
551953.711,4423581.996,-680.476
551953.711,4423481.996,-684.252
551953.711,4423381.996,-686.843
551953.711,4423281.996,-689.398
551953.711,4423181.996,-692.348
551953.711,4423081.996,-694.987
551953.711,4422981.996,-697.413
551953.711,4422881.996,-699.174
551953.711,4407381.996,-688.533
551953.711,4407281.996,-689.949
551953.711,4407181.996,-664.831
551953.711,4407081.996,-627.291
551953.711,4406981.996,-591.741
551953.711,4406881.996,-561.219
551953.711,4406781.996,-527.879
551953.711,4406681.996,-505.707
551953.711,4406581.996,-497.793
551953.711,4406481.996,-495.788
551953.711,4406381.996,-495.298
551953.711,4406281.996,-495.584
551953.711,4406181.996,-496.211
551953.711,4406081.996,-496.734
551953.711,4405981.996,-497.025
551953.711,4405881.996,-497.135
551953.711,4405781.996,-497.496
551953.711,4405681.996,-499.227
551953.711,4405581.996,-502.951
551953.711,4405481.996,-507.412
551953.711,4405381.996,-513.369
551953.711,4405281.996,-520.321
551953.711,4405181.996,-524.916
551953.711,4405081.996,-527.015
551953.711,4404981.996,-530.228
551953.711,4404881.996,-532.965
551953.711,4404781.996,-534.521
551953.711,4404681.996,-535.454
551953.711,4404581.996,-536.024
551953.711,4404481.996,-536.704
551953.711,4404381.996,-537.529
551953.711,4404281.996,-538.385
551953.711,4404181.996,-539.093
551953.711,4404081.996,-538.163
551953.711,4403981.996,-538.037
551953.711,4403881.996,-538.813
551953.711,4403781.996,-540.013
551953.711,4403681.996,-541.322
551953.711,4403581.996,-542.689
551953.711,4403481.996,-544.812
551953.711,4403381.996,-547.112
551953.711,4403281.996,-548.612
551953.711,4403181.996,-548.971
551953.711,4403081.996,-548.837
551953.711,4402981.996,-548.928
551953.711,4402881.996,-549.350
551953.711,4402781.996,-549.028
551953.711,4402681.996,-548.842
551953.711,4402581.996,-548.558
552053.711,4431381.996,-100.230
552053.711,4431281.996,-100.256
552053.711,4431181.996,-101.229
552053.711,4431081.996,-102.539
552053.711,4430981.996,-103.626
552053.711,4430881.996,-104.463
552053.711,4430781.996,-105.644
552053.711,4430681.996,-107.517
552053.711,4430581.996,-109.803
552053.711,4430481.996,-112.029
552053.711,4430381.996,-115.725
552053.711,4430281.996,-121.171
552053.711,4430181.996,-127.068
552053.711,4430081.996,-131.605
552053.711,4429981.996,-135.631
552053.711,4429881.996,-138.973
552053.711,4429781.996,-141.223
552053.711,4429681.996,-141.135
552053.711,4429581.996,-135.055
552053.711,4429481.996,-124.255
552053.711,4429381.996,-110.353
552053.711,4429281.996,-105.933
552053.711,4429181.996,-106.639
552053.711,4429081.996,-110.121
552053.711,4428981.996,-120.018
552053.711,4428881.996,-134.144
552053.711,4428781.996,-146.889
552053.711,4428681.996,-157.007
552053.711,4428581.996,-166.908
552053.711,4428481.996,-176.665
552053.711,4428381.996,-187.925
552053.711,4428281.996,-203.748
552053.711,4428181.996,-226.973
552053.711,4428081.996,-250.670
552053.711,4427981.996,-271.141
552053.711,4427881.996,-292.821
552053.711,4427781.996,-323.918
552053.711,4427681.996,-360.086
552053.711,4427581.996,-394.354
552053.711,4427481.996,-422.820
552053.711,4427381.996,-441.231
552053.711,4427281.996,-457.158
552053.711,4427181.996,-479.133
552053.711,4427081.996,-501.289
552053.711,4426981.996,-515.359
552053.711,4426881.996,-523.229
552053.711,4426781.996,-531.475
552053.711,4426681.996,-539.525
552053.711,4426581.996,-548.236
552053.711,4426481.996,-556.015
552053.711,4426381.996,-562.676
552053.711,4426281.996,-566.958
552053.711,4426181.996,-569.968
552053.711,4426081.996,-575.954
552053.711,4425981.996,-581.768
552053.711,4425881.996,-586.386
552053.711,4425781.996,-591.397
552053.711,4425681.996,-595.907
552053.711,4425581.996,-599.649
552053.711,4425481.996,-603.565
552053.711,4425381.996,-609.163
552053.711,4425281.996,-614.739
552053.711,4425181.996,-619.627
552053.711,4425081.996,-623.805
552053.711,4424981.996,-627.289
552053.711,4424881.996,-630.981
552053.711,4424781.996,-635.623
552053.711,4424681.996,-640.666
552053.711,4424581.996,-644.596
552053.711,4424481.996,-647.636
552053.711,4424381.996,-651.308
552053.711,4424281.996,-655.513
552053.711,4424181.996,-659.708
552053.711,4424081.996,-663.675
552053.711,4423981.996,-667.278
552053.711,4423881.996,-669.948
552053.711,4423781.996,-672.621
552053.711,4423681.996,-675.218
552053.711,4423581.996,-678.650
552053.711,4423481.996,-682.647
552053.711,4423381.996,-685.629
552053.711,4423281.996,-688.507
552053.711,4423181.996,-691.699
552053.711,4423081.996,-694.431
552053.711,4422981.996,-696.939
552053.711,4422881.996,-698.820
552053.711,4407381.996,-686.620
552053.711,4407281.996,-682.983
552053.711,4407181.996,-661.902
552053.711,4407081.996,-629.564
552053.711,4406981.996,-594.829
552053.711,4406881.996,-563.743
552053.711,4406781.996,-533.233
552053.711,4406681.996,-511.367
552053.711,4406581.996,-501.678
552053.711,4406481.996,-498.920
552053.711,4406381.996,-498.437
552053.711,4406281.996,-498.765
552053.711,4406181.996,-499.503
552053.711,4406081.996,-499.995
552053.711,4405981.996,-500.134
552053.711,4405881.996,-500.226
552053.711,4405781.996,-500.820
552053.711,4405681.996,-503.159
552053.711,4405581.996,-506.766
552053.711,4405481.996,-510.266
552053.711,4405381.996,-514.682
552053.711,4405281.996,-520.438
552053.711,4405181.996,-525.894
552053.711,4405081.996,-528.568
552053.711,4404981.996,-531.412
552053.711,4404881.996,-534.490
552053.711,4404781.996,-536.399
552053.711,4404681.996,-537.132
552053.711,4404581.996,-537.217
552053.711,4404481.996,-537.620
552053.711,4404381.996,-538.373
552053.711,4404281.996,-539.220
552053.711,4404181.996,-540.031
552053.711,4404081.996,-539.421
552053.711,4403981.996,-539.772
552053.711,4403881.996,-540.878
552053.711,4403781.996,-541.972
552053.711,4403681.996,-542.897
552053.711,4403581.996,-544.223
552053.711,4403481.996,-546.049
552053.711,4403381.996,-547.865
552053.711,4403281.996,-548.496
552053.711,4403181.996,-548.580
552053.711,4403081.996,-548.666
552053.711,4402981.996,-549.067
552053.711,4402881.996,-548.970
552053.711,4402781.996,-549.128
552053.711,4402681.996,-548.679
552053.711,4402581.996,-548.305
552053.711,4402481.996,-548.182
552053.711,4402381.996,-548.478
552153.711,4431281.996,-100.240
552153.711,4431181.996,-100.859
552153.711,4431081.996,-102.062
552153.711,4430981.996,-103.248
552153.711,4430881.996,-104.083
552153.711,4430781.996,-105.067
552153.711,4430681.996,-106.599
552153.711,4430581.996,-108.765
552153.711,4430481.996,-110.806
552153.711,4430381.996,-114.028
552153.711,4430281.996,-119.232
552153.711,4430181.996,-125.682
552153.711,4430081.996,-130.957
552153.711,4429981.996,-135.266
552153.711,4429881.996,-139.071
552153.711,4429781.996,-142.075
552153.711,4429681.996,-143.462
552153.711,4429581.996,-140.859
552153.711,4429481.996,-134.425
552153.711,4429381.996,-127.861
552153.711,4429281.996,-128.810
552153.711,4429181.996,-138.784
552153.711,4429081.996,-147.479
552153.711,4428981.996,-153.484
552153.711,4428881.996,-158.099
552153.711,4428781.996,-163.340
552153.711,4428681.996,-168.828
552153.711,4428581.996,-176.213
552153.711,4428481.996,-186.435
552153.711,4428381.996,-201.028
552153.711,4428281.996,-219.979
552153.711,4428181.996,-241.307
552153.711,4428081.996,-264.046
552153.711,4427981.996,-288.349
552153.711,4427881.996,-312.296
552153.711,4427781.996,-349.107
552153.711,4427681.996,-392.404
552153.711,4427581.996,-425.992
552153.711,4427481.996,-443.940
552153.711,4427381.996,-455.974
552153.711,4427281.996,-471.956
552153.711,4427181.996,-489.616
552153.711,4427081.996,-509.279
552153.711,4426981.996,-521.869
552153.711,4426881.996,-527.549
552153.711,4426781.996,-532.754
552153.711,4426681.996,-539.141
552153.711,4426581.996,-546.806
552153.711,4426481.996,-554.333
552153.711,4426381.996,-561.427
552153.711,4426281.996,-565.701
552153.711,4426181.996,-568.835
552153.711,4426081.996,-573.149
552153.711,4425981.996,-578.483
552153.711,4425881.996,-583.231
552153.711,4425781.996,-588.930
552153.711,4425681.996,-593.788
552153.711,4425581.996,-598.328
552153.711,4425481.996,-601.716
552153.711,4425381.996,-606.343
552153.711,4425281.996,-612.382
552153.711,4425181.996,-617.720
552153.711,4425081.996,-621.763
552153.711,4424981.996,-625.694
552153.711,4424881.996,-630.103
552153.711,4424781.996,-635.106
552153.711,4424681.996,-640.056
552153.711,4424581.996,-643.337
552153.711,4424481.996,-645.946
552153.711,4424381.996,-649.508
552153.711,4424281.996,-653.340
552153.711,4424181.996,-657.464
552153.711,4424081.996,-661.792
552153.711,4423981.996,-665.275
552153.711,4423881.996,-668.203
552153.711,4423781.996,-671.125
552153.711,4423681.996,-674.188
552153.711,4423581.996,-677.992
552153.711,4423481.996,-681.049
552153.711,4423381.996,-684.082
552153.711,4423281.996,-687.098
552153.711,4423181.996,-689.915
552153.711,4423081.996,-692.644
552153.711,4422981.996,-695.315
552153.711,4422881.996,-697.672
552153.711,4422781.996,-699.131
552153.711,4407381.996,-688.270
552153.711,4407281.996,-692.362
552153.711,4407181.996,-673.859
552153.711,4407081.996,-636.356
552153.711,4406981.996,-600.186
552153.711,4406881.996,-570.268
552153.711,4406781.996,-542.410
552153.711,4406681.996,-520.597
552153.711,4406581.996,-507.706
552153.711,4406481.996,-503.507
552153.711,4406381.996,-502.893
552153.711,4406281.996,-502.914
552153.711,4406181.996,-503.129
552153.711,4406081.996,-503.124
552153.711,4405981.996,-503.047
552153.711,4405881.996,-503.334
552153.711,4405781.996,-504.253
552153.711,4405681.996,-506.777
552153.711,4405581.996,-510.411
552153.711,4405481.996,-514.020
552153.711,4405381.996,-517.940
552153.711,4405281.996,-521.894
552153.711,4405181.996,-526.111
552153.711,4405081.996,-529.525
552153.711,4404981.996,-532.439
552153.711,4404881.996,-535.577
552153.711,4404781.996,-537.351
552153.711,4404681.996,-538.115
552153.711,4404581.996,-538.428
552153.711,4404481.996,-538.961
552153.711,4404381.996,-539.812
552153.711,4404281.996,-540.730
552153.711,4404181.996,-541.514
552153.711,4404081.996,-541.316
552153.711,4403981.996,-542.454
552153.711,4403881.996,-544.044
552153.711,4403781.996,-544.719
552153.711,4403681.996,-544.974
552153.711,4403581.996,-545.750
552153.711,4403481.996,-547.471
552153.711,4403381.996,-548.242
552153.711,4403281.996,-548.450
552153.711,4403181.996,-548.649
552153.711,4403081.996,-548.968
552153.711,4402981.996,-548.868
552153.711,4402881.996,-548.848
552153.711,4402781.996,-548.654
552153.711,4402681.996,-548.354
552153.711,4402581.996,-548.044
552153.711,4402481.996,-547.834
552153.711,4402381.996,-548.233
552153.711,4402281.996,-548.235
552253.711,4431181.996,-100.553
552253.711,4431081.996,-101.540
552253.711,4430981.996,-102.793
552253.711,4430881.996,-103.729
552253.711,4430781.996,-104.693
552253.711,4430681.996,-105.971
552253.711,4430581.996,-108.061
552253.711,4430481.996,-110.386
552253.711,4430381.996,-113.024
552253.711,4430281.996,-117.345
552253.711,4430181.996,-123.661
552253.711,4430081.996,-129.670
552253.711,4429981.996,-134.792
552253.711,4429881.996,-139.385
552253.711,4429781.996,-143.412
552253.711,4429681.996,-145.809
552253.711,4429581.996,-145.891
552253.711,4429481.996,-145.275
552253.711,4429381.996,-145.587
552253.711,4429281.996,-149.425
552253.711,4429181.996,-157.915
552253.711,4429081.996,-166.808
552253.711,4428981.996,-172.106
552253.711,4428881.996,-175.615
552253.711,4428781.996,-183.184
552253.711,4428681.996,-189.480
552253.711,4428581.996,-193.698
552253.711,4428481.996,-199.802
552253.711,4428381.996,-212.468
552253.711,4428281.996,-232.318
552253.711,4428181.996,-255.812
552253.711,4428081.996,-276.982
552253.711,4427981.996,-301.582
552253.711,4427881.996,-327.882
552253.711,4427781.996,-374.320
552253.711,4427681.996,-419.912
552253.711,4427581.996,-442.011
552253.711,4427481.996,-452.669
552253.711,4427381.996,-469.286
552253.711,4427281.996,-487.433
552253.711,4427181.996,-502.800
552253.711,4427081.996,-516.087
552253.711,4426981.996,-524.434
552253.711,4426881.996,-528.928
552253.711,4426781.996,-533.215
552253.711,4426681.996,-538.295
552253.711,4426581.996,-544.167
552253.711,4426481.996,-550.767
552253.711,4426381.996,-558.148
552253.711,4426281.996,-563.467
552253.711,4426181.996,-566.794
552253.711,4426081.996,-569.683
552253.711,4425981.996,-575.448
552253.711,4425881.996,-581.809
552253.711,4425781.996,-587.286
552253.711,4425681.996,-591.382
552253.711,4425581.996,-596.021
552253.711,4425481.996,-600.985
552253.711,4425381.996,-605.989
552253.711,4425281.996,-611.776
552253.711,4425181.996,-617.041
552253.711,4425081.996,-620.818
552253.711,4424981.996,-625.253
552253.711,4424881.996,-630.311
552253.711,4424781.996,-635.064
552253.711,4424681.996,-638.732
552253.711,4424581.996,-641.758
552253.711,4424481.996,-644.424
552253.711,4424381.996,-647.579
552253.711,4424281.996,-651.429
552253.711,4424181.996,-655.611
552253.711,4424081.996,-659.756
552253.711,4423981.996,-663.699
552253.711,4423881.996,-667.334
552253.711,4423781.996,-670.526
552253.711,4423681.996,-673.364
552253.711,4423581.996,-675.611
552253.711,4423481.996,-678.714
552253.711,4423381.996,-682.065
552253.711,4423281.996,-684.761
552253.711,4423181.996,-687.365
552253.711,4423081.996,-689.989
552253.711,4422981.996,-692.387
552253.711,4422881.996,-695.267
552253.711,4422781.996,-698.343
552253.711,4422681.996,-699.332
552253.711,4407281.996,-694.730
552253.711,4407181.996,-679.524
552253.711,4407081.996,-646.920
552253.711,4406981.996,-614.149
552253.711,4406881.996,-580.306
552253.711,4406781.996,-551.575
552253.711,4406681.996,-529.273
552253.711,4406581.996,-513.833
552253.711,4406481.996,-508.253
552253.711,4406381.996,-507.180
552253.711,4406281.996,-506.749
552253.711,4406181.996,-506.136
552253.711,4406081.996,-505.339
552253.711,4405981.996,-504.776
552253.711,4405881.996,-504.904
552253.711,4405781.996,-506.397
552253.711,4405681.996,-510.215
552253.711,4405581.996,-514.700
552253.711,4405481.996,-518.739
552253.711,4405381.996,-522.213
552253.711,4405281.996,-525.293
552253.711,4405181.996,-528.430
552253.711,4405081.996,-530.944
552253.711,4404981.996,-533.267
552253.711,4404881.996,-536.118
552253.711,4404781.996,-537.997
552253.711,4404681.996,-539.141
552253.711,4404581.996,-540.153
552253.711,4404481.996,-541.200
552253.711,4404381.996,-542.149
552253.711,4404281.996,-543.226
552253.711,4404181.996,-544.133
552253.711,4404081.996,-544.814
552253.711,4403981.996,-546.131
552253.711,4403881.996,-547.453
552253.711,4403781.996,-548.178
552253.711,4403681.996,-548.159
552253.711,4403581.996,-548.356
552253.711,4403481.996,-548.494
552253.711,4403381.996,-548.501
552253.711,4403281.996,-548.536
552253.711,4403181.996,-548.800
552253.711,4403081.996,-548.671
552253.711,4402981.996,-548.746
552253.711,4402881.996,-548.490
552253.711,4402781.996,-548.346
552253.711,4402681.996,-548.013
552253.711,4402581.996,-547.724
552253.711,4402481.996,-547.634
552253.711,4402381.996,-547.561
552253.711,4402281.996,-547.891
552253.711,4402181.996,-546.855
552353.711,4431281.996,-100.400
552353.711,4431181.996,-100.281
552353.711,4431081.996,-101.072
552353.711,4430981.996,-102.441
552353.711,4430881.996,-103.600
552353.711,4430781.996,-104.584
552353.711,4430681.996,-105.669
552353.711,4430581.996,-107.465
552353.711,4430481.996,-109.696
552353.711,4430381.996,-111.916
552353.711,4430281.996,-115.189
552353.711,4430181.996,-121.066
