548353.711,4405881.996,-532.581
548353.711,4405681.996,-528.050
548353.711,4405481.996,-526.449
548353.711,4405281.996,-524.881
548353.711,4405081.996,-524.173
548353.711,4404881.996,-524.527
548353.711,4404681.996,-523.570
548353.711,4404481.996,-521.719
548353.711,4404281.996,-519.538
548353.711,4404081.996,-518.347
548353.711,4403881.996,-518.231
548353.711,4403681.996,-519.580
548353.711,4403481.996,-522.061
548353.711,4403281.996,-525.915
548353.711,4403081.996,-531.139
548353.711,4402881.996,-534.340
548353.711,4402681.996,-537.520
548553.711,4428081.996,-541.159
548553.711,4427881.996,-569.708
548553.711,4427681.996,-579.957
548553.711,4427481.996,-588.754
548553.711,4427281.996,-598.494
548553.711,4427081.996,-611.002
548553.711,4426881.996,-621.785
548553.711,4426681.996,-632.297
548553.711,4426481.996,-640.456
548553.711,4426281.996,-647.139
548553.711,4426081.996,-652.217
548553.711,4425881.996,-656.597
548553.711,4425681.996,-660.943
548553.711,4425481.996,-666.898
548553.711,4425281.996,-671.993
548553.711,4425081.996,-676.429
548553.711,4424881.996,-677.930
548553.711,4424681.996,-679.911
548553.711,4424481.996,-682.273
548553.711,4424281.996,-685.598
548553.711,4424081.996,-688.067
548553.711,4423881.996,-690.399
548553.711,4423681.996,-692.151
548553.711,4423481.996,-695.314
548553.711,4423281.996,-701.441
548553.711,4423081.996,-704.210
548553.711,4422881.996,-705.902
548553.711,4422681.996,-707.438
548553.711,4422481.996,-707.203
548553.711,4422281.996,-708.007
548553.711,4422081.996,-712.581
548553.711,4421881.996,-717.589
548553.711,4421681.996,-721.141
548553.711,4421481.996,-723.217
548553.711,4421281.996,-724.107
548553.711,4421081.996,-725.251
548553.711,4420881.996,-726.764
548553.711,4420681.996,-729.914
548553.711,4420481.996,-733.027
548553.711,4420281.996,-734.605
548553.711,4420081.996,-735.945
548553.711,4419881.996,-736.420
548553.711,4419681.996,-738.578
548553.711,4419481.996,-740.476
548553.711,4419281.996,-739.877
548553.711,4419081.996,-737.909
548553.711,4418881.996,-740.094
548553.711,4418681.996,-741.509
548553.711,4418481.996,-741.749
548553.711,4418281.996,-741.979
548553.711,4418081.996,-743.630
548553.711,4417881.996,-745.206
548553.711,4417681.996,-745.375
548553.711,4417481.996,-747.294
548553.711,4417281.996,-748.982
548553.711,4417081.996,-750.033
548553.711,4416881.996,-750.827
548553.711,4416681.996,-750.676
548553.711,4416481.996,-752.663
548553.711,4416281.996,-754.569
548553.711,4416081.996,-755.073
548553.711,4415881.996,-755.532
548553.711,4415681.996,-757.608
548553.711,4415481.996,-759.535
548553.711,4415281.996,-762.447
548553.711,4415081.996,-765.689
548553.711,4414881.996,-767.876
548553.711,4414681.996,-769.451
548553.711,4414481.996,-770.999
548553.711,4414281.996,-772.565
548553.711,4414081.996,-774.477
548553.711,4413881.996,-776.326
548553.711,4413681.996,-778.018
548553.711,4413481.996,-779.223
548553.711,4413281.996,-779.470
548553.711,4413081.996,-779.695
548553.711,4412881.996,-780.064
548553.711,4412681.996,-780.141
548553.711,4412481.996,-780.208
548553.711,4412281.996,-780.146
548553.711,4412081.996,-780.377
548553.711,4411881.996,-780.525
548553.711,4411681.996,-780.846
548553.711,4411481.996,-780.808
548553.711,4411281.996,-781.119
548553.711,4411081.996,-781.480
548553.711,4410881.996,-781.844
548553.711,4410681.996,-782.301
548553.711,4410481.996,-782.580
548553.711,4410281.996,-782.668
548553.711,4410081.996,-782.631
548553.711,4409881.996,-782.728
548553.711,4409681.996,-782.724
548553.711,4409481.996,-783.218
548553.711,4409281.996,-783.852
548553.711,4409081.996,-784.869
548553.711,4408881.996,-785.232
548553.711,4408681.996,-785.166
548553.711,4408481.996,-785.239
548553.711,4408281.996,-785.131
548553.711,4408081.996,-784.914
548553.711,4407881.996,-784.044
548553.711,4407681.996,-782.282
548553.711,4407481.996,-779.997
548553.711,4407281.996,-777.779
548553.711,4407081.996,-772.168
548553.711,4406881.996,-738.291
548553.711,4406681.996,-673.115
548553.711,4406481.996,-612.344
548553.711,4406281.996,-562.208
548553.711,4406081.996,-543.434
548553.711,4405881.996,-534.799
548553.711,4405681.996,-530.379
548553.711,4405481.996,-529.345
548553.711,4405281.996,-529.603
548553.711,4405081.996,-527.309
548553.711,4404881.996,-523.996
548553.711,4404681.996,-519.004
548553.711,4404481.996,-515.478
548553.711,4404281.996,-513.106
548553.711,4404081.996,-514.035
548553.711,4403881.996,-517.338
548553.711,4403681.996,-521.310
548553.711,4403481.996,-525.703
548553.711,4403281.996,-529.582
548553.711,4403081.996,-534.482
548553.711,4402881.996,-537.277
548753.711,4428081.996,-531.568
548753.711,4427881.996,-560.265
548753.711,4427681.996,-570.909
548753.711,4427481.996,-579.311
548753.711,4427281.996,-587.273
548753.711,4427081.996,-603.782
548753.711,4426881.996,-622.306
548753.711,4426681.996,-632.651
548753.711,4426481.996,-640.544
548753.711,4426281.996,-646.306
548753.711,4426081.996,-652.528
548753.711,4425881.996,-658.081
548753.711,4425681.996,-661.985
548753.711,4425481.996,-668.025
548753.711,4425281.996,-673.541
548753.711,4425081.996,-677.959
548753.711,4424881.996,-680.820
548753.711,4424681.996,-683.033
548753.711,4424481.996,-684.443
548753.711,4424281.996,-686.901
548753.711,4424081.996,-689.379
548753.711,4423881.996,-691.211
548753.711,4423681.996,-692.519
548753.711,4423481.996,-694.080
548753.711,4423281.996,-701.784
548753.711,4423081.996,-705.777
548753.711,4422881.996,-708.206
548753.711,4422681.996,-709.939
548753.711,4422481.996,-710.635
548753.711,4422281.996,-710.939
548753.711,4422081.996,-714.276
548753.711,4421881.996,-718.879
548753.711,4421681.996,-721.591
548753.711,4421481.996,-723.767
548753.711,4421281.996,-725.057
548753.711,4421081.996,-726.181
548753.711,4420881.996,-728.389
548753.711,4420681.996,-732.085
548753.711,4420481.996,-735.045
548753.711,4420281.996,-736.430
548753.711,4420081.996,-738.703
548753.711,4419881.996,-740.216
548753.711,4419681.996,-741.739
548753.711,4419481.996,-742.617
548753.711,4419281.996,-742.771
548753.711,4419081.996,-742.445
548753.711,4418881.996,-743.086
548753.711,4418681.996,-743.770
548753.711,4418481.996,-744.022
548753.711,4418281.996,-744.093
548753.711,4418081.996,-745.731
548753.711,4417881.996,-747.709
548753.711,4417681.996,-747.852
548753.711,4417481.996,-748.993
548753.711,4417281.996,-750.342
548753.711,4417081.996,-751.372
548753.711,4416881.996,-751.980
548753.711,4416681.996,-752.476
548753.711,4416481.996,-753.811
548753.711,4416281.996,-756.184
548753.711,4416081.996,-757.210
548753.711,4415881.996,-757.964
548753.711,4415681.996,-759.161
548753.711,4415481.996,-760.755
548753.711,4415281.996,-763.443
548753.711,4415081.996,-766.915
548753.711,4414881.996,-769.416
548753.711,4414681.996,-771.096
548753.711,4414481.996,-772.815
548753.711,4414281.996,-773.884
548753.711,4414081.996,-775.292
548753.711,4413881.996,-777.082
548753.711,4413681.996,-778.407
548753.711,4413481.996,-778.923
548753.711,4413281.996,-779.267
548753.711,4413081.996,-779.486
548753.711,4412881.996,-779.163
548753.711,4412681.996,-779.189
548753.711,4412481.996,-779.481
548753.711,4412281.996,-779.513
548753.711,4412081.996,-779.806
548753.711,4411881.996,-780.237
548753.711,4411681.996,-780.887
548753.711,4411481.996,-781.058
548753.711,4411281.996,-781.310
548753.711,4411081.996,-781.566
548753.711,4410881.996,-782.177
548753.711,4410681.996,-782.499
548753.711,4410481.996,-782.905
548753.711,4410281.996,-782.845
548753.711,4410081.996,-782.900
548753.711,4409881.996,-783.240
548753.711,4409681.996,-783.319
548753.711,4409481.996,-783.945
548753.711,4409281.996,-784.268
548753.711,4409081.996,-784.830
548753.711,4408881.996,-784.292
548753.711,4408681.996,-783.951
548753.711,4408481.996,-783.630
548753.711,4408281.996,-782.854
548753.711,4408081.996,-782.632
548753.711,4407881.996,-782.262
548753.711,4407681.996,-782.003
548753.711,4407481.996,-781.171
548753.711,4407281.996,-779.131
548753.711,4407081.996,-774.373
548753.711,4406881.996,-748.490
548753.711,4406681.996,-691.430
548753.711,4406481.996,-645.948
548753.711,4406281.996,-583.801
548753.711,4406081.996,-549.411
548753.711,4405881.996,-541.619
548753.711,4405681.996,-534.811
548753.711,4405481.996,-533.684
548753.711,4405281.996,-533.983
548753.711,4405081.996,-530.889
548753.711,4404881.996,-520.911
548753.711,4404681.996,-513.936
548753.711,4404481.996,-510.768
548753.711,4404281.996,-509.877
548753.711,4404081.996,-512.946
548753.711,4403881.996,-519.523
548753.711,4403681.996,-525.271
548753.711,4403481.996,-528.809
548753.711,4403281.996,-532.043
548753.711,4403081.996,-536.115
548753.711,4402881.996,-540.565
548953.711,4428081.996,-526.441
548953.711,4427881.996,-544.797
548953.711,4427681.996,-546.211
548953.711,4427481.996,-551.436
548953.711,4427281.996,-562.951
548953.711,4427081.996,-595.940
548953.711,4426881.996,-618.358
548953.711,4426681.996,-629.597
548953.711,4426481.996,-639.015
548953.711,4426281.996,-645.524
548953.711,4426081.996,-653.710
548953.711,4425881.996,-659.925
548953.711,4425681.996,-664.014
548953.711,4425481.996,-668.341
548953.711,4425281.996,-674.041
548953.711,4425081.996,-678.553
548953.711,4424881.996,-682.994
548953.711,4424681.996,-685.312
548953.711,4424481.996,-687.557
548953.711,4424281.996,-689.074
548953.711,4424081.996,-691.103
548953.711,4423881.996,-692.893
548953.711,4423681.996,-694.155
548953.711,4423481.996,-695.380
548953.711,4423281.996,-700.874
548953.711,4423081.996,-706.338
548953.711,4422881.996,-709.792
548953.711,4422681.996,-712.449
548953.711,4422481.996,-713.740
548953.711,4422281.996,-715.032
548953.711,4422081.996,-717.480
548953.711,4421881.996,-720.785
548953.711,4421681.996,-722.898
548953.711,4421481.996,-724.794
548953.711,4421281.996,-726.432
548953.711,4421081.996,-727.803
548953.711,4420881.996,-730.086
548953.711,4420681.996,-733.425
548953.711,4420481.996,-735.587
548953.711,4420281.996,-737.754
548953.711,4420081.996,-740.024
548953.711,4419881.996,-742.255
548953.711,4419681.996,-743.698
548953.711,4419481.996,-744.517
548953.711,4419281.996,-745.272
548953.711,4419081.996,-745.795
548953.711,4418881.996,-746.480
548953.711,4418681.996,-746.685
548953.711,4418481.996,-746.279
548953.711,4418281.996,-745.880
548953.711,4418081.996,-747.185
548953.711,4417881.996,-749.501
548953.711,4417681.996,-750.061
548953.711,4417481.996,-750.887
548953.711,4417281.996,-751.711
548953.711,4417081.996,-752.923
548953.711,4416881.996,-753.446
548953.711,4416681.996,-754.240
548953.711,4416481.996,-754.774
548953.711,4416281.996,-757.140
548953.711,4416081.996,-759.279
548953.711,4415881.996,-760.096
548953.711,4415681.996,-760.632
548953.711,4415481.996,-761.946
548953.711,4415281.996,-764.317
548953.711,4415081.996,-767.642
548953.711,4414881.996,-770.830
548953.711,4414681.996,-772.955
548953.711,4414481.996,-774.384
548953.711,4414281.996,-775.167
548953.711,4414081.996,-776.374
548953.711,4413881.996,-777.737
548953.711,4413681.996,-778.406
548953.711,4413481.996,-778.820
548953.711,4413281.996,-779.091
548953.711,4413081.996,-779.169
548953.711,4412881.996,-778.573
548953.711,4412681.996,-778.711
548953.711,4412481.996,-778.936
548953.711,4412281.996,-779.297
548953.711,4412081.996,-779.820
548953.711,4411881.996,-780.364
548953.711,4411681.996,-780.763
548953.711,4411481.996,-781.167
548953.711,4411281.996,-781.458
548953.711,4411081.996,-782.026
548953.711,4410881.996,-782.528
548953.711,4410681.996,-782.925
548953.711,4410481.996,-783.317
548953.711,4410281.996,-783.145
548953.711,4410081.996,-783.175
548953.711,4409881.996,-783.575
548953.711,4409681.996,-783.940
548953.711,4409481.996,-784.226
548953.711,4409281.996,-784.721
548953.711,4409081.996,-784.882
548953.711,4408881.996,-781.989
548953.711,4408681.996,-781.636
548953.711,4408481.996,-782.249
548953.711,4408281.996,-782.442
548953.711,4408081.996,-782.175
548953.711,4407881.996,-781.755
548953.711,4407681.996,-781.581
548953.711,4407481.996,-781.406
548953.711,4407281.996,-780.396
548953.711,4407081.996,-775.374
548953.711,4406881.996,-754.366
548953.711,4406681.996,-703.917
548953.711,4406481.996,-656.165
548953.711,4406281.996,-597.477
548953.711,4406081.996,-558.129
548953.711,4405881.996,-548.466
548953.711,4405681.996,-539.277
548953.711,4405481.996,-536.525
548953.711,4405281.996,-531.836
548953.711,4405081.996,-521.254
548953.711,4404881.996,-513.522
548953.711,4404681.996,-507.958
548953.711,4404481.996,-507.502
548953.711,4404281.996,-508.870
548953.711,4404081.996,-513.061
548953.711,4403881.996,-518.722
548953.711,4403681.996,-523.454
548953.711,4403481.996,-527.342
548953.711,4403281.996,-530.250
548953.711,4403081.996,-532.570
548953.711,4402881.996,-534.996
549153.711,4428281.996,-517.702
549153.711,4428081.996,-518.938
549153.711,4427881.996,-526.938
549153.711,4427681.996,-519.566
549153.711,4427481.996,-522.248
549153.711,4427281.996,-551.040
549153.711,4427081.996,-596.770
549153.711,4426881.996,-612.667
549153.711,4426681.996,-623.182
549153.711,4426481.996,-635.919
549153.711,4426281.996,-645.794
549153.711,4426081.996,-654.852
549153.711,4425881.996,-660.679
549153.711,4425681.996,-665.269
549153.711,4425481.996,-669.033
549153.711,4425281.996,-673.716
549153.711,4425081.996,-679.017
549153.711,4424881.996,-684.403
549153.711,4424681.996,-687.014
549153.711,4424481.996,-688.966
549153.711,4424281.996,-690.455
549153.711,4424081.996,-692.100
549153.711,4423881.996,-694.111
549153.711,4423681.996,-696.052
549153.711,4423481.996,-697.252
549153.711,4423281.996,-699.835
549153.711,4423081.996,-706.735
549153.711,4422881.996,-710.078
549153.711,4422681.996,-712.980
549153.711,4422481.996,-715.574
549153.711,4422281.996,-717.519
549153.711,4422081.996,-719.922
549153.711,4421881.996,-722.672
549153.711,4421681.996,-724.440
549153.711,4421481.996,-726.667
549153.711,4421281.996,-728.091
549153.711,4421081.996,-729.751
549153.711,4420881.996,-731.969
549153.711,4420681.996,-734.400
549153.711,4420481.996,-736.280
549153.711,4420281.996,-738.132
549153.711,4420081.996,-740.883
549153.711,4419881.996,-743.540
549153.711,4419681.996,-744.856
549153.711,4419481.996,-745.856
549153.711,4419281.996,-747.051
549153.711,4419081.996,-747.893
549153.711,4418881.996,-748.914
549153.711,4418681.996,-750.010
549153.711,4418481.996,-749.483
549153.711,4418281.996,-748.471
549153.711,4418081.996,-749.262
549153.711,4417881.996,-750.903
549153.711,4417681.996,-752.209
549153.711,4417481.996,-752.328
549153.711,4417281.996,-753.180
549153.711,4417081.996,-754.412
549153.711,4416881.996,-755.109
549153.711,4416681.996,-755.319
549153.711,4416481.996,-755.780
549153.711,4416281.996,-758.161
549153.711,4416081.996,-760.630
549153.711,4415881.996,-761.615
549153.711,4415681.996,-762.315
549153.711,4415481.996,-763.674
549153.711,4415281.996,-765.588
549153.711,4415081.996,-768.820
549153.711,4414881.996,-771.178
549153.711,4414681.996,-773.945
549153.711,4414481.996,-775.034
549153.711,4414281.996,-776.001
549153.711,4414081.996,-777.007
549153.711,4413881.996,-777.635
549153.711,4413681.996,-778.268
549153.711,4413481.996,-778.460
549153.711,4413281.996,-778.300
549153.711,4413081.996,-778.429
549153.711,4412881.996,-778.199
549153.711,4412681.996,-778.512
549153.711,4412481.996,-779.016
549153.711,4412281.996,-779.498
549153.711,4412081.996,-780.035
549153.711,4411881.996,-780.506
549153.711,4411681.996,-780.984
549153.711,4411481.996,-781.452
549153.711,4411281.996,-782.092
549153.711,4411081.996,-782.510
549153.711,4410881.996,-782.809
549153.711,4410681.996,-783.238
549153.711,4410481.996,-783.558
549153.711,4410281.996,-783.187
549153.711,4410081.996,-783.284
549153.711,4409881.996,-783.417
549153.711,4409681.996,-783.757
549153.711,4409481.996,-784.001
549153.711,4409281.996,-784.644
549153.711,4409081.996,-783.646
549153.711,4408881.996,-781.544
549153.711,4408681.996,-781.781
549153.711,4408481.996,-781.836
549153.711,4408281.996,-781.920
549153.711,4408081.996,-781.782
549153.711,4407881.996,-781.667
549153.711,4407681.996,-781.624
549153.711,4407481.996,-781.635
549153.711,4407281.996,-780.642
549153.711,4407081.996,-772.366
549153.711,4406881.996,-735.290
549153.711,4406681.996,-685.641
549153.711,4406481.996,-633.409
549153.711,4406281.996,-583.868
549153.711,4406081.996,-564.872
549153.711,4405881.996,-551.901
549153.711,4405681.996,-539.230
549153.711,4405481.996,-530.122
549153.711,4405281.996,-517.250
549153.711,4405081.996,-505.107
549153.711,4404881.996,-501.053
549153.711,4404681.996,-502.361
549153.711,4404481.996,-502.443
549153.711,4404281.996,-501.732
549153.711,4404081.996,-502.369
549153.711,4403881.996,-503.549
549153.711,4403681.996,-506.396
549153.711,4403481.996,-510.734
549153.711,4403281.996,-513.731
549153.711,4403081.996,-515.438
549153.711,4402881.996,-516.864
549353.711,4428081.996,-517.820
549353.711,4427481.996,-539.766
549353.711,4427281.996,-564.949
549353.711,4427081.996,-592.016
549353.711,4426881.996,-602.917
549353.711,4426681.996,-612.275
549353.711,4426481.996,-630.196
549353.711,4426281.996,-644.345
549353.711,4426081.996,-653.593
549353.711,4425881.996,-660.702
549353.711,4425681.996,-665.702
549353.711,4425481.996,-669.651
549353.711,4425281.996,-673.289
549353.711,4425081.996,-678.627
549353.711,4424881.996,-684.372
549353.711,4424681.996,-688.360
549353.711,4424481.996,-690.341
549353.711,4424281.996,-691.793
549353.711,4424081.996,-693.004
549353.711,4423881.996,-695.216
549353.711,4423681.996,-697.524
549353.711,4423481.996,-699.208
549353.711,4423281.996,-700.139
549353.711,4423081.996,-706.545
549353.711,4422881.996,-710.346
549353.711,4422681.996,-712.961
549353.711,4422481.996,-715.867
549353.711,4422281.996,-718.533
549353.711,4422081.996,-720.580
549353.711,4421881.996,-723.237
549353.711,4421681.996,-725.432
549353.711,4421481.996,-727.711
549353.711,4421281.996,-729.631
549353.711,4421081.996,-731.634
549353.711,4420881.996,-733.321
549353.711,4420681.996,-735.265
549353.711,4420481.996,-737.188
549353.711,4420281.996,-739.283
549353.711,4420081.996,-741.772
549353.711,4419881.996,-744.357
549353.711,4419681.996,-746.377
549353.711,4419481.996,-746.744
549353.711,4419281.996,-747.709
549353.711,4419081.996,-749.279
549353.711,4418881.996,-751.283
549353.711,4418681.996,-752.497
549353.711,4418481.996,-753.261
549353.711,4418281.996,-752.723
549353.711,4418081.996,-752.197
549353.711,4417881.996,-753.813
549353.711,4417681.996,-754.928
549353.711,4417481.996,-754.243
549353.711,4417281.996,-754.193
549353.711,4417081.996,-755.265
549353.711,4416881.996,-756.096
549353.711,4416681.996,-756.620
549353.711,4416481.996,-757.368
549353.711,4416281.996,-758.766
549353.711,4416081.996,-760.892
549353.711,4415881.996,-762.271
549353.711,4415681.996,-763.748
549353.711,4415481.996,-765.389
549353.711,4415281.996,-767.293
549353.711,4415081.996,-770.250
549353.711,4414881.996,-771.979
549353.711,4414681.996,-774.626
549353.711,4414481.996,-775.530
549353.711,4414281.996,-776.345
549353.711,4414081.996,-777.164
549353.711,4413881.996,-777.516
549353.711,4413681.996,-777.922
549353.711,4413481.996,-778.007
549353.711,4413281.996,-777.823
549353.711,4413081.996,-777.811
549353.711,4412881.996,-778.030
549353.711,4412681.996,-778.615
549353.711,4412481.996,-779.347
549353.711,4412281.996,-779.901
549353.711,4412081.996,-780.626
549353.711,4411881.996,-780.988
549353.711,4411681.996,-781.514
549353.711,4411481.996,-782.146
549353.711,4411281.996,-782.447
549353.711,4411081.996,-782.612
549353.711,4410881.996,-782.835
549353.711,4410681.996,-782.826
549353.711,4410481.996,-782.843
549353.711,4410281.996,-782.372
549353.711,4410081.996,-782.230
549353.711,4409881.996,-782.742
549353.711,4409681.996,-783.726
549353.711,4409481.996,-784.221
549353.711,4409281.996,-783.122
549353.711,4409081.996,-781.306
549353.711,4408881.996,-781.481
549353.711,4408681.996,-781.754
549353.711,4408481.996,-781.451
549353.711,4408281.996,-781.316
549353.711,4408081.996,-781.542
549353.711,4407881.996,-781.887
549353.711,4407681.996,-781.876
549353.711,4407481.996,-781.903
549353.711,4407281.996,-779.818
549353.711,4407081.996,-764.047
549353.711,4406881.996,-700.622
549353.711,4406681.996,-651.379
549353.711,4406481.996,-614.020
549353.711,4406281.996,-590.683
549353.711,4406081.996,-567.353
549353.711,4405881.996,-547.427
549353.711,4405681.996,-524.293
549353.711,4405481.996,-508.027
549353.711,4405281.996,-497.006
549353.711,4405081.996,-489.457
549353.711,4404881.996,-488.786
549353.711,4404681.996,-487.763
549353.711,4404481.996,-483.630
549353.711,4404281.996,-476.932
549353.711,4404081.996,-475.130
549353.711,4403881.996,-475.497
549353.711,4403681.996,-478.127
549353.711,4403481.996,-483.406
549353.711,4403281.996,-489.950
549353.711,4403081.996,-496.091
549353.711,4402881.996,-503.086
549353.711,4402681.996,-515.760
549553.711,4427481.996,-526.405
549553.711,4427281.996,-555.494
549553.711,4427081.996,-574.169
549553.711,4426881.996,-585.412
549553.711,4426681.996,-601.489
549553.711,4426481.996,-622.928
549553.711,4426281.996,-637.723
549553.711,4426081.996,-648.135
549553.711,4425881.996,-656.961
549553.711,4425681.996,-664.718
549553.711,4425481.996,-670.090
549553.711,4425281.996,-673.974
549553.711,4425081.996,-678.568
549553.711,4424881.996,-684.114
549553.711,4424681.996,-689.011
549553.711,4424481.996,-691.078
549553.711,4424281.996,-692.370
549553.711,4424081.996,-693.555
549553.711,4423881.996,-695.611
549553.711,4423681.996,-698.059
549553.711,4423481.996,-700.443
549553.711,4423281.996,-701.785
549553.711,4423081.996,-705.923
549553.711,4422881.996,-709.944
549553.711,4422681.996,-713.017
549553.711,4422481.996,-715.688
549553.711,4422281.996,-718.229
549553.711,4422081.996,-720.614
549553.711,4421881.996,-723.661
549553.711,4421681.996,-726.037
549553.711,4421481.996,-727.971
549553.711,4421281.996,-730.220
549553.711,4421081.996,-732.836
549553.711,4420881.996,-734.289
549553.711,4420681.996,-736.594
549553.711,4420481.996,-738.610
549553.711,4420281.996,-741.037
549553.711,4420081.996,-743.594
549553.711,4419881.996,-745.674
549553.711,4419681.996,-747.316
549553.711,4419481.996,-747.242
549553.711,4419281.996,-748.690
549553.711,4419081.996,-750.573
549553.711,4418881.996,-752.645
549553.711,4418681.996,-753.376
549553.711,4418481.996,-754.580
549553.711,4418281.996,-755.818
549553.711,4418081.996,-756.410
549553.711,4417881.996,-757.000
549553.711,4417681.996,-756.037
549553.711,4417481.996,-755.631
549553.711,4417281.996,-755.218
549553.711,4417081.996,-756.239
549553.711,4416881.996,-757.255
549553.711,4416681.996,-758.356
549553.711,4416481.996,-759.404
549553.711,4416281.996,-759.474
549553.711,4416081.996,-760.981
549553.711,4415881.996,-762.728
549553.711,4415681.996,-764.969
549553.711,4415481.996,-766.862
549553.711,4415281.996,-768.498
549553.711,4415081.996,-770.639
549553.711,4414881.996,-772.955
549553.711,4414681.996,-774.841
549553.711,4414481.996,-775.737
549553.711,4414281.996,-776.245
549553.711,4414081.996,-776.696
549553.711,4413881.996,-777.466
549553.711,4413681.996,-776.997
549553.711,4413481.996,-777.407
549553.711,4413281.996,-777.304
549553.711,4413081.996,-777.649
549553.711,4412881.996,-777.991
549553.711,4412681.996,-778.733
549553.711,4412481.996,-779.639
549553.711,4412281.996,-780.416
549553.711,4412081.996,-781.237
549553.711,4411881.996,-781.661
549553.711,4411681.996,-782.046
549553.711,4411481.996,-782.251
549553.711,4411281.996,-782.093
549553.711,4411081.996,-781.944
549553.711,4410881.996,-782.032
549553.711,4410681.996,-781.261
549553.711,4410481.996,-781.085
549553.711,4410281.996,-781.809
549553.711,4410081.996,-782.520
549553.711,4409881.996,-783.247
549553.711,4409681.996,-783.601
549553.711,4409481.996,-782.470
549553.711,4409281.996,-781.149
549553.711,4409081.996,-781.493
549553.711,4408881.996,-781.457
549553.711,4408681.996,-781.526
549553.711,4408481.996,-781.291
549553.711,4408281.996,-781.276
549553.711,4408081.996,-781.630
549553.711,4407881.996,-782.293
549553.711,4407681.996,-782.038
549553.711,4407481.996,-780.979
549553.711,4407281.996,-778.317
549553.711,4407081.996,-759.926
549553.711,4406881.996,-677.254
549553.711,4406681.996,-646.394
549553.711,4406481.996,-619.199
549553.711,4406281.996,-589.349
549553.711,4406081.996,-553.445
549553.711,4405881.996,-522.828
549553.711,4405681.996,-495.228
549553.711,4405481.996,-481.944
549553.711,4405281.996,-473.803
549553.711,4405081.996,-467.063
549553.711,4404881.996,-466.549
549553.711,4404681.996,-462.552
549553.711,4404481.996,-454.851
549553.711,4404281.996,-453.674
549553.711,4404081.996,-456.886
549553.711,4403881.996,-462.062
549553.711,4403681.996,-467.923
549553.711,4403481.996,-475.632
549553.711,4403281.996,-484.486
549553.711,4403081.996,-494.317
549553.711,4402881.996,-503.331
549753.711,4427481.996,-520.882
549753.711,4427281.996,-524.026
549753.711,4427081.996,-537.024
549753.711,4426881.996,-559.645
549753.711,4426681.996,-595.393
549753.711,4426481.996,-611.954
549753.711,4426281.996,-626.396
549753.711,4426081.996,-638.077
549753.711,4425881.996,-648.057
549753.711,4425681.996,-661.848
549753.711,4425481.996,-669.323
549753.711,4425281.996,-673.938
549753.711,4425081.996,-679.075
549753.711,4424881.996,-684.122
549753.711,4424681.996,-688.277
549753.711,4424481.996,-690.462
549753.711,4424281.996,-692.023
549753.711,4424081.996,-693.827
549753.711,4423881.996,-695.750
549753.711,4423681.996,-698.435
549753.711,4423481.996,-700.743
549753.711,4423281.996,-702.130
549753.711,4423081.996,-705.050
549753.711,4422881.996,-708.849
549753.711,4422681.996,-712.244
549753.711,4422481.996,-715.004
549753.711,4422281.996,-717.860
549753.711,4422081.996,-720.378
549753.711,4421881.996,-723.837
549753.711,4421681.996,-726.590
549753.711,4421481.996,-728.720
549753.711,4421281.996,-730.798
549753.711,4421081.996,-733.338
549753.711,4420881.996,-734.879
549753.711,4420681.996,-737.716
549753.711,4420481.996,-740.213
549753.711,4420281.996,-742.551
549753.711,4420081.996,-745.087
549753.711,4419881.996,-746.857
549753.711,4419681.996,-748.228
549753.711,4419481.996,-748.580
549753.711,4419281.996,-749.614
549753.711,4419081.996,-750.829
549753.711,4418881.996,-752.138
549753.711,4418681.996,-753.249
549753.711,4418481.996,-754.879
549753.711,4418281.996,-756.498
549753.711,4418081.996,-757.290
549753.711,4417881.996,-757.039
549753.711,4417681.996,-756.717
549753.711,4417481.996,-756.653
549753.711,4417281.996,-756.535
549753.711,4417081.996,-757.376
549753.711,4416881.996,-757.974
549753.711,4416681.996,-759.136
549753.711,4416481.996,-759.592
549753.711,4416281.996,-760.115
549753.711,4416081.996,-761.311
549753.711,4415881.996,-763.470
549753.711,4415681.996,-765.801
549753.711,4415481.996,-767.742
549753.711,4415281.996,-769.238
549753.711,4415081.996,-770.898
549753.711,4414881.996,-773.074
549753.711,4414681.996,-774.816
549753.711,4414481.996,-775.552
549753.711,4414281.996,-776.158
549753.711,4414081.996,-775.911
549753.711,4413881.996,-776.490
549753.711,4413681.996,-776.695
549753.711,4413481.996,-776.833
549753.711,4413281.996,-777.071
549753.711,4413081.996,-777.672
549753.711,4412881.996,-778.060
549753.711,4412681.996,-778.838
549753.711,4412481.996,-779.556
549753.711,4412281.996,-780.569
549753.711,4412081.996,-781.305
549753.711,4411881.996,-781.892
549753.711,4411681.996,-781.899
549753.711,4411481.996,-781.240
549753.711,4411281.996,-780.600
549753.711,4411081.996,-780.962
549753.711,4410881.996,-780.897
549753.711,4410681.996,-780.742
549753.711,4410481.996,-781.525
549753.711,4410281.996,-782.541
549753.711,4410081.996,-783.285
549753.711,4409881.996,-782.897
549753.711,4409681.996,-781.667
549753.711,4409481.996,-781.034
549753.711,4409281.996,-781.329
549753.711,4409081.996,-781.502
549753.711,4408881.996,-781.414
549753.711,4408681.996,-781.166
549753.711,4408481.996,-781.091
549753.711,4408281.996,-781.440
549753.711,4408081.996,-781.730
549753.711,4407881.996,-782.266
549753.711,4407681.996,-781.566
549753.711,4407481.996,-780.124
549753.711,4407281.996,-777.353
549753.711,4407081.996,-755.755
549753.711,4406881.996,-678.533
549753.711,4406681.996,-640.847
549753.711,4406481.996,-598.218
549753.711,4406281.996,-551.794
549753.711,4406081.996,-508.059
549753.711,4405881.996,-476.232
549753.711,4405681.996,-460.166
549753.711,4405481.996,-451.723
549753.711,4405281.996,-444.248
549753.711,4405081.996,-442.032
549753.711,4404881.996,-444.228
549753.711,4404681.996,-445.897
549753.711,4404481.996,-448.883
549753.711,4404281.996,-455.680
549753.711,4404081.996,-460.627
549753.711,4403881.996,-466.004
549753.711,4403681.996,-472.682
549753.711,4403481.996,-481.924
549753.711,4403281.996,-491.143
549753.711,4403081.996,-500.662
549753.711,4402881.996,-509.843
549953.711,4427281.996,-520.721
549953.711,4427081.996,-514.615
549953.711,4426881.996,-526.965
549953.711,4426681.996,-576.364
549953.711,4426481.996,-591.576
549953.711,4426281.996,-610.770
549953.711,4426081.996,-623.498
549953.711,4425881.996,-638.263
549953.711,4425681.996,-657.341
549953.711,4425481.996,-665.445
549953.711,4425281.996,-670.184
549953.711,4425081.996,-676.845
549953.711,4424881.996,-682.319
549953.711,4424681.996,-685.026
549953.711,4424481.996,-687.257
549953.711,4424281.996,-689.521
549953.711,4424081.996,-692.388
549953.711,4423881.996,-695.309
549953.711,4423681.996,-698.024
549953.711,4423481.996,-700.382
549953.711,4423281.996,-702.218
549953.711,4423081.996,-704.037
549953.711,4422881.996,-707.556
549953.711,4422681.996,-711.890
549953.711,4422481.996,-714.722
549953.711,4422281.996,-717.653
549953.711,4422081.996,-720.589
549953.711,4421881.996,-723.490
549953.711,4421681.996,-726.934
549953.711,4421481.996,-729.424
549953.711,4421281.996,-731.684
549953.711,4421081.996,-733.770
549953.711,4420881.996,-735.766
549953.711,4420681.996,-738.485
549953.711,4420481.996,-741.131
549953.711,4420281.996,-743.504
549953.711,4420081.996,-745.854
549953.711,4419881.996,-747.991
549953.711,4419681.996,-749.110
549953.711,4419481.996,-750.011
549953.711,4419281.996,-750.726
549953.711,4419081.996,-751.756
549953.711,4418881.996,-753.003
549953.711,4418681.996,-753.806
549953.711,4418481.996,-755.329
549953.711,4418281.996,-756.748
549953.711,4418081.996,-757.622
549953.711,4417881.996,-757.710
549953.711,4417681.996,-757.769
549953.711,4417481.996,-757.878
549953.711,4417281.996,-757.873
549953.711,4417081.996,-758.849
549953.711,4416881.996,-759.079
549953.711,4416681.996,-759.718
549953.711,4416481.996,-760.401
549953.711,4416281.996,-761.156
549953.711,4416081.996,-762.322
549953.711,4415881.996,-764.188
549953.711,4415681.996,-766.526
549953.711,4415481.996,-768.361
549953.711,4415281.996,-769.759
549953.711,4415081.996,-771.229
549953.711,4414881.996,-772.854
549953.711,4414681.996,-774.167
549953.711,4414481.996,-775.299
549953.711,4414281.996,-775.876
549953.711,4414081.996,-776.029
549953.711,4413881.996,-776.026
549953.711,4413681.996,-776.394
549953.711,4413481.996,-776.745
549953.711,4413281.996,-776.976
549953.711,4413081.996,-778.119
549953.711,4412881.996,-778.430
549953.711,4412681.996,-778.978
549953.711,4412481.996,-779.228
549953.711,4412281.996,-780.158
549953.711,4412081.996,-780.923
549953.711,4411881.996,-780.779
549953.711,4411681.996,-780.916
549953.711,4411481.996,-780.630
549953.711,4411281.996,-780.017
549953.711,4411081.996,-780.161
549953.711,4410881.996,-780.240
549953.711,4410681.996,-781.169
549953.711,4410481.996,-782.153
549953.711,4410281.996,-783.074
549953.711,4410081.996,-783.118
549953.711,4409881.996,-781.173
549953.711,4409681.996,-780.804
549953.711,4409481.996,-781.085
549953.711,4409281.996,-781.306
549953.711,4409081.996,-781.136
549953.711,4408881.996,-781.002
549953.711,4408681.996,-781.131
549953.711,4408481.996,-781.293
549953.711,4408281.996,-781.401
549953.711,4408081.996,-781.559
549953.711,4407881.996,-781.436
549953.711,4407681.996,-780.541
549953.711,4407481.996,-779.422
549953.711,4407281.996,-775.447
549953.711,4407081.996,-742.891
549953.711,4406881.996,-680.976
549953.711,4406681.996,-618.958
549953.711,4406481.996,-555.349
549953.711,4406281.996,-507.867
549953.711,4406081.996,-468.211
549953.711,4405881.996,-444.099
549953.711,4405681.996,-435.522
549953.711,4405481.996,-435.085
549953.711,4405281.996,-437.066
549953.711,4405081.996,-440.952
549953.711,4404881.996,-446.861
549953.711,4404681.996,-452.512
549953.711,4404481.996,-457.831
549953.711,4404281.996,-465.690
549953.711,4404081.996,-473.344
549953.711,4403881.996,-478.447
549953.711,4403681.996,-484.270
549953.711,4403481.996,-492.565
549953.711,4403281.996,-500.252
549953.711,4403081.996,-508.449
549953.711,4402881.996,-517.551
550153.711,4427081.996,-512.278
550153.711,4426881.996,-508.608
550153.711,4426681.996,-546.350
550153.711,4426481.996,-559.692
550153.711,4426281.996,-588.872
550153.711,4426081.996,-607.264
550153.711,4425881.996,-632.153
550153.711,4425681.996,-649.150
550153.711,4425481.996,-658.756
550153.711,4425281.996,-665.211
550153.711,4425081.996,-672.381
550153.711,4424881.996,-679.017
550153.711,4424681.996,-682.258
550153.711,4424481.996,-684.368
550153.711,4424281.996,-686.810
550153.711,4424081.996,-690.255
550153.711,4423881.996,-693.715
550153.711,4423681.996,-696.346
550153.711,4423481.996,-698.590
550153.711,4423281.996,-701.008
550153.711,4423081.996,-703.201
550153.711,4422881.996,-706.630
550153.711,4422681.996,-711.394
550153.711,4422481.996,-714.539
550153.711,4422281.996,-717.413
550153.711,4422081.996,-720.058
550153.711,4421881.996,-722.568
550153.711,4421681.996,-726.087
550153.711,4421481.996,-729.146
550153.711,4421281.996,-732.075
550153.711,4421081.996,-734.297
550153.711,4420881.996,-736.898
550153.711,4420681.996,-738.970
550153.711,4420481.996,-741.519
550153.711,4420281.996,-743.679
550153.711,4420081.996,-745.894
550153.711,4419881.996,-747.986
550153.711,4419681.996,-749.408
550153.711,4419481.996,-751.111
550153.711,4419281.996,-751.905
550153.711,4419081.996,-752.441
550153.711,4418881.996,-753.722
550153.711,4418681.996,-754.632
550153.711,4418481.996,-755.942
550153.711,4418281.996,-757.012
550153.711,4418081.996,-757.797
550153.711,4417881.996,-758.134
550153.711,4417681.996,-758.291
550153.711,4417481.996,-758.653
550153.711,4417281.996,-758.597
550153.711,4417081.996,-759.373
550153.711,4416881.996,-759.812
550153.711,4416681.996,-760.901
550153.711,4416481.996,-761.844
550153.711,4416281.996,-762.702
550153.711,4416081.996,-763.379
550153.711,4415881.996,-764.996
550153.711,4415681.996,-767.215
550153.711,4415481.996,-768.958
550153.711,4415281.996,-769.938
550153.711,4415081.996,-771.412
550153.711,4414881.996,-772.363
550153.711,4414681.996,-773.543
550153.711,4414481.996,-774.519
550153.711,4414281.996,-774.583
550153.711,4414081.996,-775.171
550153.711,4413881.996,-775.598
550153.711,4413681.996,-776.224
550153.711,4413481.996,-776.864
550153.711,4413281.996,-777.173
550153.711,4413081.996,-778.090
550153.711,4412881.996,-778.369
550153.711,4412681.996,-778.635
550153.711,4412481.996,-779.256
550153.711,4412281.996,-779.995
550153.711,4412081.996,-780.037
550153.711,4411881.996,-780.119
550153.711,4411681.996,-780.381
550153.711,4411481.996,-780.555
550153.711,4411281.996,-779.634
550153.711,4411081.996,-780.168
550153.711,4410881.996,-780.880
550153.711,4410681.996,-781.752
550153.711,4410481.996,-782.774
550153.711,4410281.996,-782.790
550153.711,4410081.996,-780.941
550153.711,4409881.996,-780.645
550153.711,4409681.996,-780.757
550153.711,4409481.996,-780.952
550153.711,4409281.996,-781.017
550153.711,4409081.996,-780.767
550153.711,4408881.996,-780.871
550153.711,4408681.996,-781.122
550153.711,4408481.996,-781.379
550153.711,4408281.996,-781.212
550153.711,4408081.996,-780.825
550153.711,4407881.996,-780.395
550153.711,4407681.996,-779.870
550153.711,4407481.996,-778.969
550153.711,4407281.996,-773.477
550153.711,4407081.996,-729.972
550153.711,4406881.996,-669.910
550153.711,4406681.996,-605.352
550153.711,4406481.996,-527.734
550153.711,4406281.996,-479.354
550153.711,4406081.996,-444.441
550153.711,4405881.996,-434.451
550153.711,4405681.996,-434.539
550153.711,4405481.996,-439.082
550153.711,4405281.996,-445.576
550153.711,4405081.996,-452.861
550153.711,4404881.996,-458.898
550153.711,4404681.996,-462.371
550153.711,4404481.996,-466.078
550153.711,4404281.996,-470.964
550153.711,4404081.996,-479.778
550153.711,4403881.996,-485.865
550153.711,4403681.996,-492.399
550153.711,4403481.996,-500.933
550153.711,4403281.996,-509.418
550153.711,4403081.996,-518.528
550153.711,4402881.996,-527.529
550353.711,4426881.996,-505.988
550353.711,4426681.996,-516.172
550353.711,4426481.996,-523.647
550353.711,4426281.996,-559.692
550353.711,4426081.996,-598.850
550353.711,4425881.996,-628.334
550353.711,4425681.996,-642.089
550353.711,4425481.996,-651.593
550353.711,4425281.996,-660.384
550353.711,4425081.996,-668.484
550353.711,4424881.996,-675.840
550353.711,4424681.996,-680.535
550353.711,4424481.996,-683.049
550353.711,4424281.996,-685.550
550353.711,4424081.996,-688.555
550353.711,4423881.996,-691.514
550353.711,4423681.996,-694.414
550353.711,4423481.996,-696.850
550353.711,4423281.996,-699.781
550353.711,4423081.996,-702.328
550353.711,4422881.996,-705.627
550353.711,4422681.996,-709.847
550353.711,4422481.996,-713.626
550353.711,4422281.996,-716.474
550353.711,4422081.996,-719.374
550353.711,4421881.996,-721.808
550353.711,4421681.996,-725.651
550353.711,4421481.996,-728.666
550353.711,4421281.996,-731.386
550353.711,4421081.996,-734.492
550353.711,4420881.996,-737.138
550353.711,4420681.996,-739.337
550353.711,4420481.996,-741.692
550353.711,4420281.996,-743.761
550353.711,4420081.996,-745.791
550353.711,4419881.996,-747.732
550353.711,4419681.996,-748.899
550353.711,4419481.996,-750.968
550353.711,4419281.996,-752.259
550353.711,4419081.996,-752.807
550353.711,4418881.996,-753.313
550353.711,4418681.996,-754.629
550353.711,4418481.996,-755.791
550353.711,4418281.996,-756.814
550353.711,4418081.996,-757.974
550353.711,4417881.996,-758.598
550353.711,4417681.996,-758.840
550353.711,4417481.996,-759.169
550353.711,4417281.996,-759.440
550353.711,4417081.996,-759.382
550353.711,4416881.996,-760.486
550353.711,4416681.996,-761.469
550353.711,4416481.996,-762.455
550353.711,4416281.996,-763.557
550353.711,4416081.996,-764.700
550353.711,4415881.996,-766.325
550353.711,4415681.996,-767.624
550353.711,4415481.996,-769.346
550353.711,4415281.996,-770.226
550353.711,4415081.996,-770.897
550353.711,4414881.996,-771.719
550353.711,4414681.996,-772.761
550353.711,4414481.996,-773.374
550353.711,4414281.996,-773.849
550353.711,4414081.996,-774.346
550353.711,4413881.996,-775.007
550353.711,4413681.996,-776.261
550353.711,4413481.996,-777.097
550353.711,4413281.996,-777.932
550353.711,4413081.996,-777.798
550353.711,4412881.996,-778.149
550353.711,4412681.996,-778.837
550353.711,4412481.996,-779.419
550353.711,4412281.996,-779.637
550353.711,4412081.996,-779.727
550353.711,4411881.996,-779.854
550353.711,4411681.996,-779.623
550353.711,4411481.996,-779.662
550353.711,4411281.996,-780.133
550353.711,4411081.996,-780.625
550353.711,4410881.996,-781.657
550353.711,4410681.996,-782.064
550353.711,4410481.996,-781.905
550353.711,4410281.996,-780.395
550353.711,4410081.996,-780.402
550353.711,4409881.996,-780.589
550353.711,4409681.996,-780.485
550353.711,4409481.996,-780.668
550353.711,4409281.996,-780.521
550353.711,4409081.996,-780.521
550353.711,4408881.996,-780.942
550353.711,4408681.996,-781.071
550353.711,4408481.996,-780.819
550353.711,4408281.996,-780.537
550353.711,4408081.996,-780.023
550353.711,4407881.996,-779.753
550353.711,4407681.996,-779.482
550353.711,4407481.996,-778.612
550353.711,4407281.996,-767.948
550353.711,4407081.996,-715.840
550353.711,4406881.996,-648.245
550353.711,4406681.996,-587.911
550353.711,4406481.996,-523.785
550353.711,4406281.996,-468.397
550353.711,4406081.996,-438.646
550353.711,4405881.996,-439.153
550353.711,4405681.996,-443.112
550353.711,4405481.996,-448.356
550353.711,4405281.996,-453.432
550353.711,4405081.996,-459.375
550353.711,4404881.996,-463.701
550353.711,4404681.996,-468.309
550353.711,4404481.996,-474.716
550353.711,4404281.996,-481.982
550353.711,4404081.996,-489.921
550353.711,4403881.996,-497.076
550353.711,4403681.996,-503.116
550353.711,4403481.996,-511.998
550353.711,4403281.996,-519.265
550353.711,4403081.996,-527.162
550353.711,4402881.996,-534.845
550353.711,4402481.996,-549.004
550553.711,4426481.996,-531.130
550553.711,4426281.996,-557.323
550553.711,4426081.996,-598.159
550553.711,4425881.996,-621.747
550553.711,4425681.996,-635.210
550553.711,4425481.996,-645.068
550553.711,4425281.996,-655.919
550553.711,4425081.996,-664.776
550553.711,4424881.996,-672.212
550553.711,4424681.996,-677.794
550553.711,4424481.996,-681.110
550553.711,4424281.996,-683.632
550553.711,4424081.996,-686.069
550553.711,4423881.996,-689.144
550553.711,4423681.996,-692.979
550553.711,4423481.996,-696.004
550553.711,4423281.996,-699.240
550553.711,4423081.996,-701.946
550553.711,4422881.996,-704.420
550553.711,4422681.996,-708.139
550553.711,4422481.996,-712.208
550553.711,4422281.996,-715.644
550553.711,4422081.996,-718.469
550553.711,4421881.996,-721.438
550553.711,4421681.996,-725.288
550553.711,4421481.996,-728.841
550553.711,4421281.996,-731.497
550553.711,4421081.996,-734.730
550553.711,4420881.996,-736.709
550553.711,4420681.996,-738.734
550553.711,4420481.996,-741.044
550553.711,4420281.996,-743.430
550553.711,4420081.996,-745.415
550553.711,4419881.996,-747.219
550553.711,4419681.996,-748.452
550553.711,4419481.996,-750.857
550553.711,4419281.996,-752.295
550553.711,4419081.996,-753.171
550553.711,4418881.996,-753.572
550553.711,4418681.996,-755.361
550553.711,4418481.996,-756.398
550553.711,4418281.996,-757.139
550553.711,4418081.996,-758.301
550553.711,4417881.996,-759.000
550553.711,4417681.996,-759.040
550553.711,4417481.996,-759.582
550553.711,4417281.996,-760.130
550553.711,4417081.996,-759.624
550553.711,4416881.996,-760.735
550553.711,4416681.996,-761.939
550553.711,4416481.996,-763.682
550553.711,4416281.996,-765.202
550553.711,4416081.996,-766.278
550553.711,4415881.996,-767.354
550553.711,4415681.996,-768.418
550553.711,4415481.996,-769.497
550553.711,4415281.996,-769.929
550553.711,4415081.996,-770.392
550553.711,4414881.996,-770.987
550553.711,4414681.996,-771.610
550553.711,4414481.996,-772.422
550553.711,4414281.996,-772.810
550553.711,4414081.996,-773.573
550553.711,4413881.996,-774.578
550553.711,4413681.996,-776.378
550553.711,4413481.996,-777.219
550553.711,4413281.996,-777.925
550553.711,4413081.996,-778.017
550553.711,4412881.996,-778.399
550553.711,4412681.996,-778.881
550553.711,4412481.996,-779.048
550553.711,4412281.996,-779.270
550553.711,4412081.996,-779.265
550553.711,4411881.996,-779.207
550553.711,4411681.996,-779.064
550553.711,4411481.996,-779.354
550553.711,4411281.996,-780.351
550553.711,4411081.996,-781.215
550553.711,4410881.996,-781.884
550553.711,4410681.996,-781.599
550553.711,4410481.996,-780.011
550553.711,4410281.996,-780.068
550553.711,4410081.996,-780.309
550553.711,4409881.996,-780.232
550553.711,4409681.996,-780.295
550553.711,4409481.996,-780.347
550553.711,4409281.996,-780.340
550553.711,4409081.996,-780.525
550553.711,4408881.996,-780.872
550553.711,4408681.996,-780.654
550553.711,4408481.996,-780.268
550553.711,4408281.996,-779.810
550553.711,4408081.996,-779.526
550553.711,4407881.996,-779.381
550553.711,4407681.996,-779.502
550553.711,4407481.996,-777.508
550553.711,4407281.996,-754.381
550553.711,4407081.996,-689.481
550553.711,4406881.996,-619.953
550553.711,4406681.996,-563.944
550553.711,4406481.996,-507.640
550553.711,4406281.996,-457.223
550553.711,4406081.996,-443.353
550553.711,4405881.996,-449.615
550553.711,4405681.996,-457.025
550553.711,4405481.996,-461.359
550553.711,4405281.996,-463.929
550553.711,4405081.996,-466.550
550553.711,4404881.996,-471.291
550553.711,4404681.996,-478.825
550553.711,4404481.996,-488.393
550553.711,4404281.996,-496.485
550553.711,4404081.996,-501.549
550553.711,4403881.996,-508.038
550553.711,4403681.996,-512.475
550553.711,4403481.996,-520.443
550553.711,4403281.996,-528.003
550553.711,4403081.996,-535.546
550553.711,4402881.996,-541.842
550553.711,4402681.996,-547.864
550553.711,4402481.996,-551.882
550753.711,4426481.996,-535.210
550753.711,4426281.996,-568.185
550753.711,4426081.996,-593.648
550753.711,4425881.996,-613.377
550753.711,4425681.996,-627.741
550753.711,4425481.996,-638.564
550753.711,4425281.996,-651.958
550753.711,4425081.996,-661.916
550753.711,4424881.996,-668.547
550753.711,4424681.996,-673.462
550753.711,4424481.996,-676.890
550753.711,4424281.996,-679.626
550753.711,4424081.996,-683.550
550753.711,4423881.996,-687.223
550753.711,4423681.996,-691.417
550753.711,4423481.996,-695.312
550753.711,4423281.996,-698.885
550753.711,4423081.996,-702.025
550753.711,4422881.996,-704.688
550753.711,4422681.996,-707.528
550753.711,4422481.996,-710.717
550753.711,4422281.996,-713.967
550753.711,4422081.996,-718.069
550753.711,4421881.996,-721.845
550753.711,4421681.996,-725.036
550753.711,4421481.996,-728.592
550753.711,4421281.996,-731.301
550753.711,4421081.996,-734.376
550753.711,4420881.996,-736.847
550753.711,4420681.996,-738.278
550753.711,4420481.996,-740.106
550753.711,4420281.996,-742.145
550753.711,4420081.996,-744.142
550753.711,4419881.996,-746.364
550753.711,4419681.996,-748.084
550753.711,4419481.996,-750.287
550753.711,4419281.996,-752.437
550753.711,4419081.996,-753.729
550753.711,4418881.996,-754.276
550753.711,4418681.996,-755.456
550753.711,4418481.996,-756.315
550753.711,4418281.996,-757.283
550753.711,4418081.996,-758.082
550753.711,4417881.996,-759.006
550753.711,4417681.996,-759.520
550753.711,4417481.996,-760.080
550753.711,4417281.996,-760.189
550753.711,4417081.996,-760.272
550753.711,4416881.996,-760.910
550753.711,4416681.996,-762.585
550753.711,4416481.996,-764.574
550753.711,4416281.996,-766.045
550753.711,4416081.996,-766.368
550753.711,4415881.996,-767.879
550753.711,4415681.996,-768.579
550753.711,4415481.996,-769.013
550753.711,4415281.996,-769.383
550753.711,4415081.996,-769.899
550753.711,4414881.996,-770.197
550753.711,4414681.996,-770.560
550753.711,4414481.996,-771.318
550753.711,4414281.996,-771.871
550753.711,4414081.996,-773.003
550753.711,4413881.996,-774.182
550753.711,4413681.996,-775.846
550753.711,4413481.996,-777.399
