665596.871,4474885.059,-287.758
665596.871,4474785.059,-289.892
665596.871,4474685.059,-295.459
665596.871,4474585.059,-300.861
665596.871,4474485.059,-309.979
665596.871,4474385.059,-321.757
665596.871,4474285.059,-321.215
665596.871,4474185.059,-324.701
665596.871,4474085.059,-330.861
665596.871,4473985.059,-337.923
665596.871,4473885.059,-339.772
665596.871,4473785.059,-343.905
665596.871,4473685.059,-347.235
665596.871,4473585.059,-352.816
665596.871,4473485.059,-357.652
665596.871,4473385.059,-368.353
665596.871,4473285.059,-383.187
665596.871,4473185.059,-385.316
665596.871,4473085.059,-388.609
665596.871,4472985.059,-394.971
665596.871,4472885.059,-401.213
665596.871,4472785.059,-401.133
665596.871,4472685.059,-412.602
665596.871,4472585.059,-422.541
665596.871,4472485.059,-430.723
665596.871,4472385.059,-436.746
665596.871,4472285.059,-445.699
665596.871,4472185.059,-456.887
665596.871,4472085.059,-463.722
665596.871,4471985.059,-470.243
665596.871,4471885.059,-478.611
665596.871,4471785.059,-488.201
665596.871,4471685.059,-496.982
665596.871,4471585.059,-503.588
665596.871,4471485.059,-515.707
665596.871,4471385.059,-529.246
665596.871,4471285.059,-547.699
665596.871,4471185.059,-549.926
665596.871,4471085.059,-560.294
665596.871,4470985.059,-571.432
665596.871,4470885.059,-581.065
665596.871,4470785.059,-589.760
665596.871,4470685.059,-592.014
665596.871,4470585.059,-595.035
665596.871,4470485.059,-599.418
665596.871,4470385.059,-604.584
665596.871,4470285.059,-609.346
665596.871,4470185.059,-612.720
665596.871,4470085.059,-617.171
665596.871,4469985.059,-618.665
665596.871,4469885.059,-620.272
665596.871,4469785.059,-622.723
665596.871,4469685.059,-624.772
665596.871,4469585.059,-627.626
665596.871,4469485.059,-628.938
665596.871,4469385.059,-631.165
665596.871,4469285.059,-635.696
665596.871,4469185.059,-639.836
665596.871,4469085.059,-646.450
665596.871,4468985.059,-646.195
665596.871,4468885.059,-647.595
665596.871,4468785.059,-645.986
665596.871,4468685.059,-646.482
665596.871,4467285.059,-642.194
665596.871,4467185.059,-641.958
665596.871,4467085.059,-641.722
665596.871,4466985.059,-641.485
665596.871,4466885.059,-641.249
665596.871,4466785.059,-641.012
665596.871,4466685.059,-640.776
665596.871,4466585.059,-640.540
665596.871,4466485.059,-640.303
665596.871,4466385.059,-640.067
665596.871,4466285.059,-639.830
665596.871,4466185.059,-639.594
665596.871,4466085.059,-639.357
665596.871,4464285.059,-635.102
665596.871,4464185.059,-612.547
665596.871,4464085.059,-592.045
665596.871,4463985.059,-574.664
665596.871,4463885.059,-568.134
665596.871,4463785.059,-562.824
665596.871,4463685.059,-557.129
665596.871,4463585.059,-549.461
665596.871,4463485.059,-551.426
665596.871,4463385.059,-567.137
665596.871,4463285.059,-577.414
665596.871,4463185.059,-582.597
665596.871,4463085.059,-589.236
665596.871,4462985.059,-601.063
665596.871,4462885.059,-613.758
665596.871,4462785.059,-627.255
665596.871,4462685.059,-640.534
665596.871,4462585.059,-647.918
665596.871,4462485.059,-646.222
665596.871,4447285.059,-643.038
665596.871,4447185.059,-624.140
665596.871,4447085.059,-610.915
665596.871,4446985.059,-594.958
665596.871,4446885.059,-583.645
665596.871,4446785.059,-583.996
665596.871,4446685.059,-587.374
665596.871,4446585.059,-589.003
665596.871,4446485.059,-593.312
665596.871,4446385.059,-594.000
665596.871,4446285.059,-595.450
665596.871,4446185.059,-598.169
665596.871,4446085.059,-598.352
665596.871,4445985.059,-599.139
665596.871,4445885.059,-598.118
665596.871,4445785.059,-596.809
665596.871,4445685.059,-596.674
665596.871,4445585.059,-595.770
665596.871,4445485.059,-595.300
665596.871,4445385.059,-594.964
665596.871,4445285.059,-594.409
665596.871,4445185.059,-595.437
665596.871,4445085.059,-593.777
665596.871,4444985.059,-592.879
665596.871,4444885.059,-592.652
665596.871,4444785.059,-592.964
665596.871,4444685.059,-592.297
665596.871,4444585.059,-591.243
665596.871,4444485.059,-589.429
665596.871,4444385.059,-587.023
665596.871,4444285.059,-585.307
665596.871,4444185.059,-584.226
665596.871,4444085.059,-581.507
665596.871,4443985.059,-579.848
665596.871,4443885.059,-580.619
665596.871,4443785.059,-581.701
665596.871,4443685.059,-581.270
665596.871,4443585.059,-581.153
665596.871,4443485.059,-580.006
665596.871,4443385.059,-579.214
665596.871,4443285.059,-578.019
665596.871,4443185.059,-582.079
665596.871,4443085.059,-579.025
665596.871,4442985.059,-579.287
665596.871,4442885.059,-578.648
665596.871,4442785.059,-577.378
665596.871,4442685.059,-579.901
665596.871,4442585.059,-578.767
665596.871,4442485.059,-580.699
665596.871,4442385.059,-582.789
665596.871,4442285.059,-586.908
665596.871,4442185.059,-591.909
665596.871,4442085.059,-596.477
665596.871,4441985.059,-602.055
665596.871,4441885.059,-605.762
665596.871,4441785.059,-608.673
665596.871,4441685.059,-612.317
665596.871,4441585.059,-614.833
665596.871,4441485.059,-617.429
665596.871,4441385.059,-619.124
665596.871,4441285.059,-619.178
665596.871,4441185.059,-619.968
665596.871,4441085.059,-619.504
665596.871,4440985.059,-620.565
665596.871,4440885.059,-619.108
665596.871,4440785.059,-620.199
665596.871,4440685.059,-619.578
665596.871,4440585.059,-620.701
665596.871,4440485.059,-619.161
665596.871,4440385.059,-619.709
665596.871,4440285.059,-622.477
665596.871,4440185.059,-623.930
665596.871,4440085.059,-626.927
665596.871,4439985.059,-629.814
665596.871,4439885.059,-634.627
665596.871,4439785.059,-638.087
665596.871,4439685.059,-642.165
665596.871,4439585.059,-645.561
665596.871,4439485.059,-649.397
665596.871,4439385.059,-648.991
665596.871,4439285.059,-648.377
665596.871,4439185.059,-647.403
665596.871,4439085.059,-648.460
665596.871,4437985.059,-648.728
665596.871,4437885.059,-649.505
665596.871,4437785.059,-640.658
665596.871,4437685.059,-646.641
665596.871,4437585.059,-645.421
665596.871,4437485.059,-643.644
665596.871,4437385.059,-644.382
665596.871,4437285.059,-645.177
665596.871,4437185.059,-644.271
665696.871,4478185.059,-143.787
665696.871,4478085.059,-150.299
665696.871,4477985.059,-156.276
665696.871,4477885.059,-156.484
665696.871,4477785.059,-159.851
665696.871,4477685.059,-164.075
665696.871,4477585.059,-168.717
665696.871,4477485.059,-170.963
665696.871,4477385.059,-175.124
665696.871,4477285.059,-179.796
665696.871,4477185.059,-186.288
665696.871,4477085.059,-193.589
665696.871,4476985.059,-199.094
665696.871,4476885.059,-205.285
665696.871,4476785.059,-209.367
665696.871,4476685.059,-209.887
665696.871,4476585.059,-213.313
665696.871,4476485.059,-213.617
665696.871,4476385.059,-217.581
665696.871,4476285.059,-221.513
665696.871,4476185.059,-226.561
665696.871,4476085.059,-232.477
665696.871,4475985.059,-238.274
665696.871,4475885.059,-241.083
665696.871,4475785.059,-245.076
665696.871,4475685.059,-249.610
665696.871,4475585.059,-254.190
665696.871,4475485.059,-259.037
665696.871,4475385.059,-264.955
665696.871,4475285.059,-265.447
665696.871,4475185.059,-268.836
665696.871,4475085.059,-279.547
665696.871,4474985.059,-280.899
665696.871,4474885.059,-287.570
665696.871,4474785.059,-290.453
665696.871,4474685.059,-293.750
665696.871,4474585.059,-298.627
665696.871,4474485.059,-304.173
665696.871,4474385.059,-310.984
665696.871,4474285.059,-321.229
665696.871,4474185.059,-331.236
665696.871,4474085.059,-335.686
665696.871,4473985.059,-338.683
665696.871,4473885.059,-345.588
665696.871,4473785.059,-351.357
665696.871,4473685.059,-355.199
665696.871,4473585.059,-359.628
665696.871,4473485.059,-364.202
665696.871,4473385.059,-369.131
665696.871,4473285.059,-368.677
665696.871,4473185.059,-374.751
665696.871,4473085.059,-384.942
665696.871,4472985.059,-394.332
665696.871,4472885.059,-401.995
665696.871,4472785.059,-408.332
665696.871,4472685.059,-414.682
665696.871,4472585.059,-423.621
665696.871,4472485.059,-431.645
665696.871,4472385.059,-436.664
665696.871,4472285.059,-444.698
665696.871,4472185.059,-452.368
665696.871,4472085.059,-460.645
665696.871,4471985.059,-466.667
665696.871,4471885.059,-471.286
665696.871,4471785.059,-483.686
665696.871,4471685.059,-490.647
665696.871,4471585.059,-498.422
665696.871,4471485.059,-504.297
665696.871,4471385.059,-513.203
665696.871,4471285.059,-528.337
665696.871,4471185.059,-564.326
665696.871,4471085.059,-579.226
665696.871,4470985.059,-586.711
665696.871,4470885.059,-590.130
665696.871,4470785.059,-590.559
665696.871,4470685.059,-592.713
665696.871,4470585.059,-595.278
665696.871,4470485.059,-599.496
665696.871,4470385.059,-604.162
665696.871,4470285.059,-609.150
665696.871,4470185.059,-612.902
665696.871,4470085.059,-617.839
665696.871,4469985.059,-619.730
665696.871,4469885.059,-621.568
665696.871,4469785.059,-623.063
665696.871,4469685.059,-625.087
665696.871,4469585.059,-628.499
665696.871,4469485.059,-629.776
665696.871,4469385.059,-633.771
665696.871,4469285.059,-636.705
665696.871,4469185.059,-641.231
665696.871,4469085.059,-645.293
665696.871,4468985.059,-646.574
665696.871,4468885.059,-647.973
665696.871,4468785.059,-645.834
665696.871,4468685.059,-646.857
665696.871,4467285.059,-639.272
665696.871,4467185.059,-638.937
665696.871,4467085.059,-638.603
665696.871,4466985.059,-638.268
665696.871,4466885.059,-637.934
665696.871,4466785.059,-637.599
665696.871,4466685.059,-637.265
665696.871,4466585.059,-636.930
665696.871,4466485.059,-636.596
665696.871,4466385.059,-636.261
665696.871,4466285.059,-635.927
665696.871,4466185.059,-635.592
665696.871,4466085.059,-635.258
665696.871,4464285.059,-629.237
665696.871,4464185.059,-607.312
665696.871,4464085.059,-583.309
665696.871,4463985.059,-568.779
665696.871,4463885.059,-564.302
665696.871,4463785.059,-561.432
665696.871,4463685.059,-557.129
665696.871,4463585.059,-559.504
665696.871,4463485.059,-561.376
665696.871,4463385.059,-574.633
665696.871,4463285.059,-580.714
665696.871,4463185.059,-584.936
665696.871,4463085.059,-590.960
665696.871,4462985.059,-598.549
665696.871,4462885.059,-609.791
665696.871,4462785.059,-623.282
665696.871,4462685.059,-636.306
665696.871,4462585.059,-647.504
665696.871,4462485.059,-645.976
665696.871,4447185.059,-633.945
665696.871,4447085.059,-615.490
665696.871,4446985.059,-598.374
665696.871,4446885.059,-590.703
665696.871,4446785.059,-591.505
665696.871,4446685.059,-593.168
665696.871,4446585.059,-594.160
665696.871,4446485.059,-597.699
665696.871,4446385.059,-598.181
665696.871,4446285.059,-599.164
665696.871,4446185.059,-599.533
665696.871,4446085.059,-600.349
665696.871,4445985.059,-600.392
665696.871,4445885.059,-599.102
665696.871,4445785.059,-598.251
665696.871,4445685.059,-597.328
665696.871,4445585.059,-597.039
665696.871,4445485.059,-597.231
665696.871,4445385.059,-596.424
665696.871,4445285.059,-594.999
665696.871,4445185.059,-596.464
665696.871,4445085.059,-594.955
665696.871,4444985.059,-595.502
665696.871,4444885.059,-595.263
665696.871,4444785.059,-593.987
665696.871,4444685.059,-592.995
665696.871,4444585.059,-591.827
665696.871,4444485.059,-591.649
665696.871,4444385.059,-589.258
665696.871,4444285.059,-588.896
665696.871,4444185.059,-586.399
665696.871,4444085.059,-584.119
665696.871,4443985.059,-583.816
665696.871,4443885.059,-585.047
665696.871,4443785.059,-585.491
665696.871,4443685.059,-584.653
665696.871,4443585.059,-584.138
665696.871,4443485.059,-584.124
665696.871,4443385.059,-583.150
665696.871,4443285.059,-583.851
665696.871,4443185.059,-584.331
665696.871,4443085.059,-584.286
665696.871,4442985.059,-583.355
665696.871,4442885.059,-582.685
665696.871,4442785.059,-584.718
665696.871,4442685.059,-584.193
665696.871,4442585.059,-584.186
665696.871,4442485.059,-585.051
665696.871,4442385.059,-586.975
665696.871,4442285.059,-590.701
665696.871,4442185.059,-594.593
665696.871,4442085.059,-599.571
665696.871,4441985.059,-604.672
665696.871,4441885.059,-610.597
665696.871,4441785.059,-613.913
665696.871,4441685.059,-616.479
665696.871,4441585.059,-618.916
665696.871,4441485.059,-620.484
665696.871,4441385.059,-622.263
665696.871,4441285.059,-622.250
665696.871,4441185.059,-622.615
665696.871,4441085.059,-622.561
665696.871,4440985.059,-622.873
665696.871,4440885.059,-623.010
665696.871,4440785.059,-623.329
665696.871,4440685.059,-623.189
665696.871,4440585.059,-622.628
665696.871,4440485.059,-624.304
665696.871,4440385.059,-623.822
665696.871,4440285.059,-624.994
665696.871,4440185.059,-626.277
665696.871,4440085.059,-627.351
665696.871,4439985.059,-630.340
665696.871,4439885.059,-633.008
665696.871,4439785.059,-637.375
665696.871,4439685.059,-639.904
665696.871,4439585.059,-644.012
665696.871,4439485.059,-647.773
665696.871,4439385.059,-649.170
665696.871,4439285.059,-648.371
665696.871,4439185.059,-647.678
665696.871,4439085.059,-648.434
665696.871,4437985.059,-648.751
665696.871,4437885.059,-649.501
665696.871,4437785.059,-640.948
665696.871,4437685.059,-646.580
665696.871,4437585.059,-645.343
665696.871,4437485.059,-643.770
665696.871,4437385.059,-644.443
665696.871,4437285.059,-645.216
665696.871,4437185.059,-644.408
665796.871,4478285.059,-143.069
665796.871,4478185.059,-148.801
665796.871,4478085.059,-152.460
665796.871,4477985.059,-158.847
665796.871,4477885.059,-167.583
665796.871,4477785.059,-168.398
665796.871,4477685.059,-171.953
665796.871,4477585.059,-173.532
665796.871,4477485.059,-175.654
665796.871,4477385.059,-177.941
665796.871,4477285.059,-183.267
665796.871,4477185.059,-189.516
665796.871,4477085.059,-197.882
665796.871,4476985.059,-204.674
665796.871,4476885.059,-206.336
665796.871,4476785.059,-208.914
665796.871,4476685.059,-214.008
665796.871,4476585.059,-217.274
665796.871,4476485.059,-217.172
665796.871,4476385.059,-222.507
665796.871,4476285.059,-225.975
665796.871,4476185.059,-230.817
665796.871,4476085.059,-237.075
665796.871,4475985.059,-242.053
665796.871,4475885.059,-245.969
665796.871,4475785.059,-248.418
665796.871,4475685.059,-252.083
665796.871,4475585.059,-255.141
665796.871,4475485.059,-259.711
665796.871,4475385.059,-264.785
665796.871,4475285.059,-269.913
665796.871,4475185.059,-274.922
665796.871,4475085.059,-273.740
665796.871,4474985.059,-281.867
665796.871,4474885.059,-288.811
665796.871,4474785.059,-290.845
665796.871,4474685.059,-293.749
665796.871,4474585.059,-298.310
665796.871,4474485.059,-301.602
665796.871,4474385.059,-307.623
665796.871,4474285.059,-317.153
665796.871,4474185.059,-323.122
665796.871,4474085.059,-330.664
665796.871,4473985.059,-335.760
665796.871,4473885.059,-340.142
665796.871,4473785.059,-346.952
665796.871,4473685.059,-348.390
665796.871,4473585.059,-351.640
665796.871,4473485.059,-354.337
665796.871,4473385.059,-357.276
665796.871,4473285.059,-367.225
665796.871,4473185.059,-380.860
665796.871,4473085.059,-391.504
665796.871,4472985.059,-399.953
665796.871,4472885.059,-406.531
665796.871,4472785.059,-412.543
665796.871,4472685.059,-418.370
665796.871,4472585.059,-426.212
665796.871,4472485.059,-432.875
665796.871,4472385.059,-438.294
665796.871,4472285.059,-445.576
665796.871,4472185.059,-453.551
665796.871,4472085.059,-462.068
665796.871,4471985.059,-467.427
665796.871,4471885.059,-472.299
665796.871,4471785.059,-478.756
665796.871,4471685.059,-486.154
665796.871,4471585.059,-495.937
665796.871,4471485.059,-503.959
665796.871,4471385.059,-512.824
665796.871,4471285.059,-524.328
665796.871,4471185.059,-541.012
665796.871,4471085.059,-557.378
665796.871,4470985.059,-572.411
665796.871,4470885.059,-586.497
665796.871,4470785.059,-592.066
665796.871,4470685.059,-595.828
665796.871,4470585.059,-599.157
665796.871,4470485.059,-603.987
665796.871,4470385.059,-606.886
665796.871,4470285.059,-611.190
665796.871,4470185.059,-614.133
665796.871,4470085.059,-616.442
665796.871,4469985.059,-618.992
665796.871,4469885.059,-621.972
665796.871,4469785.059,-624.940
665796.871,4469685.059,-627.325
665796.871,4469585.059,-629.352
665796.871,4469485.059,-631.380
665796.871,4469385.059,-634.804
665796.871,4469285.059,-637.977
665796.871,4469185.059,-641.132
665796.871,4469085.059,-647.235
665796.871,4468985.059,-646.953
665796.871,4468885.059,-648.351
665796.871,4468785.059,-645.682
665796.871,4468685.059,-647.233
665796.871,4467285.059,-643.086
665796.871,4467185.059,-642.855
665796.871,4467085.059,-642.624
665796.871,4466985.059,-642.394
665796.871,4466885.059,-642.163
665796.871,4466785.059,-641.933
665796.871,4466685.059,-641.702
665796.871,4466585.059,-641.472
665796.871,4466485.059,-641.241
665796.871,4466385.059,-641.011
665796.871,4466285.059,-640.780
665796.871,4466185.059,-640.549
665796.871,4466085.059,-640.319
665796.871,4464285.059,-636.169
665796.871,4464185.059,-615.656
665796.871,4464085.059,-602.351
665796.871,4463985.059,-590.397
665796.871,4463885.059,-569.727
665796.871,4463785.059,-570.212
665796.871,4463685.059,-569.730
665796.871,4463585.059,-572.014
665796.871,4463485.059,-569.367
665796.871,4463385.059,-577.194
665796.871,4463285.059,-587.797
665796.871,4463185.059,-592.361
665796.871,4463085.059,-596.199
665796.871,4462985.059,-603.763
665796.871,4462885.059,-610.286
665796.871,4462785.059,-620.095
665796.871,4462685.059,-630.029
665796.871,4462585.059,-641.205
665796.871,4462485.059,-645.731
665796.871,4447185.059,-635.855
665796.871,4447085.059,-618.216
665796.871,4446985.059,-604.573
665796.871,4446885.059,-597.626
665796.871,4446785.059,-597.309
665796.871,4446685.059,-599.194
665796.871,4446585.059,-600.379
665796.871,4446485.059,-601.211
665796.871,4446385.059,-601.813
665796.871,4446285.059,-602.443
665796.871,4446185.059,-601.216
665796.871,4446085.059,-602.027
665796.871,4445985.059,-601.252
665796.871,4445885.059,-600.163
665796.871,4445785.059,-598.971
665796.871,4445685.059,-598.671
665796.871,4445585.059,-597.509
665796.871,4445485.059,-598.113
665796.871,4445385.059,-596.604
665796.871,4445285.059,-596.284
665796.871,4445185.059,-597.153
665796.871,4445085.059,-596.852
665796.871,4444985.059,-596.868
665796.871,4444885.059,-596.029
665796.871,4444785.059,-595.800
665796.871,4444685.059,-594.917
665796.871,4444585.059,-594.284
665796.871,4444485.059,-594.034
665796.871,4444385.059,-592.315
665796.871,4444285.059,-591.137
665796.871,4444185.059,-589.503
665796.871,4444085.059,-589.103
665796.871,4443985.059,-588.609
665796.871,4443885.059,-587.596
665796.871,4443785.059,-588.144
665796.871,4443685.059,-587.203
665796.871,4443585.059,-587.193
665796.871,4443485.059,-585.127
665796.871,4443385.059,-584.234
665796.871,4443285.059,-585.256
665796.871,4443185.059,-585.446
665796.871,4443085.059,-586.404
665796.871,4442985.059,-585.554
665796.871,4442885.059,-584.738
665796.871,4442785.059,-584.989
665796.871,4442685.059,-585.428
665796.871,4442585.059,-586.373
665796.871,4442485.059,-588.240
665796.871,4442385.059,-591.589
665796.871,4442285.059,-594.856
665796.871,4442185.059,-599.774
665796.871,4442085.059,-603.756
665796.871,4441985.059,-609.485
665796.871,4441885.059,-613.902
665796.871,4441785.059,-617.887
665796.871,4441685.059,-620.934
665796.871,4441585.059,-621.977
665796.871,4441485.059,-622.311
665796.871,4441385.059,-623.055
665796.871,4441285.059,-625.035
665796.871,4441185.059,-624.681
665796.871,4441085.059,-624.681
665796.871,4440985.059,-625.664
665796.871,4440885.059,-625.300
665796.871,4440785.059,-625.699
665796.871,4440685.059,-626.688
665796.871,4440585.059,-626.491
665796.871,4440485.059,-626.018
665796.871,4440385.059,-625.116
665796.871,4440285.059,-625.584
665796.871,4440185.059,-627.096
665796.871,4440085.059,-627.933
665796.871,4439985.059,-629.678
665796.871,4439885.059,-632.536
665796.871,4439785.059,-634.573
665796.871,4439685.059,-637.825
665796.871,4439585.059,-641.646
665796.871,4439485.059,-644.381
665796.871,4439385.059,-649.350
665796.871,4439285.059,-648.364
665796.871,4439185.059,-647.954
665796.871,4439085.059,-648.408
665796.871,4437985.059,-648.775
665796.871,4437885.059,-649.497
665796.871,4437785.059,-641.237
665796.871,4437685.059,-646.520
665796.871,4437585.059,-645.265
665796.871,4437485.059,-643.895
665796.871,4437385.059,-644.505
665796.871,4437285.059,-645.254
665796.871,4437185.059,-644.544
665896.871,4478385.059,-142.048
665896.871,4478285.059,-149.094
665896.871,4478185.059,-155.272
665896.871,4478085.059,-160.220
665896.871,4477985.059,-163.981
665896.871,4477885.059,-167.822
665896.871,4477785.059,-175.640
665896.871,4477685.059,-181.518
665896.871,4477585.059,-181.319
665896.871,4477485.059,-183.318
665896.871,4477385.059,-186.545
665896.871,4477285.059,-189.386
665896.871,4477185.059,-196.081
665896.871,4477085.059,-202.638
665896.871,4476985.059,-207.495
665896.871,4476885.059,-209.963
665896.871,4476785.059,-211.141
665896.871,4476685.059,-216.312
665896.871,4476585.059,-221.646
665896.871,4476485.059,-222.527
665896.871,4476385.059,-224.550
665896.871,4476285.059,-229.207
665896.871,4476185.059,-234.622
665896.871,4476085.059,-240.625
665896.871,4475985.059,-244.637
665896.871,4475885.059,-248.333
665896.871,4475785.059,-252.021
665896.871,4475685.059,-253.867
665896.871,4475585.059,-256.616
665896.871,4475485.059,-260.542
665896.871,4475385.059,-265.539
665896.871,4475285.059,-270.428
665896.871,4475185.059,-274.147
665896.871,4475085.059,-277.793
665896.871,4474985.059,-282.347
665896.871,4474885.059,-285.281
665896.871,4474785.059,-290.434
665896.871,4474685.059,-295.992
665896.871,4474585.059,-299.123
665896.871,4474485.059,-304.098
665896.871,4474385.059,-311.058
665896.871,4474285.059,-318.997
665896.871,4474185.059,-325.028
665896.871,4474085.059,-328.837
665896.871,4473985.059,-332.732
665896.871,4473885.059,-337.276
665896.871,4473785.059,-341.894
665896.871,4473685.059,-342.657
665896.871,4473585.059,-348.218
665896.871,4473485.059,-352.055
665896.871,4473385.059,-357.717
665896.871,4473285.059,-367.705
665896.871,4473185.059,-381.560
665896.871,4473085.059,-390.970
665896.871,4472985.059,-397.919
665896.871,4472885.059,-406.422
665896.871,4472785.059,-409.789
665896.871,4472685.059,-416.491
665896.871,4472585.059,-426.790
665896.871,4472485.059,-435.410
665896.871,4472385.059,-439.609
665896.871,4472285.059,-444.308
665896.871,4472185.059,-451.227
665896.871,4472085.059,-459.689
665896.871,4471985.059,-466.879
665896.871,4471885.059,-472.594
665896.871,4471785.059,-479.767
665896.871,4471685.059,-488.079
665896.871,4471585.059,-496.019
665896.871,4471485.059,-506.117
665896.871,4471385.059,-516.778
665896.871,4471285.059,-528.374
665896.871,4471185.059,-544.381
665896.871,4471085.059,-557.905
665896.871,4470985.059,-573.030
665896.871,4470885.059,-582.694
665896.871,4470785.059,-590.835
665896.871,4470685.059,-594.235
665896.871,4470585.059,-599.032
665896.871,4470485.059,-604.850
665896.871,4470385.059,-608.651
665896.871,4470285.059,-612.428
665896.871,4470185.059,-616.521
665896.871,4470085.059,-618.458
665896.871,4469985.059,-620.010
665896.871,4469885.059,-624.300
665896.871,4469785.059,-626.689
665896.871,4469685.059,-628.874
665896.871,4469585.059,-630.906
665896.871,4469485.059,-632.711
665896.871,4469385.059,-635.876
665896.871,4469285.059,-639.154
665896.871,4469185.059,-644.567
665896.871,4469085.059,-648.272
665896.871,4468985.059,-647.333
665896.871,4468885.059,-648.730
665896.871,4468785.059,-645.530
665896.871,4468685.059,-647.608
665896.871,4467285.059,-643.214
665896.871,4467185.059,-643.143
665896.871,4467085.059,-643.072
665896.871,4466985.059,-643.000
665896.871,4466885.059,-642.929
665896.871,4466785.059,-642.858
665896.871,4466685.059,-642.787
665896.871,4466585.059,-642.716
665896.871,4466485.059,-642.644
665896.871,4466385.059,-642.573
665896.871,4466285.059,-642.502
665896.871,4466185.059,-642.431
665896.871,4464285.059,-641.077
665896.871,4464185.059,-631.136
665896.871,4464085.059,-628.350
665896.871,4463985.059,-616.316
665896.871,4463885.059,-590.321
665896.871,4463785.059,-587.153
665896.871,4463685.059,-584.163
665896.871,4463585.059,-579.122
665896.871,4463485.059,-578.644
665896.871,4463385.059,-582.497
665896.871,4463285.059,-592.948
665896.871,4463185.059,-602.438
665896.871,4463085.059,-605.179
665896.871,4462985.059,-608.949
665896.871,4462885.059,-614.512
665896.871,4462785.059,-623.524
665896.871,4462685.059,-629.522
665896.871,4462585.059,-636.142
665896.871,4462485.059,-645.485
665896.871,4447185.059,-641.208
665896.871,4447085.059,-625.366
665896.871,4446985.059,-613.552
665896.871,4446885.059,-603.636
665896.871,4446785.059,-603.120
665896.871,4446685.059,-603.327
665896.871,4446585.059,-604.399
665896.871,4446485.059,-603.962
665896.871,4446385.059,-604.285
665896.871,4446285.059,-603.489
665896.871,4446185.059,-603.290
665896.871,4446085.059,-602.399
665896.871,4445985.059,-602.782
665896.871,4445885.059,-600.638
665896.871,4445785.059,-599.748
665896.871,4445685.059,-600.220
665896.871,4445585.059,-598.732
665896.871,4445485.059,-598.768
665896.871,4445385.059,-598.491
665896.871,4445285.059,-597.824
665896.871,4445185.059,-598.918
665896.871,4445085.059,-598.042
665896.871,4444985.059,-596.899
665896.871,4444885.059,-597.629
665896.871,4444785.059,-597.177
665896.871,4444685.059,-597.163
665896.871,4444585.059,-596.793
665896.871,4444485.059,-595.632
665896.871,4444385.059,-595.239
665896.871,4444285.059,-593.985
665896.871,4444185.059,-592.683
665896.871,4444085.059,-591.671
665896.871,4443985.059,-590.449
665896.871,4443885.059,-590.910
665896.871,4443785.059,-590.096
665896.871,4443685.059,-589.281
665896.871,4443585.059,-589.002
665896.871,4443485.059,-588.363
665896.871,4443385.059,-586.921
665896.871,4443285.059,-587.711
665896.871,4443185.059,-588.031
665896.871,4443085.059,-588.098
665896.871,4442985.059,-588.265
665896.871,4442885.059,-588.157
665896.871,4442785.059,-588.832
665896.871,4442685.059,-589.318
665896.871,4442585.059,-590.075
665896.871,4442485.059,-592.759
665896.871,4442385.059,-595.438
665896.871,4442285.059,-599.003
665896.871,4442185.059,-602.623
665896.871,4442085.059,-607.347
665896.871,4441985.059,-612.258
665896.871,4441885.059,-616.527
665896.871,4441785.059,-619.083
665896.871,4441685.059,-621.806
665896.871,4441585.059,-623.045
665896.871,4441485.059,-625.137
665896.871,4441385.059,-624.844
665896.871,4441285.059,-626.637
665896.871,4441185.059,-627.174
665896.871,4441085.059,-628.535
665896.871,4440985.059,-628.469
665896.871,4440885.059,-628.156
665896.871,4440785.059,-630.714
665896.871,4440685.059,-630.487
665896.871,4440585.059,-629.018
665896.871,4440485.059,-628.725
665896.871,4440385.059,-628.846
665896.871,4440285.059,-629.690
665896.871,4440185.059,-629.789
665896.871,4440085.059,-628.832
665896.871,4439985.059,-630.597
665896.871,4439885.059,-632.640
665896.871,4439785.059,-632.743
665896.871,4439685.059,-635.504
665896.871,4439585.059,-638.643
665896.871,4439485.059,-642.996
665896.871,4439385.059,-648.042
665896.871,4439285.059,-648.357
665896.871,4439185.059,-648.230
665896.871,4439085.059,-648.382
665896.871,4437985.059,-648.798
665896.871,4437885.059,-649.494
665896.871,4437785.059,-641.527
665896.871,4437685.059,-646.459
665896.871,4437585.059,-645.187
665896.871,4437485.059,-644.021
665896.871,4437385.059,-644.566
665896.871,4437285.059,-645.293
665896.871,4437185.059,-644.680
665996.871,4478385.059,-145.241
665996.871,4478285.059,-150.860
665996.871,4478185.059,-157.751
665996.871,4478085.059,-164.602
665996.871,4477985.059,-171.221
665996.871,4477885.059,-180.142
665996.871,4477785.059,-181.861
665996.871,4477685.059,-184.755
665996.871,4477585.059,-194.113
665996.871,4477485.059,-193.778
665996.871,4477385.059,-195.361
665996.871,4477285.059,-198.513
665996.871,4477185.059,-202.203
665996.871,4477085.059,-205.775
665996.871,4476985.059,-210.543
665996.871,4476885.059,-212.025
665996.871,4476785.059,-214.592
665996.871,4476685.059,-218.792
665996.871,4476585.059,-222.402
665996.871,4476485.059,-225.221
665996.871,4476385.059,-226.891
665996.871,4476285.059,-231.847
665996.871,4476185.059,-237.678
665996.871,4476085.059,-242.420
665996.871,4475985.059,-247.113
665996.871,4475885.059,-250.375
665996.871,4475785.059,-253.616
665996.871,4475685.059,-257.284
665996.871,4475585.059,-259.620
665996.871,4475485.059,-264.468
665996.871,4475385.059,-268.679
665996.871,4475285.059,-271.428
665996.871,4475185.059,-274.870
665996.871,4475085.059,-278.108
665996.871,4474985.059,-281.649
665996.871,4474885.059,-285.242
665996.871,4474785.059,-291.222
665996.871,4474685.059,-295.684
665996.871,4474585.059,-300.346
665996.871,4474485.059,-305.330
665996.871,4474385.059,-310.618
665996.871,4474285.059,-318.376
665996.871,4474185.059,-325.294
665996.871,4474085.059,-327.549
665996.871,4473985.059,-331.273
665996.871,4473885.059,-334.258
665996.871,4473785.059,-337.935
665996.871,4473685.059,-342.478
665996.871,4473585.059,-349.029
665996.871,4473485.059,-354.291
665996.871,4473385.059,-358.663
665996.871,4473285.059,-373.760
665996.871,4473185.059,-385.034
665996.871,4473085.059,-391.278
665996.871,4472985.059,-399.722
665996.871,4472885.059,-404.810
665996.871,4472785.059,-409.273
665996.871,4472685.059,-417.565
665996.871,4472585.059,-429.726
665996.871,4472485.059,-438.777
665996.871,4472385.059,-442.494
665996.871,4472285.059,-445.859
665996.871,4472185.059,-451.920
665996.871,4472085.059,-459.313
665996.871,4471985.059,-466.010
665996.871,4471885.059,-471.213
665996.871,4471785.059,-478.789
665996.871,4471685.059,-490.108
665996.871,4471585.059,-495.335
665996.871,4471485.059,-506.363
665996.871,4471385.059,-519.174
665996.871,4471285.059,-530.895
665996.871,4471185.059,-540.927
665996.871,4471085.059,-551.234
665996.871,4470985.059,-565.220
665996.871,4470885.059,-577.063
665996.871,4470785.059,-586.994
665996.871,4470685.059,-596.650
665996.871,4470585.059,-599.676
665996.871,4470485.059,-598.769
665996.871,4470385.059,-604.978
665996.871,4470285.059,-611.264
665996.871,4470185.059,-617.557
665996.871,4470085.059,-621.165
665996.871,4469985.059,-622.284
665996.871,4469885.059,-625.959
665996.871,4469785.059,-629.697
665996.871,4469685.059,-631.081
665996.871,4469585.059,-632.390
665996.871,4469485.059,-634.479
665996.871,4469385.059,-635.379
665996.871,4469285.059,-639.163
665996.871,4469185.059,-644.101
665996.871,4469085.059,-649.308
665996.871,4468985.059,-647.712
665996.871,4468885.059,-649.108
665996.871,4468785.059,-645.378
665996.871,4468685.059,-647.983
665996.871,4467285.059,-649.511
665996.871,4467185.059,-649.523
665996.871,4467085.059,-649.534
665996.871,4466985.059,-649.545
665996.871,4466885.059,-649.556
665996.871,4466785.059,-649.568
665996.871,4466685.059,-649.579
665996.871,4466585.059,-649.590
665996.871,4466485.059,-649.602
665996.871,4466385.059,-649.613
665996.871,4466285.059,-649.624
665996.871,4466185.059,-649.635
665996.871,4466085.059,-649.647
665996.871,4464285.059,-649.850
665996.871,4464185.059,-643.510
665996.871,4464085.059,-641.864
665996.871,4463985.059,-628.391
665996.871,4463885.059,-604.156
665996.871,4463785.059,-595.508
665996.871,4463685.059,-592.166
665996.871,4463585.059,-584.711
665996.871,4463485.059,-584.408
665996.871,4463385.059,-588.405
665996.871,4463285.059,-600.426
665996.871,4463185.059,-610.773
665996.871,4463085.059,-615.721
665996.871,4462985.059,-618.167
665996.871,4462885.059,-622.767
665996.871,4462785.059,-627.471
665996.871,4462685.059,-632.841
665996.871,4462585.059,-636.565
665996.871,4462485.059,-642.262
665996.871,4447185.059,-645.393
665996.871,4447085.059,-633.753
665996.871,4446985.059,-620.010
665996.871,4446885.059,-607.448
665996.871,4446785.059,-605.577
665996.871,4446685.059,-605.742
665996.871,4446585.059,-607.713
665996.871,4446485.059,-607.232
665996.871,4446385.059,-606.256
665996.871,4446285.059,-605.550
665996.871,4446185.059,-605.098
665996.871,4446085.059,-603.661
665996.871,4445985.059,-604.511
665996.871,4445885.059,-602.354
665996.871,4445785.059,-600.936
665996.871,4445685.059,-600.828
665996.871,4445585.059,-600.326
665996.871,4445485.059,-601.041
665996.871,4445385.059,-599.348
665996.871,4445285.059,-599.938
665996.871,4445185.059,-599.290
665996.871,4445085.059,-598.291
665996.871,4444985.059,-598.693
665996.871,4444885.059,-598.748
665996.871,4444785.059,-598.299
665996.871,4444685.059,-599.115
665996.871,4444585.059,-598.878
665996.871,4444485.059,-598.458
665996.871,4444385.059,-597.567
665996.871,4444285.059,-596.444
665996.871,4444185.059,-595.030
665996.871,4444085.059,-593.843
665996.871,4443985.059,-592.524
665996.871,4443885.059,-594.250
665996.871,4443785.059,-593.053
665996.871,4443685.059,-592.299
665996.871,4443585.059,-592.693
665996.871,4443485.059,-591.492
665996.871,4443385.059,-589.990
665996.871,4443285.059,-589.834
665996.871,4443185.059,-589.945
665996.871,4443085.059,-590.217
665996.871,4442985.059,-589.359
665996.871,4442885.059,-590.292
665996.871,4442785.059,-590.133
665996.871,4442685.059,-591.136
665996.871,4442585.059,-593.507
665996.871,4442485.059,-595.692
665996.871,4442385.059,-599.502
665996.871,4442285.059,-602.371
665996.871,4442185.059,-607.497
665996.871,4442085.059,-610.680
665996.871,4441985.059,-615.488
665996.871,4441885.059,-618.761
665996.871,4441785.059,-621.117
665996.871,4441685.059,-622.912
665996.871,4441585.059,-624.177
665996.871,4441485.059,-626.582
665996.871,4441385.059,-626.987
665996.871,4441285.059,-626.896
665996.871,4441185.059,-629.914
665996.871,4441085.059,-630.034
665996.871,4440985.059,-630.663
665996.871,4440885.059,-630.993
665996.871,4440785.059,-631.785
665996.871,4440685.059,-632.011
665996.871,4440585.059,-633.009
665996.871,4440485.059,-632.408
665996.871,4440385.059,-632.543
665996.871,4440285.059,-631.191
665996.871,4440185.059,-632.595
665996.871,4440085.059,-631.486
665996.871,4439985.059,-631.003
665996.871,4439885.059,-631.282
665996.871,4439785.059,-631.011
665996.871,4439685.059,-633.517
665996.871,4439585.059,-636.147
665996.871,4439485.059,-641.327
665996.871,4439385.059,-646.810
665996.871,4439285.059,-648.350
665996.871,4439185.059,-648.505
665996.871,4439085.059,-648.357
665996.871,4437985.059,-648.821
665996.871,4437885.059,-649.490
665996.871,4437785.059,-641.817
665996.871,4437685.059,-646.398
665996.871,4437585.059,-645.109
665996.871,4437485.059,-644.147
665996.871,4437385.059,-644.628
665996.871,4437285.059,-645.331
665996.871,4437185.059,-644.817
666096.871,4478485.059,-140.250
666096.871,4478385.059,-147.277
666096.871,4478285.059,-152.898
666096.871,4478185.059,-156.749
666096.871,4478085.059,-162.774
666096.871,4477985.059,-169.749
666096.871,4477885.059,-175.628
666096.871,4477785.059,-180.188
666096.871,4477685.059,-187.023
666096.871,4477585.059,-194.725
666096.871,4477485.059,-198.384
666096.871,4477385.059,-205.087
666096.871,4477285.059,-210.033
666096.871,4477185.059,-210.549
666096.871,4477085.059,-212.011
666096.871,4476985.059,-214.917
666096.871,4476885.059,-216.181
666096.871,4476785.059,-219.019
666096.871,4476685.059,-222.353
666096.871,4476585.059,-225.533
666096.871,4476485.059,-228.534
666096.871,4476385.059,-229.826
666096.871,4476285.059,-233.791
666096.871,4476185.059,-240.046
666096.871,4476085.059,-243.881
666096.871,4475985.059,-246.902
666096.871,4475885.059,-251.395
666096.871,4475785.059,-256.211
666096.871,4475685.059,-258.566
666096.871,4475585.059,-262.780
666096.871,4475485.059,-267.743
666096.871,4475385.059,-271.987
666096.871,4475285.059,-275.340
666096.871,4475185.059,-279.876
666096.871,4475085.059,-283.057
666096.871,4474985.059,-286.825
666096.871,4474885.059,-289.651
666096.871,4474785.059,-294.614
666096.871,4474685.059,-299.044
666096.871,4474585.059,-303.187
666096.871,4474485.059,-306.377
666096.871,4474385.059,-309.788
666096.871,4474285.059,-313.584
666096.871,4474185.059,-318.598
666096.871,4474085.059,-324.871
666096.871,4473985.059,-331.637
666096.871,4473885.059,-335.275
666096.871,4473785.059,-340.987
666096.871,4473685.059,-344.186
666096.871,4473585.059,-350.972
666096.871,4473485.059,-358.225
666096.871,4473385.059,-366.225
666096.871,4473285.059,-373.857
666096.871,4473185.059,-384.210
666096.871,4473085.059,-390.919
666096.871,4472985.059,-398.497
666096.871,4472885.059,-404.268
666096.871,4472785.059,-410.732
666096.871,4472685.059,-423.613
666096.871,4472585.059,-435.309
666096.871,4472485.059,-441.640
666096.871,4472385.059,-442.687
666096.871,4472285.059,-446.917
666096.871,4472185.059,-453.504
666096.871,4472085.059,-460.801
666096.871,4471985.059,-467.057
666096.871,4471885.059,-474.096
666096.871,4471785.059,-483.419
666096.871,4471685.059,-492.543
666096.871,4471585.059,-502.071
666096.871,4471485.059,-511.944
666096.871,4471385.059,-523.502
666096.871,4471285.059,-531.346
666096.871,4471185.059,-538.840
666096.871,4471085.059,-550.516
666096.871,4470985.059,-562.435
666096.871,4470885.059,-572.385
666096.871,4470785.059,-583.687
666096.871,4470685.059,-595.544
666096.871,4470585.059,-605.099
666096.871,4470485.059,-606.585
666096.871,4470385.059,-606.910
666096.871,4470285.059,-612.685
666096.871,4470185.059,-619.106
666096.871,4470085.059,-624.031
666096.871,4469985.059,-623.703
666096.871,4469885.059,-628.128
666096.871,4469785.059,-631.331
666096.871,4469685.059,-634.027
666096.871,4469585.059,-636.021
666096.871,4469485.059,-638.540
666096.871,4469385.059,-639.049
666096.871,4469285.059,-641.744
666096.871,4469185.059,-644.772
666096.871,4469085.059,-649.017
666096.871,4468985.059,-648.091
666096.871,4468885.059,-649.486
666096.871,4468785.059,-645.226
666096.871,4468685.059,-648.359
666096.871,4467085.059,-648.935
666096.871,4466985.059,-648.904
666096.871,4466885.059,-648.873
666096.871,4466785.059,-648.843
666096.871,4466685.059,-648.812
666096.871,4466585.059,-648.781
666096.871,4466485.059,-648.751
666096.871,4466385.059,-648.720
666096.871,4466285.059,-648.690
666096.871,4466185.059,-648.659
666096.871,4466085.059,-648.628
666096.871,4465985.059,-648.598
666096.871,4465885.059,-648.567
666096.871,4464085.059,-648.016
666096.871,4463985.059,-630.344
666096.871,4463885.059,-613.029
666096.871,4463785.059,-608.256
666096.871,4463685.059,-602.816
666096.871,4463585.059,-597.599
666096.871,4463485.059,-595.781
666096.871,4463385.059,-601.368
666096.871,4463285.059,-618.425
666096.871,4463185.059,-622.330
666096.871,4463085.059,-623.530
666096.871,4462985.059,-624.914
666096.871,4462885.059,-629.739
666096.871,4462785.059,-633.528
666096.871,4462685.059,-637.049
666096.871,4462585.059,-639.214
666096.871,4462485.059,-645.945
666096.871,4447085.059,-636.044
666096.871,4446985.059,-644.551
666096.871,4446885.059,-621.999
666096.871,4446785.059,-609.601
666096.871,4446685.059,-608.142
666096.871,4446585.059,-610.707
666096.871,4446485.059,-609.343
666096.871,4446385.059,-609.381
666096.871,4446285.059,-607.329
666096.871,4446185.059,-607.116
666096.871,4446085.059,-605.462
666096.871,4445985.059,-604.823
666096.871,4445885.059,-603.424
666096.871,4445785.059,-602.458
666096.871,4445685.059,-599.743
666096.871,4445585.059,-602.380
666096.871,4445485.059,-602.009
666096.871,4445385.059,-601.787
666096.871,4445285.059,-601.629
666096.871,4445185.059,-601.137
666096.871,4445085.059,-600.374
666096.871,4444985.059,-600.706
666096.871,4444885.059,-600.576
666096.871,4444785.059,-600.939
666096.871,4444685.059,-601.155
666096.871,4444585.059,-601.341
666096.871,4444485.059,-600.815
666096.871,4444385.059,-599.483
666096.871,4444285.059,-598.692
666096.871,4444185.059,-597.040
666096.871,4444085.059,-596.604
666096.871,4443985.059,-597.192
666096.871,4443885.059,-598.767
666096.871,4443785.059,-596.808
666096.871,4443685.059,-595.925
666096.871,4443585.059,-594.801
666096.871,4443485.059,-594.298
666096.871,4443385.059,-592.965
666096.871,4443285.059,-593.022
666096.871,4443185.059,-592.575
666096.871,4443085.059,-593.174
666096.871,4442985.059,-592.584
666096.871,4442885.059,-592.782
666096.871,4442785.059,-592.152
666096.871,4442685.059,-592.324
666096.871,4442585.059,-594.144
666096.871,4442485.059,-596.653
666096.871,4442385.059,-601.391
666096.871,4442285.059,-605.573
666096.871,4442185.059,-609.787
666096.871,4442085.059,-614.195
666096.871,4441985.059,-617.785
666096.871,4441885.059,-621.715
666096.871,4441785.059,-623.716
666096.871,4441685.059,-625.191
666096.871,4441585.059,-627.172
666096.871,4441485.059,-628.823
666096.871,4441385.059,-630.403
666096.871,4441285.059,-629.739
666096.871,4441185.059,-630.788
666096.871,4441085.059,-633.067
666096.871,4440985.059,-633.775
666096.871,4440885.059,-634.360
666096.871,4440785.059,-635.241
666096.871,4440685.059,-634.891
666096.871,4440585.059,-635.305
666096.871,4440485.059,-635.127
666096.871,4440385.059,-635.446
666096.871,4440285.059,-635.063
666096.871,4440185.059,-635.112
666096.871,4440085.059,-634.277
666096.871,4439985.059,-632.483
666096.871,4439885.059,-631.912
666096.871,4439785.059,-631.739
666096.871,4439685.059,-633.258
666096.871,4439585.059,-634.217
666096.871,4439485.059,-637.741
666096.871,4439385.059,-643.337
666096.871,4439285.059,-648.344
666096.871,4439185.059,-648.781
666096.871,4439085.059,-648.331
666096.871,4437985.059,-648.844
666096.871,4437885.059,-649.486
666096.871,4437785.059,-642.106
666096.871,4437685.059,-646.337
666096.871,4437585.059,-645.031
666096.871,4437485.059,-644.273
666096.871,4437385.059,-644.689
666096.871,4437285.059,-645.370
666096.871,4437185.059,-644.953
666196.871,4478485.059,-140.423
666196.871,4478385.059,-144.796
666196.871,4478285.059,-148.734
666196.871,4478185.059,-155.346
666196.871,4478085.059,-160.874
666196.871,4477985.059,-167.521
666196.871,4477885.059,-172.230
666196.871,4477785.059,-177.963
666196.871,4477685.059,-184.463
666196.871,4477585.059,-188.752
666196.871,4477485.059,-195.124
666196.871,4477385.059,-202.466
666196.871,4477285.059,-207.185
666196.871,4477185.059,-212.426
666196.871,4477085.059,-217.601
666196.871,4476985.059,-222.114
666196.871,4476885.059,-223.794
666196.871,4476785.059,-225.585
666196.871,4476685.059,-228.000
666196.871,4476585.059,-230.108
666196.871,4476485.059,-232.141
666196.871,4476385.059,-235.116
666196.871,4476285.059,-238.626
666196.871,4476185.059,-242.492
666196.871,4476085.059,-244.950
666196.871,4475985.059,-248.848
666196.871,4475885.059,-253.432
666196.871,4475785.059,-259.372
666196.871,4475685.059,-264.213
666196.871,4475585.059,-268.865
666196.871,4475485.059,-274.062
666196.871,4475385.059,-280.709
666196.871,4475285.059,-285.747
666196.871,4475185.059,-290.351
666196.871,4475085.059,-291.176
666196.871,4474985.059,-293.339
666196.871,4474885.059,-297.317
666196.871,4474785.059,-302.054
666196.871,4474685.059,-305.328
666196.871,4474585.059,-307.478
666196.871,4474485.059,-309.820
666196.871,4474385.059,-312.608
666196.871,4474285.059,-315.734
666196.871,4474185.059,-319.316
666196.871,4474085.059,-325.761
666196.871,4473985.059,-332.118
666196.871,4473885.059,-335.929
666196.871,4473785.059,-341.613
666196.871,4473685.059,-345.323
666196.871,4473585.059,-350.725
666196.871,4473485.059,-356.574
666196.871,4473385.059,-362.079
666196.871,4473285.059,-368.919
666196.871,4473185.059,-380.500
666196.871,4473085.059,-388.013
666196.871,4472985.059,-396.663
666196.871,4472885.059,-406.470
666196.871,4472785.059,-415.612
666196.871,4472685.059,-428.450
666196.871,4472585.059,-436.983
666196.871,4472485.059,-442.196
666196.871,4472385.059,-443.027
666196.871,4472285.059,-447.443
666196.871,4472185.059,-454.280
666196.871,4472085.059,-461.663
666196.871,4471985.059,-468.158
666196.871,4471885.059,-477.743
666196.871,4471785.059,-486.395
666196.871,4471685.059,-497.232
666196.871,4471585.059,-508.617
666196.871,4471485.059,-514.915
666196.871,4471385.059,-520.388
666196.871,4471285.059,-528.328
666196.871,4471185.059,-539.953
666196.871,4471085.059,-551.101
666196.871,4470985.059,-561.263
666196.871,4470885.059,-573.639
666196.871,4470785.059,-585.069
666196.871,4470685.059,-596.286
666196.871,4470585.059,-609.109
666196.871,4470485.059,-610.378
666196.871,4470385.059,-609.721
666196.871,4470285.059,-615.977
666196.871,4470185.059,-623.511
666196.871,4470085.059,-626.902
666196.871,4469985.059,-628.784
666196.871,4469885.059,-629.496
666196.871,4469785.059,-632.919
666196.871,4469685.059,-636.348
666196.871,4469585.059,-639.454
666196.871,4469485.059,-642.188
666196.871,4469385.059,-643.879
666196.871,4469285.059,-644.872
666196.871,4469185.059,-646.492
666196.871,4469085.059,-648.727
666196.871,4468985.059,-649.102
666196.871,4468885.059,-647.193
666196.871,4468785.059,-645.074
666196.871,4468685.059,-648.734
666196.871,4466985.059,-647.706
666196.871,4466885.059,-647.645
666196.871,4466785.059,-647.585
666196.871,4466685.059,-647.524
666196.871,4466585.059,-647.464
666196.871,4466485.059,-647.403
666196.871,4466385.059,-647.343
666196.871,4466285.059,-647.282
666196.871,4466185.059,-647.222
666196.871,4466085.059,-647.161
666196.871,4465985.059,-647.101
666196.871,4465885.059,-647.040
666196.871,4465785.059,-646.980
666196.871,4465685.059,-646.919
666196.871,4463985.059,-645.891
666196.871,4463885.059,-635.769
666196.871,4463785.059,-620.415
666196.871,4463685.059,-614.564
666196.871,4463585.059,-613.879
666196.871,4463485.059,-612.844
666196.871,4463385.059,-615.289
666196.871,4463285.059,-632.216
666196.871,4463185.059,-636.028
666196.871,4463085.059,-631.197
666196.871,4462985.059,-629.658
666196.871,4462885.059,-633.487
666196.871,4462785.059,-635.256
666196.871,4462685.059,-640.882
666196.871,4462585.059,-643.045
666196.871,4462485.059,-648.154
666196.871,4447085.059,-638.335
666196.871,4446985.059,-643.969
666196.871,4446885.059,-631.130
666196.871,4446785.059,-616.034
666196.871,4446685.059,-614.075
666196.871,4446585.059,-613.892
666196.871,4446485.059,-613.411
666196.871,4446385.059,-611.245
666196.871,4446285.059,-609.693
666196.871,4446185.059,-608.294
666196.871,4446085.059,-608.069
666196.871,4445985.059,-605.533
666196.871,4445885.059,-605.421
666196.871,4445785.059,-604.115
666196.871,4445685.059,-602.683
666196.871,4445585.059,-604.845
666196.871,4445485.059,-603.904
666196.871,4445385.059,-602.030
666196.871,4445285.059,-603.411
666196.871,4445185.059,-602.502
666196.871,4445085.059,-602.422
666196.871,4444985.059,-603.462
666196.871,4444885.059,-602.237
666196.871,4444785.059,-603.288
666196.871,4444685.059,-603.221
666196.871,4444585.059,-602.826
666196.871,4444485.059,-602.235
666196.871,4444385.059,-601.396
666196.871,4444285.059,-600.968
666196.871,4444185.059,-600.602
666196.871,4444085.059,-599.178
666196.871,4443985.059,-599.906
666196.871,4443885.059,-600.396
666196.871,4443785.059,-600.359
666196.871,4443685.059,-598.436
666196.871,4443585.059,-597.746
666196.871,4443485.059,-596.329
666196.871,4443385.059,-598.376
666196.871,4443285.059,-595.674
