669134.918,4461036.959,-864.992
669134.918,4460836.959,-865.622
669134.918,4460636.959,-863.111
669134.918,4460436.959,-855.960
669134.918,4460236.959,-856.078
669134.918,4460036.959,-831.220
669134.918,4459836.959,-805.368
669134.918,4459636.959,-816.384
669134.918,4459436.959,-831.123
669134.918,4459236.959,-847.012
669134.918,4459036.959,-858.466
669134.918,4458836.959,-867.776
669134.918,4458636.959,-874.131
669134.918,4458436.959,-883.557
669134.918,4458236.959,-887.407
669134.918,4458036.959,-891.430
669134.918,4457836.959,-895.755
669134.918,4457636.959,-896.830
669134.918,4457436.959,-901.345
669134.918,4457236.959,-903.635
669134.918,4457036.959,-908.119
669134.918,4456836.959,-913.242
669134.918,4456636.959,-918.354
669134.918,4456436.959,-926.402
669134.918,4456236.959,-925.509
669134.918,4456036.959,-929.994
669134.918,4455836.959,-934.165
669134.918,4455636.959,-939.775
669134.918,4455436.959,-942.024
669134.918,4455236.959,-945.730
669134.918,4455036.959,-948.492
669134.918,4454836.959,-947.256
669134.918,4454636.959,-954.996
669134.918,4454436.959,-956.043
669134.918,4454236.959,-959.443
669134.918,4454036.959,-966.393
669134.918,4453836.959,-969.738
669134.918,4453636.959,-970.962
669134.918,4453436.959,-973.541
669134.918,4453236.959,-977.406
669134.918,4453036.959,-978.515
669134.918,4452836.959,-978.332
669134.918,4452636.959,-985.735
669134.918,4452436.959,-989.952
669134.918,4452236.959,-992.422
669134.918,4452036.959,-997.573
669134.918,4451836.959,-1007.167
669134.918,4451636.959,-1009.181
669134.918,4451436.959,-1013.066
669134.918,4451236.959,-1012.084
669134.918,4451036.959,-1006.910
669134.918,4450836.959,-1007.186
669134.918,4450636.959,-999.114
669134.918,4450436.959,-994.523
669134.918,4450236.959,-993.940
669134.918,4450036.959,-987.903
669134.918,4449836.959,-970.798
669134.918,4449636.959,-956.700
669134.918,4449436.959,-952.796
669134.918,4449236.959,-954.581
669134.918,4449036.959,-952.997
669134.918,4448836.959,-946.374
669134.918,4448636.959,-941.268
669134.918,4448436.959,-938.086
669134.918,4448236.959,-930.963
669134.918,4448036.959,-910.256
669134.918,4447836.959,-881.561
669134.918,4447636.959,-878.310
669134.918,4447436.959,-837.102
669134.918,4447236.959,-805.230
669134.918,4447036.959,-810.932
669134.918,4446836.959,-790.357
669134.918,4446636.959,-767.394
669134.918,4446436.959,-748.497
669134.918,4446236.959,-762.910
669134.918,4446036.959,-769.663
669134.918,4445836.959,-774.460
669134.918,4445636.959,-771.778
669134.918,4445436.959,-768.552
669134.918,4445236.959,-765.419
669134.918,4445036.959,-759.377
669134.918,4444836.959,-747.245
669134.918,4444636.959,-733.558
669134.918,4444436.959,-722.774
669134.918,4444236.959,-712.537
669134.918,4444036.959,-702.627
669134.918,4443836.959,-693.895
669134.918,4443636.959,-681.327
669134.918,4443436.959,-666.554
669134.918,4443236.959,-648.587
669134.918,4443036.959,-638.936
669134.918,4442836.959,-634.115
669134.918,4442636.959,-628.849
669134.918,4442436.959,-624.597
669134.918,4442236.959,-617.623
669134.918,4442036.959,-614.191
669134.918,4441836.959,-615.454
669134.918,4441636.959,-619.153
669134.918,4441436.959,-624.397
669134.918,4441236.959,-631.275
669134.918,4441036.959,-637.428
669134.918,4440836.959,-644.814
669134.918,4440636.959,-647.854
669134.918,4440436.959,-651.754
669134.918,4440236.959,-654.875
669134.918,4440036.959,-655.299
669134.918,4439836.959,-655.438
669134.918,4439636.959,-654.843
669134.918,4439436.959,-655.895
669134.918,4439236.959,-658.178
669134.918,4439036.959,-660.957
669134.918,4438836.959,-661.999
669134.918,4438636.959,-662.750
669134.918,4438436.959,-663.587
669134.918,4438236.959,-662.025
669134.918,4438036.959,-663.747
669134.918,4437836.959,-661.627
669134.918,4437636.959,-659.467
669134.918,4437436.959,-657.174
669134.918,4437236.959,-662.832
669134.918,4437036.959,-675.347
669134.918,4436836.959,-683.323
669134.918,4436636.959,-702.712
669134.918,4436436.959,-715.093
669134.918,4436236.959,-725.832
669134.918,4436036.959,-732.227
669134.918,4435836.959,-737.090
669134.918,4435636.959,-738.094
669134.918,4435436.959,-735.912
669134.918,4435236.959,-735.263
669134.918,4435036.959,-740.893
669134.918,4434836.959,-755.153
669134.918,4434636.959,-766.187
669334.918,4470636.959,-603.971
669334.918,4470436.959,-612.004
669334.918,4470236.959,-626.896
669334.918,4470036.959,-633.246
669334.918,4469836.959,-643.181
669334.918,4469636.959,-657.593
669334.918,4469436.959,-664.967
669334.918,4469236.959,-673.466
669334.918,4469036.959,-695.796
669334.918,4468836.959,-704.669
669334.918,4468636.959,-703.840
669334.918,4468436.959,-700.536
669334.918,4468236.959,-705.032
669334.918,4468036.959,-703.581
669334.918,4467836.959,-692.741
669334.918,4467636.959,-698.702
669334.918,4467436.959,-714.824
669334.918,4467236.959,-727.400
669334.918,4467036.959,-742.257
669334.918,4466836.959,-753.117
669334.918,4466636.959,-826.990
669334.918,4466436.959,-843.353
669334.918,4466236.959,-862.405
669334.918,4466036.959,-909.204
669334.918,4465836.959,-909.230
669334.918,4465636.959,-912.320
669334.918,4465436.959,-910.985
669334.918,4465236.959,-915.853
669334.918,4465036.959,-915.316
669334.918,4464836.959,-918.572
669334.918,4464636.959,-923.754
669334.918,4464436.959,-929.014
669334.918,4464236.959,-928.350
669334.918,4464036.959,-915.302
669334.918,4463836.959,-877.081
669334.918,4463636.959,-856.499
669334.918,4463436.959,-856.799
669334.918,4463236.959,-859.045
669334.918,4463036.959,-856.231
669334.918,4462836.959,-866.631
669334.918,4462636.959,-867.024
669334.918,4462436.959,-867.703
669334.918,4462236.959,-873.579
669334.918,4462036.959,-864.663
669334.918,4461836.959,-873.448
669334.918,4461636.959,-874.491
669334.918,4461436.959,-873.045
669334.918,4461236.959,-874.036
669334.918,4461036.959,-874.999
669334.918,4460836.959,-875.971
669334.918,4460636.959,-874.348
669334.918,4460436.959,-871.774
669334.918,4460236.959,-867.087
669334.918,4460036.959,-856.287
669334.918,4459836.959,-825.003
669334.918,4459636.959,-821.554
669334.918,4459436.959,-826.089
669334.918,4459236.959,-836.951
669334.918,4459036.959,-857.574
669334.918,4458836.959,-868.985
669334.918,4458636.959,-880.959
669334.918,4458436.959,-884.210
669334.918,4458236.959,-893.497
669334.918,4458036.959,-896.366
669334.918,4457836.959,-900.194
669334.918,4457636.959,-903.146
669334.918,4457436.959,-906.855
669334.918,4457236.959,-910.084
669334.918,4457036.959,-914.894
669334.918,4456836.959,-917.417
669334.918,4456636.959,-922.142
669334.918,4456436.959,-929.064
669334.918,4456236.959,-931.361
669334.918,4456036.959,-933.650
669334.918,4455836.959,-939.708
669334.918,4455636.959,-946.230
669334.918,4455436.959,-949.219
669334.918,4455236.959,-953.862
669334.918,4455036.959,-955.499
669334.918,4454836.959,-954.770
669334.918,4454636.959,-958.601
669334.918,4454436.959,-960.776
669334.918,4454236.959,-965.378
669334.918,4454036.959,-970.737
669334.918,4453836.959,-975.871
669334.918,4453636.959,-973.809
669334.918,4453436.959,-979.343
669334.918,4453236.959,-983.528
669334.918,4453036.959,-984.676
669334.918,4452836.959,-986.962
669334.918,4452636.959,-989.529
669334.918,4452436.959,-994.784
669334.918,4452236.959,-1000.818
669334.918,4452036.959,-1007.583
669334.918,4451836.959,-1011.255
669334.918,4451636.959,-1015.006
669334.918,4451436.959,-1015.874
669334.918,4451236.959,-1014.739
669334.918,4451036.959,-1014.094
669334.918,4450836.959,-1012.837
669334.918,4450636.959,-1001.649
669334.918,4450436.959,-1005.307
669334.918,4450236.959,-1001.415
669334.918,4450036.959,-992.257
669334.918,4449836.959,-979.374
669334.918,4449636.959,-961.443
669334.918,4449436.959,-962.758
669334.918,4449236.959,-965.413
669334.918,4449036.959,-965.148
669334.918,4448836.959,-960.304
669334.918,4448636.959,-956.099
669334.918,4448436.959,-953.005
669334.918,4448236.959,-932.936
669334.918,4448036.959,-924.951
669334.918,4447836.959,-920.565
669334.918,4447636.959,-903.998
669334.918,4447436.959,-873.207
669334.918,4447236.959,-867.540
669334.918,4447036.959,-859.464
669334.918,4446836.959,-852.794
669334.918,4446636.959,-801.441
669334.918,4446436.959,-757.939
669334.918,4446236.959,-765.819
669334.918,4446036.959,-776.089
669334.918,4445836.959,-776.818
669334.918,4445636.959,-777.089
669334.918,4445436.959,-773.919
669334.918,4445236.959,-769.722
669334.918,4445036.959,-767.686
669334.918,4444836.959,-759.811
669334.918,4444636.959,-747.286
669334.918,4444436.959,-735.680
669334.918,4444236.959,-723.934
669334.918,4444036.959,-716.358
669334.918,4443836.959,-707.104
669334.918,4443636.959,-694.249
669334.918,4443436.959,-679.229
669334.918,4443236.959,-663.964
669334.918,4443036.959,-652.248
669334.918,4442836.959,-646.527
669334.918,4442636.959,-642.990
669334.918,4442436.959,-637.366
669334.918,4442236.959,-630.954
669334.918,4442036.959,-624.654
669334.918,4441836.959,-621.903
669334.918,4441636.959,-621.092
669334.918,4441436.959,-622.464
669334.918,4441236.959,-629.710
669334.918,4441036.959,-635.479
669334.918,4440836.959,-640.810
669334.918,4440636.959,-646.980
669334.918,4440436.959,-650.089
669334.918,4440236.959,-652.647
669334.918,4440036.959,-653.897
669334.918,4439836.959,-656.873
669334.918,4439636.959,-654.551
669334.918,4439436.959,-655.277
669334.918,4439236.959,-653.478
669334.918,4439036.959,-655.249
669334.918,4438836.959,-655.759
669334.918,4438636.959,-656.345
669334.918,4438436.959,-658.195
669334.918,4438236.959,-660.195
669334.918,4438036.959,-668.436
669334.918,4437836.959,-673.513
669334.918,4437636.959,-672.299
669334.918,4437436.959,-674.011
669334.918,4437236.959,-675.693
669334.918,4437036.959,-685.869
669334.918,4436836.959,-695.103
669334.918,4436636.959,-713.254
669334.918,4436436.959,-725.391
669334.918,4436236.959,-731.029
669334.918,4436036.959,-735.008
669334.918,4435836.959,-743.450
669334.918,4435636.959,-743.709
669334.918,4435436.959,-743.983
669334.918,4435236.959,-734.515
669334.918,4435036.959,-734.222
669334.918,4434836.959,-748.178
669334.918,4434636.959,-763.141
669534.918,4470636.959,-604.846
669534.918,4470436.959,-612.645
669534.918,4470236.959,-621.432
669534.918,4470036.959,-628.687
669534.918,4469836.959,-641.430
669534.918,4469636.959,-652.866
669534.918,4469436.959,-653.868
669534.918,4469236.959,-658.701
669534.918,4469036.959,-674.322
669534.918,4468836.959,-695.113
669534.918,4468636.959,-692.463
669534.918,4468436.959,-683.734
669534.918,4468236.959,-680.441
669534.918,4468036.959,-675.356
669534.918,4467836.959,-676.691
669534.918,4467636.959,-694.727
669534.918,4467436.959,-707.713
669534.918,4467236.959,-723.595
669534.918,4467036.959,-743.161
669534.918,4466836.959,-776.183
669534.918,4466636.959,-818.923
669534.918,4466436.959,-851.596
669534.918,4466236.959,-871.394
669534.918,4466036.959,-910.845
669534.918,4465836.959,-913.120
669534.918,4465636.959,-913.714
669534.918,4465436.959,-915.121
669534.918,4465236.959,-916.308
669534.918,4465036.959,-922.851
669534.918,4464836.959,-922.484
669534.918,4464636.959,-929.016
669534.918,4464436.959,-931.800
669534.918,4464236.959,-933.130
669534.918,4464036.959,-931.653
669534.918,4463836.959,-902.475
669534.918,4463636.959,-891.149
669534.918,4463436.959,-883.077
669534.918,4463236.959,-876.905
669534.918,4463036.959,-869.999
669534.918,4462836.959,-873.901
669534.918,4462636.959,-881.028
669534.918,4462436.959,-881.062
669534.918,4462236.959,-882.544
669534.918,4462036.959,-873.736
669534.918,4461836.959,-879.072
669534.918,4461636.959,-883.802
669534.918,4461436.959,-880.941
669534.918,4461236.959,-880.837
669534.918,4461036.959,-884.105
669534.918,4460836.959,-883.355
669534.918,4460636.959,-882.869
669534.918,4460436.959,-881.307
669534.918,4460236.959,-877.869
669534.918,4460036.959,-867.251
669534.918,4459836.959,-835.418
669534.918,4459636.959,-818.091
669534.918,4459436.959,-826.213
669534.918,4459236.959,-835.424
669534.918,4459036.959,-854.606
669534.918,4458836.959,-868.513
669534.918,4458636.959,-881.018
669534.918,4458436.959,-891.474
669534.918,4458236.959,-900.374
669534.918,4458036.959,-902.816
669534.918,4457836.959,-906.711
669534.918,4457636.959,-910.661
669534.918,4457436.959,-913.222
669534.918,4457236.959,-921.719
669534.918,4457036.959,-922.226
669534.918,4456836.959,-924.402
669534.918,4456636.959,-928.196
669534.918,4456436.959,-937.854
669534.918,4456236.959,-938.051
669534.918,4456036.959,-939.662
669534.918,4455836.959,-945.386
669534.918,4455636.959,-950.257
669534.918,4455436.959,-958.341
669534.918,4455236.959,-963.422
669534.918,4455036.959,-964.443
669534.918,4454836.959,-967.086
669534.918,4454636.959,-965.793
669534.918,4454436.959,-968.168
669534.918,4454236.959,-971.891
669534.918,4454036.959,-977.473
669534.918,4453836.959,-978.427
669534.918,4453636.959,-980.593
669534.918,4453436.959,-984.504
669534.918,4453236.959,-990.545
669534.918,4453036.959,-992.313
669534.918,4452836.959,-992.964
669534.918,4452636.959,-997.925
669534.918,4452436.959,-1003.028
669534.918,4452236.959,-1004.220
669534.918,4452036.959,-1006.488
669534.918,4451836.959,-1013.845
669534.918,4451636.959,-1016.456
669534.918,4451436.959,-1019.860
669534.918,4451236.959,-1017.871
669534.918,4451036.959,-1017.014
669534.918,4450836.959,-1015.524
669534.918,4450636.959,-1015.391
669534.918,4450436.959,-1015.722
669534.918,4450236.959,-1006.725
669534.918,4450036.959,-994.570
669534.918,4449836.959,-981.044
669534.918,4449636.959,-969.909
669534.918,4449436.959,-972.673
669534.918,4449236.959,-971.651
669534.918,4449036.959,-971.284
669534.918,4448836.959,-973.591
669534.918,4448636.959,-977.055
669534.918,4448436.959,-964.499
669534.918,4448236.959,-944.797
669534.918,4448036.959,-944.522
669534.918,4447836.959,-950.692
669534.918,4447636.959,-934.034
669534.918,4447436.959,-906.491
669534.918,4447236.959,-902.210
669534.918,4447036.959,-902.915
669534.918,4446836.959,-896.040
669534.918,4446636.959,-838.334
669534.918,4446436.959,-802.480
669534.918,4446236.959,-770.046
669534.918,4446036.959,-777.771
669534.918,4445836.959,-780.949
669534.918,4445636.959,-782.640
669534.918,4445436.959,-780.237
669534.918,4445236.959,-779.718
669534.918,4445036.959,-778.079
669534.918,4444836.959,-768.695
669534.918,4444636.959,-760.664
669534.918,4444436.959,-746.652
669534.918,4444236.959,-737.835
669534.918,4444036.959,-728.014
669534.918,4443836.959,-720.404
669534.918,4443636.959,-709.065
669534.918,4443436.959,-694.227
669534.918,4443236.959,-680.747
669534.918,4443036.959,-669.789
669534.918,4442836.959,-662.355
669534.918,4442636.959,-656.396
669534.918,4442436.959,-650.466
669534.918,4442236.959,-644.609
669534.918,4442036.959,-640.888
669534.918,4441836.959,-631.037
669534.918,4441636.959,-625.739
669534.918,4441436.959,-624.458
669534.918,4441236.959,-627.864
669534.918,4441036.959,-634.707
669534.918,4440836.959,-641.098
669534.918,4440636.959,-646.860
669534.918,4440436.959,-650.072
669534.918,4440236.959,-652.871
669534.918,4440036.959,-653.148
669534.918,4439836.959,-653.169
669534.918,4439636.959,-653.888
669534.918,4439436.959,-656.718
669534.918,4439236.959,-652.102
669534.918,4439036.959,-651.441
669534.918,4438836.959,-651.704
669534.918,4438636.959,-648.668
669534.918,4438436.959,-650.107
669534.918,4438236.959,-657.806
669534.918,4438036.959,-680.012
669534.918,4437836.959,-683.193
669534.918,4437636.959,-684.760
669534.918,4437436.959,-689.109
669534.918,4437236.959,-697.015
669534.918,4437036.959,-703.591
669534.918,4436836.959,-717.662
669534.918,4436636.959,-725.754
669534.918,4436436.959,-732.468
669534.918,4436236.959,-743.688
669534.918,4436036.959,-745.282
669534.918,4435836.959,-748.165
669534.918,4435636.959,-748.208
669534.918,4435436.959,-750.419
669534.918,4435236.959,-744.842
669534.918,4435036.959,-738.313
669534.918,4434836.959,-750.167
669534.918,4434636.959,-767.447
669734.918,4470636.959,-604.441
669734.918,4470436.959,-611.388
669734.918,4470236.959,-617.039
669734.918,4470036.959,-624.523
669734.918,4469836.959,-642.382
669734.918,4469636.959,-641.356
669734.918,4469436.959,-643.013
669734.918,4469236.959,-647.802
669734.918,4469036.959,-654.677
669734.918,4468836.959,-666.950
669734.918,4468636.959,-672.253
669734.918,4468436.959,-664.751
669734.918,4468236.959,-655.055
669734.918,4468036.959,-659.462
669734.918,4467836.959,-671.733
669734.918,4467636.959,-687.746
669734.918,4467436.959,-705.460
669734.918,4467236.959,-724.690
669734.918,4467036.959,-742.492
669734.918,4466836.959,-762.413
669734.918,4466636.959,-799.772
669734.918,4466436.959,-850.693
669734.918,4466236.959,-871.639
669734.918,4466036.959,-911.682
669734.918,4465836.959,-917.500
669734.918,4465636.959,-916.384
669734.918,4465436.959,-917.798
669734.918,4465236.959,-921.076
669734.918,4465036.959,-921.532
669734.918,4464836.959,-927.778
669734.918,4464636.959,-931.659
669734.918,4464436.959,-931.935
669734.918,4464236.959,-941.692
669734.918,4464036.959,-934.677
669734.918,4463836.959,-928.593
669734.918,4463636.959,-909.882
669734.918,4463436.959,-895.563
669734.918,4463236.959,-876.505
669734.918,4463036.959,-870.624
669734.918,4462836.959,-878.418
669734.918,4462636.959,-890.111
669734.918,4462436.959,-886.035
669734.918,4462236.959,-888.222
669734.918,4462036.959,-884.459
669734.918,4461836.959,-884.709
669734.918,4461636.959,-889.154
669734.918,4461436.959,-892.740
669734.918,4461236.959,-892.961
669734.918,4461036.959,-892.586
669734.918,4460836.959,-890.632
669734.918,4460636.959,-890.377
669734.918,4460436.959,-893.762
669734.918,4460236.959,-887.609
669734.918,4460036.959,-877.037
669734.918,4459836.959,-878.510
669734.918,4459636.959,-873.202
669734.918,4459436.959,-836.722
669734.918,4459236.959,-837.458
669734.918,4459036.959,-850.954
669734.918,4458836.959,-862.741
669734.918,4458636.959,-885.271
669734.918,4458436.959,-898.379
669734.918,4458236.959,-906.672
669734.918,4458036.959,-907.850
669734.918,4457836.959,-912.887
669734.918,4457636.959,-915.825
669734.918,4457436.959,-919.720
669734.918,4457236.959,-924.686
669734.918,4457036.959,-928.417
669734.918,4456836.959,-932.001
669734.918,4456636.959,-936.455
669734.918,4456436.959,-940.765
669734.918,4456236.959,-946.054
669734.918,4456036.959,-946.966
669734.918,4455836.959,-949.736
669734.918,4455636.959,-955.986
669734.918,4455436.959,-963.012
669734.918,4455236.959,-967.388
669734.918,4455036.959,-970.997
669734.918,4454836.959,-975.755
669734.918,4454636.959,-974.999
669734.918,4454436.959,-975.371
669734.918,4454236.959,-978.345
669734.918,4454036.959,-982.720
669734.918,4453836.959,-983.031
669734.918,4453636.959,-988.711
669734.918,4453436.959,-991.962
669734.918,4453236.959,-994.513
669734.918,4453036.959,-999.339
669734.918,4452836.959,-999.165
669734.918,4452636.959,-1003.967
669734.918,4452436.959,-1005.701
669734.918,4452236.959,-1009.609
669734.918,4452036.959,-1009.218
669734.918,4451836.959,-1013.327
669734.918,4451636.959,-1019.101
669734.918,4451436.959,-1022.002
669734.918,4451236.959,-1022.668
669734.918,4451036.959,-1021.965
669734.918,4450836.959,-1018.710
669734.918,4450636.959,-1016.994
669734.918,4450436.959,-1018.321
669734.918,4450236.959,-1007.971
669734.918,4450036.959,-995.821
669734.918,4449836.959,-983.467
669734.918,4449636.959,-978.829
669734.918,4449436.959,-980.022
669734.918,4449236.959,-978.936
669734.918,4449036.959,-979.460
669734.918,4448836.959,-983.216
669734.918,4448636.959,-990.785
669734.918,4448436.959,-972.830
669734.918,4448236.959,-963.581
669734.918,4448036.959,-967.187
669734.918,4447836.959,-960.904
669734.918,4447636.959,-946.502
669734.918,4447436.959,-942.966
669734.918,4447236.959,-939.039
669734.918,4447036.959,-927.818
669734.918,4446836.959,-911.526
669734.918,4446636.959,-883.141
669734.918,4446436.959,-837.596
669734.918,4446236.959,-771.192
669734.918,4446036.959,-779.529
669734.918,4445836.959,-783.941
669734.918,4445636.959,-784.096
669734.918,4445436.959,-783.833
669734.918,4445236.959,-783.722
669734.918,4445036.959,-785.307
669734.918,4444836.959,-778.203
669734.918,4444636.959,-770.369
669734.918,4444436.959,-757.298
669734.918,4444236.959,-749.127
669734.918,4444036.959,-737.869
669734.918,4443836.959,-729.013
669734.918,4443636.959,-721.007
669734.918,4443436.959,-709.073
669734.918,4443236.959,-697.043
669734.918,4443036.959,-686.455
669734.918,4442836.959,-677.391
669734.918,4442636.959,-668.405
669734.918,4442436.959,-662.448
669734.918,4442236.959,-656.238
669734.918,4442036.959,-653.391
669734.918,4441836.959,-643.989
669734.918,4441636.959,-639.901
669734.918,4441436.959,-634.163
669734.918,4441236.959,-629.164
669734.918,4441036.959,-632.190
669734.918,4440836.959,-637.140
669734.918,4440636.959,-643.315
669734.918,4440436.959,-648.162
669734.918,4440236.959,-651.319
669734.918,4440036.959,-652.013
669734.918,4439836.959,-652.337
669734.918,4439636.959,-651.720
669734.918,4439436.959,-651.227
669734.918,4439236.959,-651.679
669734.918,4439036.959,-651.278
669734.918,4438836.959,-650.762
669734.918,4438636.959,-648.607
669734.918,4438436.959,-649.857
669734.918,4438236.959,-664.818
669734.918,4438036.959,-683.352
669734.918,4437836.959,-702.298
669734.918,4437636.959,-710.069
669734.918,4437436.959,-712.655
669734.918,4437236.959,-711.524
669734.918,4437036.959,-720.790
669734.918,4436836.959,-727.589
669734.918,4436636.959,-733.793
669734.918,4436436.959,-740.521
669734.918,4436236.959,-747.443
669734.918,4436036.959,-749.794
669734.918,4435836.959,-752.142
669734.918,4435636.959,-751.658
669734.918,4435436.959,-758.134
669734.918,4435236.959,-754.117
669734.918,4435036.959,-748.480
669734.918,4434836.959,-752.539
669734.918,4434636.959,-762.508
669934.918,4470436.959,-600.814
669934.918,4470236.959,-608.035
669934.918,4470036.959,-620.626
669934.918,4469836.959,-624.086
669934.918,4469636.959,-630.416
669934.918,4469436.959,-634.445
669934.918,4469236.959,-637.464
669934.918,4469036.959,-638.991
669934.918,4468836.959,-644.996
669934.918,4468636.959,-646.369
669934.918,4468436.959,-651.104
669934.918,4468236.959,-651.473
669934.918,4468036.959,-658.767
669934.918,4467836.959,-672.463
669934.918,4467636.959,-685.549
669934.918,4467436.959,-705.256
669934.918,4467236.959,-726.578
669934.918,4467036.959,-750.279
669934.918,4466836.959,-761.700
669934.918,4466636.959,-777.387
669934.918,4466436.959,-813.015
669934.918,4466236.959,-866.155
669934.918,4466036.959,-917.379
669934.918,4465836.959,-915.712
669934.918,4465636.959,-917.750
669934.918,4465436.959,-921.996
669934.918,4465236.959,-924.059
669934.918,4465036.959,-925.177
669934.918,4464836.959,-928.220
669934.918,4464636.959,-930.212
669934.918,4464436.959,-936.313
669934.918,4464236.959,-943.779
669934.918,4464036.959,-938.301
669934.918,4463836.959,-914.285
669934.918,4463636.959,-907.547
669934.918,4463436.959,-890.828
669934.918,4463236.959,-875.218
669934.918,4463036.959,-884.924
669934.918,4462836.959,-902.310
669934.918,4462636.959,-899.629
669934.918,4462436.959,-895.776
669934.918,4462236.959,-897.355
669934.918,4462036.959,-899.701
669934.918,4461836.959,-890.613
669934.918,4461636.959,-902.609
669934.918,4461436.959,-904.678
669934.918,4461236.959,-905.381
669934.918,4461036.959,-901.410
669934.918,4460836.959,-899.091
669934.918,4460636.959,-896.521
669934.918,4460436.959,-898.301
669934.918,4460236.959,-897.682
669934.918,4460036.959,-899.176
669934.918,4459836.959,-898.702
669934.918,4459636.959,-890.551
669934.918,4459436.959,-878.027
669934.918,4459236.959,-854.543
669934.918,4459036.959,-843.302
669934.918,4458836.959,-862.996
669934.918,4458636.959,-883.313
669934.918,4458436.959,-899.644
669934.918,4458236.959,-907.386
669934.918,4458036.959,-915.792
669934.918,4457836.959,-922.815
669934.918,4457636.959,-924.408
669934.918,4457436.959,-927.175
669934.918,4457236.959,-929.708
669934.918,4457036.959,-937.810
669934.918,4456836.959,-936.848
669934.918,4456636.959,-940.922
669934.918,4456436.959,-944.668
669934.918,4456236.959,-950.807
669934.918,4456036.959,-953.844
669934.918,4455836.959,-955.025
669934.918,4455636.959,-959.957
669934.918,4455436.959,-968.096
669934.918,4455236.959,-972.628
669934.918,4455036.959,-975.643
669934.918,4454836.959,-978.887
669934.918,4454636.959,-985.186
669934.918,4454436.959,-984.929
669934.918,4454236.959,-985.255
669934.918,4454036.959,-988.621
669934.918,4453836.959,-991.785
669934.918,4453636.959,-996.387
669934.918,4453436.959,-998.600
669934.918,4453236.959,-999.055
669934.918,4453036.959,-1003.313
669934.918,4452836.959,-1006.799
669934.918,4452636.959,-1010.720
669934.918,4452436.959,-1012.017
669934.918,4452236.959,-1014.999
669934.918,4452036.959,-1016.601
669934.918,4451836.959,-1018.858
669934.918,4451636.959,-1020.581
669934.918,4451436.959,-1026.495
669934.918,4451236.959,-1027.378
669934.918,4451036.959,-1026.335
669934.918,4450836.959,-1021.849
669934.918,4450636.959,-1025.032
669934.918,4450436.959,-1021.118
669934.918,4450236.959,-1010.224
669934.918,4450036.959,-998.404
669934.918,4449836.959,-985.378
669934.918,4449636.959,-984.379
669934.918,4449436.959,-984.715
669934.918,4449236.959,-986.360
669934.918,4449036.959,-986.252
669934.918,4448836.959,-990.206
669934.918,4448636.959,-997.051
669934.918,4448436.959,-991.924
669934.918,4448236.959,-985.257
669934.918,4448036.959,-988.508
669934.918,4447836.959,-967.959
669934.918,4447636.959,-968.528
669934.918,4447436.959,-976.121
669934.918,4447236.959,-977.211
669934.918,4447036.959,-965.312
669934.918,4446836.959,-923.150
669934.918,4446636.959,-892.086
669934.918,4446436.959,-857.061
669934.918,4446236.959,-799.221
669934.918,4446036.959,-786.781
669934.918,4445836.959,-786.729
669934.918,4445636.959,-788.759
669934.918,4445436.959,-788.274
669934.918,4445236.959,-788.287
669934.918,4445036.959,-791.393
669934.918,4444836.959,-788.466
669934.918,4444636.959,-780.617
669934.918,4444436.959,-772.908
669934.918,4444236.959,-760.974
669934.918,4444036.959,-749.342
669934.918,4443836.959,-741.075
669934.918,4443636.959,-730.901
669934.918,4443436.959,-719.644
669934.918,4443236.959,-711.044
669934.918,4443036.959,-700.928
669934.918,4442836.959,-693.642
669934.918,4442636.959,-683.569
669934.918,4442436.959,-677.260
669934.918,4442236.959,-668.060
669934.918,4442036.959,-665.397
669934.918,4441836.959,-661.487
669934.918,4441636.959,-655.543
669934.918,4441436.959,-648.112
669934.918,4441236.959,-636.841
669934.918,4441036.959,-632.968
669934.918,4440836.959,-633.603
669934.918,4440636.959,-638.651
669934.918,4440436.959,-642.204
669934.918,4440236.959,-645.014
669934.918,4440036.959,-649.458
669934.918,4439836.959,-650.356
669934.918,4439636.959,-650.832
669934.918,4439436.959,-650.387
669934.918,4439236.959,-650.389
669934.918,4439036.959,-650.425
669934.918,4438836.959,-651.277
669934.918,4438636.959,-650.606
669934.918,4438436.959,-651.556
669934.918,4438236.959,-675.760
669934.918,4438036.959,-700.206
669934.918,4437836.959,-708.904
669934.918,4437636.959,-722.762
669934.918,4437436.959,-728.033
669934.918,4437236.959,-733.864
669934.918,4437036.959,-733.708
669934.918,4436836.959,-735.492
669934.918,4436636.959,-747.916
669934.918,4436436.959,-745.784
669934.918,4436236.959,-753.727
669934.918,4436036.959,-757.874
669934.918,4435836.959,-757.772
669934.918,4435636.959,-757.476
669934.918,4435436.959,-761.143
669934.918,4435236.959,-757.967
669934.918,4435036.959,-755.479
669934.918,4434836.959,-753.172
669934.918,4434636.959,-755.245
670134.918,4470236.959,-600.127
670134.918,4470036.959,-609.145
670134.918,4469836.959,-616.007
670134.918,4469636.959,-619.189
670134.918,4469436.959,-621.785
670134.918,4469236.959,-628.140
670134.918,4469036.959,-628.699
670134.918,4468836.959,-630.965
670134.918,4468636.959,-636.784
670134.918,4468436.959,-644.570
670134.918,4468236.959,-657.882
670134.918,4468036.959,-671.255
670134.918,4467836.959,-682.459
670134.918,4467636.959,-699.061
670134.918,4467436.959,-715.923
670134.918,4467236.959,-733.325
670134.918,4467036.959,-752.595
670134.918,4466836.959,-764.098
670134.918,4466636.959,-779.678
670134.918,4466436.959,-838.385
670134.918,4466236.959,-866.304
670134.918,4466036.959,-916.125
670134.918,4465836.959,-916.503
670134.918,4465636.959,-921.335
670134.918,4465436.959,-922.727
670134.918,4465236.959,-929.014
670134.918,4465036.959,-931.025
670134.918,4464836.959,-933.163
670134.918,4464636.959,-938.170
670134.918,4464436.959,-943.365
670134.918,4464236.959,-946.945
670134.918,4464036.959,-947.154
670134.918,4463836.959,-930.124
670134.918,4463636.959,-911.770
670134.918,4463436.959,-896.339
670134.918,4463236.959,-895.790
670134.918,4463036.959,-904.676
670134.918,4462836.959,-913.471
670134.918,4462636.959,-913.294
670134.918,4462436.959,-917.379
670134.918,4462236.959,-919.285
670134.918,4462036.959,-922.720
670134.918,4461836.959,-909.697
670134.918,4461636.959,-915.349
670134.918,4461436.959,-909.211
670134.918,4461236.959,-910.435
670134.918,4461036.959,-908.942
670134.918,4460836.959,-909.133
670134.918,4460636.959,-907.780
670134.918,4460436.959,-911.803
670134.918,4460236.959,-908.362
670134.918,4460036.959,-908.842
670134.918,4459836.959,-909.103
670134.918,4459636.959,-899.771
670134.918,4459436.959,-890.178
670134.918,4459236.959,-886.827
670134.918,4459036.959,-859.929
670134.918,4458836.959,-857.697
670134.918,4458636.959,-877.541
670134.918,4458436.959,-898.524
670134.918,4458236.959,-906.067
670134.918,4458036.959,-921.878
670134.918,4457836.959,-925.141
670134.918,4457636.959,-930.931
670134.918,4457436.959,-936.395
670134.918,4457236.959,-939.221
670134.918,4457036.959,-943.726
670134.918,4456836.959,-945.678
670134.918,4456636.959,-945.492
670134.918,4456436.959,-953.692
670134.918,4456236.959,-957.467
670134.918,4456036.959,-960.321
670134.918,4455836.959,-961.844
670134.918,4455636.959,-967.364
670134.918,4455436.959,-974.078
670134.918,4455236.959,-979.228
670134.918,4455036.959,-981.957
670134.918,4454836.959,-987.668
670134.918,4454636.959,-990.361
670134.918,4454436.959,-990.510
670134.918,4454236.959,-992.410
670134.918,4454036.959,-996.003
670134.918,4453836.959,-1000.188
670134.918,4453636.959,-1003.694
670134.918,4453436.959,-1002.740
670134.918,4453236.959,-1006.821
670134.918,4453036.959,-1009.013
670134.918,4452836.959,-1012.732
670134.918,4452636.959,-1016.966
670134.918,4452436.959,-1017.754
670134.918,4452236.959,-1018.703
670134.918,4452036.959,-1018.789
670134.918,4451836.959,-1021.905
670134.918,4451636.959,-1023.863
670134.918,4451436.959,-1028.727
670134.918,4451236.959,-1033.001
670134.918,4451036.959,-1031.255
670134.918,4450836.959,-1031.837
670134.918,4450636.959,-1032.693
670134.918,4450436.959,-1027.258
670134.918,4450236.959,-1012.696
670134.918,4450036.959,-1004.465
670134.918,4449836.959,-993.645
670134.918,4449636.959,-994.724
670134.918,4449436.959,-993.519
670134.918,4449236.959,-993.710
670134.918,4449036.959,-993.621
670134.918,4448836.959,-999.895
670134.918,4448636.959,-1002.338
670134.918,4448436.959,-1004.585
670134.918,4448236.959,-1002.075
670134.918,4448036.959,-998.339
670134.918,4447836.959,-985.280
670134.918,4447636.959,-989.815
670134.918,4447436.959,-988.341
670134.918,4447236.959,-982.624
670134.918,4447036.959,-954.396
670134.918,4446836.959,-936.032
670134.918,4446636.959,-897.284
670134.918,4446436.959,-861.214
670134.918,4446236.959,-820.916
670134.918,4446036.959,-793.330
670134.918,4445836.959,-794.177
670134.918,4445636.959,-795.486
670134.918,4445436.959,-794.975
670134.918,4445236.959,-794.547
670134.918,4445036.959,-799.025
670134.918,4444836.959,-795.438
670134.918,4444636.959,-787.628
670134.918,4444436.959,-783.068
670134.918,4444236.959,-775.545
670134.918,4444036.959,-762.262
670134.918,4443836.959,-752.585
670134.918,4443636.959,-742.158
670134.918,4443436.959,-732.666
670134.918,4443236.959,-726.746
670134.918,4443036.959,-714.926
670134.918,4442836.959,-708.807
670134.918,4442636.959,-700.120
670134.918,4442436.959,-695.189
670134.918,4442236.959,-686.109
670134.918,4442036.959,-684.418
670134.918,4441836.959,-677.252
670134.918,4441636.959,-669.065
670134.918,4441436.959,-661.583
670134.918,4441236.959,-655.750
670134.918,4441036.959,-645.455
670134.918,4440836.959,-635.388
670134.918,4440636.959,-635.307
670134.918,4440436.959,-638.491
670134.918,4440236.959,-640.990
670134.918,4440036.959,-643.911
670134.918,4439836.959,-647.659
670134.918,4439636.959,-648.940
670134.918,4439436.959,-648.645
670134.918,4439236.959,-647.174
670134.918,4439036.959,-648.944
670134.918,4438836.959,-650.087
670134.918,4438636.959,-654.838
670134.918,4438436.959,-673.089
670134.918,4438236.959,-689.870
670134.918,4438036.959,-702.772
670134.918,4437836.959,-713.260
670134.918,4437636.959,-723.221
670134.918,4437436.959,-731.594
670134.918,4437236.959,-735.083
670134.918,4437036.959,-742.178
670134.918,4436836.959,-742.644
670134.918,4436636.959,-747.789
670134.918,4436436.959,-751.148
670134.918,4436236.959,-751.423
670134.918,4436036.959,-757.641
670134.918,4435836.959,-759.773
670134.918,4435636.959,-767.398
670134.918,4435436.959,-764.464
670134.918,4435236.959,-760.665
670134.918,4435036.959,-762.199
670134.918,4434836.959,-760.235
670134.918,4434636.959,-760.739
670334.918,4469836.959,-605.787
670334.918,4469636.959,-609.102
670334.918,4469436.959,-614.686
670334.918,4469236.959,-614.435
670334.918,4469036.959,-618.324
670334.918,4468836.959,-622.564
670334.918,4468636.959,-632.150
670334.918,4468436.959,-643.769
670334.918,4468236.959,-651.450
670334.918,4468036.959,-666.562
670334.918,4467836.959,-676.995
670334.918,4467636.959,-691.859
670334.918,4467436.959,-705.117
670334.918,4467236.959,-720.218
670334.918,4467036.959,-738.825
670334.918,4466836.959,-755.330
670334.918,4466636.959,-770.795
670334.918,4466436.959,-829.949
670334.918,4466236.959,-838.138
670334.918,4466036.959,-899.477
670334.918,4465836.959,-916.862
670334.918,4465636.959,-920.596
670334.918,4465436.959,-924.323
670334.918,4465236.959,-929.787
670334.918,4465036.959,-934.418
670334.918,4464836.959,-937.426
670334.918,4464636.959,-943.360
670334.918,4464436.959,-942.503
670334.918,4464236.959,-950.960
670334.918,4464036.959,-956.931
670334.918,4463836.959,-948.953
670334.918,4463636.959,-948.566
670334.918,4463436.959,-958.648
670334.918,4463236.959,-924.174
670334.918,4463036.959,-917.713
670334.918,4462836.959,-918.425
670334.918,4462636.959,-923.500
670334.918,4462436.959,-933.529
670334.918,4462236.959,-930.322
670334.918,4462036.959,-924.946
670334.918,4461836.959,-920.723
670334.918,4461636.959,-924.395
670334.918,4461436.959,-918.612
670334.918,4461236.959,-920.894
670334.918,4461036.959,-918.130
670334.918,4460836.959,-915.999
670334.918,4460636.959,-916.154
670334.918,4460436.959,-920.269
670334.918,4460236.959,-919.697
670334.918,4460036.959,-921.084
670334.918,4459836.959,-920.203
670334.918,4459636.959,-914.857
670334.918,4459436.959,-907.999
670334.918,4459236.959,-903.045
670334.918,4459036.959,-888.978
670334.918,4458836.959,-867.029
670334.918,4458636.959,-868.490
670334.918,4458436.959,-890.597
670334.918,4458236.959,-907.319
670334.918,4458036.959,-922.362
670334.918,4457836.959,-928.773
670334.918,4457636.959,-937.393
670334.918,4457436.959,-941.358
670334.918,4457236.959,-943.149
670334.918,4457036.959,-946.526
670334.918,4456836.959,-951.447
670334.918,4456636.959,-954.755
670334.918,4456436.959,-961.335
670334.918,4456236.959,-963.718
670334.918,4456036.959,-964.995
670334.918,4455836.959,-970.858
670334.918,4455636.959,-976.859
670334.918,4455436.959,-980.599
670334.918,4455236.959,-987.128
670334.918,4455036.959,-990.559
670334.918,4454836.959,-993.909
670334.918,4454636.959,-997.466
670334.918,4454436.959,-996.924
670334.918,4454236.959,-999.370
670334.918,4454036.959,-1001.795
670334.918,4453836.959,-1005.531
670334.918,4453636.959,-1008.353
670334.918,4453436.959,-1010.476
670334.918,4453236.959,-1013.520
670334.918,4453036.959,-1015.263
670334.918,4452836.959,-1020.742
670334.918,4452636.959,-1023.565
670334.918,4452436.959,-1025.245
670334.918,4452236.959,-1028.291
670334.918,4452036.959,-1027.605
670334.918,4451836.959,-1030.815
670334.918,4451636.959,-1027.370
670334.918,4451436.959,-1031.798
670334.918,4451236.959,-1038.653
670334.918,4451036.959,-1037.833
670334.918,4450836.959,-1034.968
670334.918,4450636.959,-1034.983
670334.918,4450436.959,-1027.899
670334.918,4450236.959,-1016.125
670334.918,4450036.959,-1004.700
670334.918,4449836.959,-1002.130
670334.918,4449636.959,-999.287
670334.918,4449436.959,-1001.686
670334.918,4449236.959,-999.648
670334.918,4449036.959,-998.696
670334.918,4448836.959,-1006.207
670334.918,4448636.959,-1010.157
670334.918,4448436.959,-1010.901
670334.918,4448236.959,-1013.887
670334.918,4448036.959,-1010.519
670334.918,4447836.959,-1008.211
670334.918,4447636.959,-1007.215
670334.918,4447436.959,-996.319
670334.918,4447236.959,-983.916
670334.918,4447036.959,-958.796
670334.918,4446836.959,-934.607
670334.918,4446636.959,-910.686
670334.918,4446436.959,-881.486
670334.918,4446236.959,-845.317
670334.918,4446036.959,-826.455
670334.918,4445836.959,-799.744
670334.918,4445636.959,-797.491
670334.918,4445436.959,-798.309
670334.918,4445236.959,-799.901
670334.918,4445036.959,-802.511
670334.918,4444836.959,-800.351
670334.918,4444636.959,-795.378
670334.918,4444436.959,-788.235
670334.918,4444236.959,-783.703
670334.918,4444036.959,-774.451
670334.918,4443836.959,-762.710
670334.918,4443636.959,-750.004
670334.918,4443436.959,-742.303
670334.918,4443236.959,-738.086
670334.918,4443036.959,-729.710
670334.918,4442836.959,-721.409
670334.918,4442636.959,-715.076
670334.918,4442436.959,-711.169
670334.918,4442236.959,-710.538
670334.918,4442036.959,-706.588
670334.918,4441836.959,-695.936
670334.918,4441636.959,-683.832
670334.918,4441436.959,-671.416
670334.918,4441236.959,-666.056
670334.918,4441036.959,-656.261
670334.918,4440836.959,-642.979
670334.918,4440636.959,-637.536
670334.918,4440436.959,-636.506
670334.918,4440236.959,-637.001
670334.918,4440036.959,-638.359
670334.918,4439836.959,-641.670
670334.918,4439636.959,-642.325
670334.918,4439436.959,-642.542
670334.918,4439236.959,-642.790
670334.918,4439036.959,-644.783
670334.918,4438836.959,-652.036
670334.918,4438636.959,-664.928
670334.918,4438436.959,-677.274
670334.918,4438236.959,-702.429
670334.918,4438036.959,-714.449
670334.918,4437836.959,-718.322
670334.918,4437636.959,-731.514
670334.918,4437436.959,-736.494
670334.918,4437236.959,-741.299
670334.918,4437036.959,-746.091
670334.918,4436836.959,-748.071
670334.918,4436636.959,-755.742
670334.918,4436436.959,-755.176
670334.918,4436236.959,-754.276
670334.918,4436036.959,-757.505
670334.918,4435836.959,-760.555
670334.918,4435636.959,-764.251
670334.918,4435436.959,-765.525
670334.918,4435236.959,-763.540
670334.918,4435036.959,-766.180
670334.918,4434836.959,-765.027
670334.918,4434636.959,-767.430
670534.918,4469636.959,-608.561
670534.918,4469436.959,-603.526
670534.918,4469236.959,-604.149
670534.918,4469036.959,-608.025
670534.918,4468836.959,-615.209
670534.918,4468636.959,-624.451
670534.918,4468436.959,-635.950
670534.918,4468236.959,-644.241
670534.918,4468036.959,-659.144
670534.918,4467836.959,-673.317
670534.918,4467636.959,-687.437
670534.918,4467436.959,-707.194
670534.918,4467236.959,-719.394
670534.918,4467036.959,-738.504
670534.918,4466836.959,-752.655
670534.918,4466636.959,-764.702
670534.918,4466436.959,-814.414
670534.918,4466236.959,-824.586
670534.918,4466036.959,-890.604
670534.918,4465836.959,-919.003
670534.918,4465636.959,-919.828
670534.918,4465436.959,-922.360
670534.918,4465236.959,-927.340
670534.918,4465036.959,-936.938
670534.918,4464836.959,-939.044
670534.918,4464636.959,-942.676
670534.918,4464436.959,-945.287
670534.918,4464236.959,-950.351
670534.918,4464036.959,-961.417
670534.918,4463836.959,-960.104
670534.918,4463636.959,-962.891
670534.918,4463436.959,-956.919
670534.918,4463236.959,-952.103
670534.918,4463036.959,-945.775
670534.918,4462836.959,-928.538
670534.918,4462636.959,-933.161
670534.918,4462436.959,-938.744
670534.918,4462236.959,-937.045
670534.918,4462036.959,-922.961
670534.918,4461836.959,-928.726
670534.918,4461636.959,-930.844
670534.918,4461436.959,-928.282
670534.918,4461236.959,-927.458
670534.918,4461036.959,-925.101
670534.918,4460836.959,-925.706
670534.918,4460636.959,-924.839
670534.918,4460436.959,-928.947
670534.918,4460236.959,-928.421
670534.918,4460036.959,-926.139
670534.918,4459836.959,-928.723
670534.918,4459636.959,-928.218
670534.918,4459436.959,-924.836
670534.918,4459236.959,-917.554
670534.918,4459036.959,-899.593
670534.918,4458836.959,-882.790
670534.918,4458636.959,-867.060
670534.918,4458436.959,-885.182
670534.918,4458236.959,-906.172
670534.918,4458036.959,-922.455
670534.918,4457836.959,-937.392
670534.918,4457636.959,-945.160
670534.918,4457436.959,-946.568
670534.918,4457236.959,-947.552
670534.918,4457036.959,-953.086
670534.918,4456836.959,-957.890
670534.918,4456636.959,-961.728
670534.918,4456436.959,-965.606
670534.918,4456236.959,-968.899
670534.918,4456036.959,-972.798
670534.918,4455836.959,-976.155
670534.918,4455636.959,-982.657
670534.918,4455436.959,-989.316
670534.918,4455236.959,-994.222
670534.918,4455036.959,-998.479
670534.918,4454836.959,-998.862
670534.918,4454636.959,-1003.263
670534.918,4454436.959,-1004.625
670534.918,4454236.959,-1008.015
670534.918,4454036.959,-1008.294
670534.918,4453836.959,-1010.123
670534.918,4453636.959,-1015.934
670534.918,4453436.959,-1016.047
670534.918,4453236.959,-1018.614
670534.918,4453036.959,-1022.582
670534.918,4452836.959,-1025.260
670534.918,4452636.959,-1027.705
670534.918,4452436.959,-1034.515
670534.918,4452236.959,-1032.640
670534.918,4452036.959,-1035.701
670534.918,4451836.959,-1037.170
670534.918,4451636.959,-1040.571
670534.918,4451436.959,-1039.785
670534.918,4451236.959,-1042.612
670534.918,4451036.959,-1042.620
670534.918,4450836.959,-1044.376
670534.918,4450636.959,-1038.215
670534.918,4450436.959,-1032.425
670534.918,4450236.959,-1020.273
670534.918,4450036.959,-1006.241
670534.918,4449836.959,-1003.418
670534.918,4449636.959,-1002.589
670534.918,4449436.959,-1007.841
670534.918,4449236.959,-1007.448
670534.918,4449036.959,-1011.073
670534.918,4448836.959,-1014.858
670534.918,4448636.959,-1019.746
670534.918,4448436.959,-1019.765
670534.918,4448236.959,-1023.093
670534.918,4448036.959,-1022.064
670534.918,4447836.959,-1021.381
670534.918,4447636.959,-1014.445
670534.918,4447436.959,-1000.896
670534.918,4447236.959,-993.345
670534.918,4447036.959,-981.857
670534.918,4446836.959,-972.371
670534.918,4446636.959,-964.331
670534.918,4446436.959,-909.246
670534.918,4446236.959,-885.360
670534.918,4446036.959,-863.528
670534.918,4445836.959,-816.641
670534.918,4445636.959,-801.137
670534.918,4445436.959,-801.799
670534.918,4445236.959,-805.589
670534.918,4445036.959,-808.057
670534.918,4444836.959,-804.296
670534.918,4444636.959,-802.267
670534.918,4444436.959,-797.390
670534.918,4444236.959,-791.762
670534.918,4444036.959,-785.254
670534.918,4443836.959,-777.753
670534.918,4443636.959,-767.359
670534.918,4443436.959,-758.161
670534.918,4443236.959,-748.817
670534.918,4443036.959,-744.201
670534.918,4442836.959,-741.941
670534.918,4442636.959,-739.767
670534.918,4442436.959,-731.645
670534.918,4442236.959,-732.654
670534.918,4442036.959,-724.645
670534.918,4441836.959,-712.784
670534.918,4441636.959,-706.594
670534.918,4441436.959,-695.734
670534.918,4441236.959,-681.718
670534.918,4441036.959,-667.784
670534.918,4440836.959,-654.878
670534.918,4440636.959,-647.176
670534.918,4440436.959,-642.725
670534.918,4440236.959,-641.324
670534.918,4440036.959,-638.348
670534.918,4439836.959,-637.377
670534.918,4439636.959,-636.876
670534.918,4439436.959,-635.202
670534.918,4439236.959,-635.178
670534.918,4439036.959,-639.311
670534.918,4438836.959,-648.246
670534.918,4438636.959,-673.222
670534.918,4438436.959,-696.027
670534.918,4438236.959,-710.031
670534.918,4438036.959,-716.710
670534.918,4437836.959,-726.411
670534.918,4437636.959,-735.446
670534.918,4437436.959,-740.780
670534.918,4437236.959,-751.759
670534.918,4437036.959,-749.355
670534.918,4436836.959,-756.145
670534.918,4436636.959,-758.261
670534.918,4436436.959,-756.372
670534.918,4436236.959,-757.690
670534.918,4436036.959,-757.834
670534.918,4435836.959,-758.750
670534.918,4435636.959,-759.963
670534.918,4435436.959,-765.846
670534.918,4435236.959,-765.802
670534.918,4435036.959,-765.845
670534.918,4434836.959,-768.755
670534.918,4434636.959,-770.342
670734.918,4469636.959,-608.020
670734.918,4469436.959,-603.017
670734.918,4469236.959,-603.643
670734.918,4469036.959,-604.996
670734.918,4468836.959,-605.205
670734.918,4468636.959,-615.125
670734.918,4468436.959,-621.392
670734.918,4468236.959,-630.681
670734.918,4468036.959,-646.813
670734.918,4467836.959,-661.334
670734.918,4467636.959,-678.859
670734.918,4467436.959,-697.685
670734.918,4467236.959,-713.486
670734.918,4467036.959,-732.409
670734.918,4466836.959,-745.784
670734.918,4466636.959,-770.421
670734.918,4466436.959,-807.967
670734.918,4466236.959,-824.861
670734.918,4466036.959,-899.507
670734.918,4465836.959,-917.626
670734.918,4465636.959,-919.524
670734.918,4465436.959,-922.532
670734.918,4465236.959,-928.615
670734.918,4465036.959,-941.487
670734.918,4464836.959,-944.097
670734.918,4464636.959,-945.912
670734.918,4464436.959,-954.552
670734.918,4464236.959,-955.133
670734.918,4464036.959,-962.161
670734.918,4463836.959,-966.778
670734.918,4463636.959,-961.334
670734.918,4463436.959,-957.656
670734.918,4463236.959,-953.752
670734.918,4463036.959,-951.322
670734.918,4462836.959,-943.239
670734.918,4462636.959,-941.740
670734.918,4462436.959,-962.806
670734.918,4462236.959,-952.499
670734.918,4462036.959,-948.118
670734.918,4461836.959,-946.988
670734.918,4461636.959,-945.466
670734.918,4461436.959,-935.847
670734.918,4461236.959,-934.068
670734.918,4461036.959,-933.837
670734.918,4460836.959,-936.449
670734.918,4460636.959,-936.139
670734.918,4460436.959,-938.473
670734.918,4460236.959,-935.980
670734.918,4460036.959,-937.982
670734.918,4459836.959,-937.690
670734.918,4459636.959,-936.689
670734.918,4459436.959,-933.367
670734.918,4459236.959,-930.347
670734.918,4459036.959,-912.099
670734.918,4458836.959,-897.013
670734.918,4458636.959,-874.833
670734.918,4458436.959,-880.204
670734.918,4458236.959,-901.130
670734.918,4458036.959,-917.306
670734.918,4457836.959,-939.391
670734.918,4457636.959,-949.435
670734.918,4457436.959,-950.852
