655867.251,4450044.571,-118.818
655867.251,4449994.571,-117.797
655867.251,4449944.571,-116.322
655867.251,4449894.571,-115.853
655867.251,4449844.571,-115.580
655867.251,4449794.571,-115.787
655867.251,4449744.571,-116.556
655867.251,4449694.571,-118.407
655867.251,4449644.571,-121.443
655867.251,4449594.571,-124.404
655867.251,4449544.571,-127.014
655867.251,4449494.571,-129.066
655867.251,4449444.571,-130.445
655867.251,4449394.571,-129.338
655867.251,4449344.571,-129.143
655867.251,4449294.571,-129.961
655867.251,4449244.571,-130.521
655867.251,4449194.571,-131.073
655867.251,4449144.571,-132.282
655867.251,4449094.571,-132.872
655867.251,4449044.571,-133.040
655867.251,4448994.571,-134.003
655867.251,4448944.571,-134.379
655867.251,4448894.571,-135.068
655867.251,4448844.571,-136.106
655867.251,4448794.571,-136.888
655867.251,4448744.571,-137.894
655867.251,4448694.571,-139.543
655867.251,4448644.571,-140.901
655867.251,4448594.571,-142.898
655867.251,4448544.571,-145.040
655867.251,4448494.571,-146.872
655867.251,4448444.571,-147.388
655867.251,4448394.571,-148.194
655867.251,4448344.571,-150.120
655867.251,4448294.571,-152.567
655867.251,4448244.571,-154.441
655867.251,4448194.571,-156.926
655867.251,4448144.571,-159.221
655867.251,4448094.571,-161.009
655867.251,4448044.571,-162.160
655867.251,4447994.571,-163.630
655867.251,4447944.571,-166.869
655867.251,4447894.571,-168.275
655867.251,4447844.571,-169.305
655867.251,4447794.571,-169.493
655867.251,4447744.571,-169.841
655867.251,4447694.571,-169.325
655867.251,4447644.571,-168.968
655867.251,4447594.571,-168.319
655867.251,4447544.571,-168.002
655867.251,4447494.571,-166.723
655867.251,4447444.571,-166.845
655867.251,4447394.571,-167.840
655867.251,4447344.571,-168.114
655867.251,4447294.571,-169.263
655867.251,4447244.571,-169.028
655867.251,4447194.571,-166.198
655867.251,4447144.571,-165.904
655867.251,4447094.571,-165.096
655867.251,4447044.571,-165.145
655867.251,4446994.571,-165.328
655867.251,4446944.571,-166.841
655867.251,4446894.571,-166.993
655867.251,4446844.571,-167.171
655867.251,4446794.571,-167.696
655867.251,4446744.571,-169.038
655867.251,4446694.571,-169.679
655867.251,4446644.571,-170.690
655867.251,4446594.571,-172.193
655867.251,4446544.571,-174.166
655867.251,4446494.571,-177.283
655867.251,4446444.571,-179.135
655917.251,4462594.571,-26.377
655917.251,4462544.571,-26.475
655917.251,4462494.571,-27.083
655917.251,4462444.571,-27.764
655917.251,4462394.571,-28.392
655917.251,4462344.571,-29.274
655917.251,4462294.571,-30.496
655917.251,4462244.571,-31.420
655917.251,4462194.571,-31.611
655917.251,4462144.571,-30.853
655917.251,4462094.571,-30.695
655917.251,4462044.571,-31.238
655917.251,4461994.571,-32.437
655917.251,4461944.571,-34.364
655917.251,4461894.571,-35.690
655917.251,4461844.571,-36.103
655917.251,4461794.571,-36.219
655917.251,4461744.571,-36.674
655917.251,4461694.571,-37.476
655917.251,4461644.571,-38.141
655917.251,4461594.571,-38.892
655917.251,4461544.571,-40.791
655917.251,4461494.571,-39.843
655917.251,4461444.571,-41.217
655917.251,4461394.571,-44.272
655917.251,4461344.571,-59.552
655917.251,4461294.571,-46.232
655917.251,4461244.571,-43.046
655917.251,4461194.571,-41.729
655917.251,4461144.571,-41.882
655917.251,4461094.571,-42.166
655917.251,4461044.571,-43.001
655917.251,4460994.571,-43.791
655917.251,4460944.571,-44.476
655917.251,4460894.571,-45.370
655917.251,4460844.571,-45.657
655917.251,4460794.571,-47.228
655917.251,4460744.571,-48.145
655917.251,4460694.571,-49.997
655917.251,4460644.571,-50.496
655917.251,4460594.571,-51.931
655917.251,4460544.571,-55.634
655917.251,4460494.571,-54.865
655917.251,4460444.571,-55.074
655917.251,4460394.571,-56.755
655917.251,4460344.571,-69.858
655917.251,4460294.571,-73.739
655917.251,4460244.571,-59.210
655917.251,4460194.571,-59.586
655917.251,4460144.571,-65.060
655917.251,4460094.571,-71.982
655917.251,4460044.571,-79.346
655917.251,4459994.571,-78.482
655917.251,4459944.571,-62.085
655917.251,4459894.571,-56.474
655917.251,4459844.571,-55.794
655917.251,4459794.571,-56.625
655917.251,4459744.571,-57.365
655917.251,4459694.571,-58.140
655917.251,4459644.571,-59.518
655917.251,4459594.571,-61.116
655917.251,4459544.571,-62.468
655917.251,4459494.571,-64.295
655917.251,4459444.571,-65.729
655917.251,4459394.571,-66.068
655917.251,4459344.571,-68.156
655917.251,4459294.571,-71.005
655917.251,4459244.571,-70.605
655917.251,4459194.571,-71.938
655917.251,4459144.571,-74.082
655917.251,4459094.571,-76.824
655917.251,4459044.571,-82.780
655917.251,4458994.571,-91.411
655917.251,4458944.571,-101.240
655917.251,4458894.571,-111.312
655917.251,4458844.571,-115.420
655917.251,4458794.571,-111.798
655917.251,4458744.571,-106.333
655917.251,4458694.571,-108.121
655917.251,4458644.571,-110.851
655917.251,4458594.571,-110.936
655917.251,4458544.571,-110.149
655917.251,4458494.571,-112.848
655917.251,4458444.571,-123.843
655917.251,4458394.571,-125.544
655917.251,4458344.571,-134.243
655917.251,4458294.571,-146.039
655917.251,4458244.571,-152.830
655917.251,4458194.571,-143.428
655917.251,4458144.571,-144.307
655917.251,4458094.571,-146.921
655917.251,4458044.571,-152.250
655917.251,4457994.571,-153.535
655917.251,4457944.571,-155.187
655917.251,4457894.571,-152.700
655917.251,4457844.571,-148.168
655917.251,4457794.571,-148.718
655917.251,4457744.571,-147.031
655917.251,4457694.571,-141.198
655917.251,4457644.571,-138.530
655917.251,4457594.571,-142.355
655917.251,4457544.571,-129.100
655917.251,4457494.571,-129.522
655917.251,4457444.571,-133.206
655917.251,4457394.571,-130.823
655917.251,4457344.571,-119.259
655917.251,4457294.571,-121.949
655917.251,4457244.571,-127.112
655917.251,4457194.571,-136.741
655917.251,4457144.571,-144.207
655917.251,4457094.571,-150.371
655917.251,4457044.571,-159.292
655917.251,4456994.571,-160.765
655917.251,4456944.571,-165.964
655917.251,4456894.571,-171.957
655917.251,4456844.571,-173.313
655917.251,4456794.571,-179.457
655917.251,4452544.571,-171.922
655917.251,4452494.571,-167.511
655917.251,4452444.571,-162.741
655917.251,4452394.571,-159.557
655917.251,4452344.571,-155.808
655917.251,4452294.571,-147.195
655917.251,4452244.571,-137.397
655917.251,4452194.571,-127.517
655917.251,4452144.571,-119.794
655917.251,4452094.571,-115.403
655917.251,4452044.571,-116.984
655917.251,4451994.571,-117.933
655917.251,4451944.571,-118.752
655917.251,4451894.571,-118.647
655917.251,4451844.571,-118.726
655917.251,4451794.571,-119.964
655917.251,4451744.571,-120.573
655917.251,4451694.571,-121.250
655917.251,4451644.571,-121.108
655917.251,4451594.571,-121.559
655917.251,4451544.571,-121.630
655917.251,4451494.571,-122.082
655917.251,4451444.571,-121.518
655917.251,4451394.571,-122.569
655917.251,4451344.571,-122.810
655917.251,4451294.571,-123.624
655917.251,4451244.571,-123.683
655917.251,4451194.571,-123.301
655917.251,4451144.571,-122.631
655917.251,4451094.571,-123.755
655917.251,4451044.571,-124.002
655917.251,4450994.571,-124.315
655917.251,4450944.571,-124.329
655917.251,4450894.571,-123.434
655917.251,4450844.571,-123.078
655917.251,4450794.571,-121.680
655917.251,4450744.571,-120.077
655917.251,4450694.571,-119.325
655917.251,4450644.571,-118.429
655917.251,4450594.571,-117.526
655917.251,4450544.571,-117.658
655917.251,4450494.571,-116.948
655917.251,4450444.571,-117.364
655917.251,4450394.571,-118.468
655917.251,4450344.571,-118.661
655917.251,4450294.571,-119.087
655917.251,4450244.571,-119.057
655917.251,4450194.571,-118.885
655917.251,4450144.571,-118.612
655917.251,4450094.571,-117.470
655917.251,4450044.571,-116.617
655917.251,4449994.571,-115.274
655917.251,4449944.571,-114.409
655917.251,4449894.571,-114.574
655917.251,4449844.571,-114.939
655917.251,4449794.571,-116.655
655917.251,4449744.571,-118.831
655917.251,4449694.571,-121.241
655917.251,4449644.571,-123.827
655917.251,4449594.571,-125.829
655917.251,4449544.571,-126.144
655917.251,4449494.571,-127.312
655917.251,4449444.571,-127.802
655917.251,4449394.571,-127.410
655917.251,4449344.571,-127.932
655917.251,4449294.571,-129.059
655917.251,4449244.571,-129.992
655917.251,4449194.571,-130.894
655917.251,4449144.571,-131.847
655917.251,4449094.571,-131.931
655917.251,4449044.571,-132.000
655917.251,4448994.571,-133.598
655917.251,4448944.571,-134.292
655917.251,4448894.571,-135.065
655917.251,4448844.571,-136.515
655917.251,4448794.571,-137.495
655917.251,4448744.571,-138.776
655917.251,4448694.571,-140.667
655917.251,4448644.571,-142.255
655917.251,4448594.571,-144.379
655917.251,4448544.571,-147.011
655917.251,4448494.571,-149.285
655917.251,4448444.571,-150.814
655917.251,4448394.571,-151.138
655917.251,4448344.571,-152.643
655917.251,4448294.571,-154.130
655917.251,4448244.571,-156.395
655917.251,4448194.571,-159.449
655917.251,4448144.571,-161.905
655917.251,4448094.571,-164.040
655917.251,4448044.571,-165.934
655917.251,4447994.571,-167.550
655917.251,4447944.571,-170.137
655917.251,4447894.571,-171.040
655917.251,4447844.571,-173.080
655917.251,4447794.571,-172.345
655917.251,4447744.571,-172.335
655917.251,4447694.571,-173.030
655917.251,4447644.571,-172.498
655917.251,4447594.571,-172.294
655917.251,4447544.571,-172.512
655917.251,4447494.571,-171.322
655917.251,4447444.571,-171.130
655917.251,4447394.571,-172.013
655917.251,4447344.571,-172.095
655917.251,4447294.571,-172.334
655917.251,4447244.571,-171.500
655917.251,4447194.571,-169.415
655917.251,4447144.571,-168.488
655917.251,4447094.571,-168.125
655917.251,4447044.571,-168.770
655917.251,4446994.571,-169.081
655917.251,4446944.571,-168.983
655917.251,4446894.571,-169.105
655917.251,4446844.571,-169.354
655917.251,4446794.571,-170.721
655917.251,4446744.571,-171.344
655917.251,4446694.571,-172.626
655917.251,4446644.571,-173.853
655917.251,4446594.571,-177.260
655917.251,4446544.571,-178.301
655917.251,4446494.571,-179.287
655967.251,4462644.571,-26.475
655967.251,4462594.571,-27.007
655967.251,4462544.571,-27.695
655967.251,4462494.571,-28.115
655967.251,4462444.571,-28.955
655967.251,4462394.571,-29.674
655967.251,4462344.571,-30.578
655967.251,4462294.571,-31.430
655967.251,4462244.571,-32.470
655967.251,4462194.571,-33.185
655967.251,4462144.571,-32.390
655967.251,4462094.571,-32.204
655967.251,4462044.571,-32.900
655967.251,4461994.571,-33.845
655967.251,4461944.571,-35.202
655967.251,4461894.571,-36.778
655967.251,4461844.571,-37.628
655967.251,4461794.571,-38.288
655967.251,4461744.571,-38.587
655967.251,4461694.571,-39.484
655967.251,4461644.571,-40.365
655967.251,4461594.571,-41.172
655967.251,4461544.571,-41.843
655967.251,4461494.571,-41.969
655967.251,4461444.571,-42.534
655967.251,4461394.571,-45.609
655967.251,4461344.571,-63.770
655967.251,4461294.571,-48.000
655967.251,4461244.571,-44.373
655967.251,4461194.571,-43.270
655967.251,4461144.571,-43.287
655967.251,4461094.571,-43.901
655967.251,4461044.571,-44.359
655967.251,4460994.571,-45.149
655967.251,4460944.571,-46.042
655967.251,4460894.571,-46.725
655967.251,4460844.571,-47.484
655967.251,4460794.571,-48.315
655967.251,4460744.571,-49.590
655967.251,4460694.571,-51.209
655967.251,4460644.571,-55.291
655967.251,4460594.571,-55.361
655967.251,4460544.571,-55.950
655967.251,4460494.571,-60.892
655967.251,4460444.571,-57.577
655967.251,4460394.571,-59.056
655967.251,4460344.571,-62.681
655967.251,4460294.571,-84.358
655967.251,4460244.571,-69.353
655967.251,4460194.571,-67.128
655967.251,4460144.571,-76.101
655967.251,4460094.571,-85.643
655967.251,4460044.571,-79.843
655967.251,4459994.571,-70.122
655967.251,4459944.571,-61.893
655967.251,4459894.571,-57.945
655967.251,4459844.571,-58.019
655967.251,4459794.571,-58.464
655967.251,4459744.571,-58.950
655967.251,4459694.571,-59.989
655967.251,4459644.571,-61.456
655967.251,4459594.571,-63.422
655967.251,4459544.571,-65.371
655967.251,4459494.571,-66.695
655967.251,4459444.571,-68.683
655967.251,4459394.571,-69.661
655967.251,4459344.571,-75.445
655967.251,4459294.571,-72.060
655967.251,4459244.571,-74.561
655967.251,4459194.571,-75.131
655967.251,4459144.571,-76.265
655967.251,4459094.571,-78.525
655967.251,4459044.571,-82.463
655967.251,4458994.571,-88.129
655967.251,4458944.571,-95.352
655967.251,4458894.571,-104.194
655967.251,4458844.571,-113.239
655967.251,4458794.571,-114.111
655967.251,4458744.571,-121.454
655967.251,4458694.571,-116.913
655967.251,4458644.571,-119.157
655967.251,4458594.571,-120.207
655967.251,4458544.571,-118.458
655967.251,4458494.571,-120.365
655967.251,4458444.571,-131.095
655967.251,4458394.571,-137.628
655967.251,4458344.571,-142.591
655967.251,4458294.571,-147.048
655967.251,4458244.571,-154.893
655967.251,4458194.571,-152.883
655967.251,4458144.571,-149.933
655967.251,4458094.571,-156.349
655967.251,4458044.571,-161.630
655967.251,4457994.571,-162.851
655967.251,4457944.571,-161.907
655967.251,4457894.571,-155.109
655967.251,4457844.571,-155.355
655967.251,4457794.571,-153.834
655967.251,4457744.571,-149.433
655967.251,4457694.571,-149.519
655967.251,4457644.571,-148.136
655967.251,4457594.571,-147.738
655967.251,4457544.571,-142.824
655967.251,4457494.571,-139.776
655967.251,4457444.571,-143.105
655967.251,4457394.571,-143.339
655967.251,4457344.571,-133.826
655967.251,4457294.571,-135.371
655967.251,4457244.571,-128.565
655967.251,4457194.571,-135.593
655967.251,4457144.571,-142.384
655967.251,4457094.571,-148.922
655967.251,4457044.571,-157.199
655967.251,4456994.571,-163.102
655967.251,4456944.571,-169.969
655967.251,4456894.571,-176.736
655967.251,4456844.571,-178.379
655967.251,4456794.571,-179.136
655967.251,4452494.571,-174.019
655967.251,4452444.571,-170.373
655967.251,4452394.571,-164.785
655967.251,4452344.571,-158.954
655967.251,4452294.571,-149.652
655967.251,4452244.571,-139.410
655967.251,4452194.571,-129.770
655967.251,4452144.571,-120.909
655967.251,4452094.571,-116.910
655967.251,4452044.571,-119.340
655967.251,4451994.571,-121.734
655967.251,4451944.571,-122.807
655967.251,4451894.571,-122.101
655967.251,4451844.571,-121.432
655967.251,4451794.571,-121.412
655967.251,4451744.571,-122.180
655967.251,4451694.571,-123.364
655967.251,4451644.571,-123.835
655967.251,4451594.571,-123.572
655967.251,4451544.571,-123.819
655967.251,4451494.571,-123.684
655967.251,4451444.571,-123.858
655967.251,4451394.571,-124.910
655967.251,4451344.571,-125.249
655967.251,4451294.571,-125.549
655967.251,4451244.571,-125.874
655967.251,4451194.571,-127.283
655967.251,4451144.571,-126.476
655967.251,4451094.571,-127.004
655967.251,4451044.571,-126.447
655967.251,4450994.571,-125.915
655967.251,4450944.571,-125.260
655967.251,4450894.571,-125.063
655967.251,4450844.571,-124.933
655967.251,4450794.571,-123.327
655967.251,4450744.571,-121.760
655967.251,4450694.571,-120.821
655967.251,4450644.571,-120.175
655967.251,4450594.571,-119.543
655967.251,4450544.571,-119.982
655967.251,4450494.571,-118.963
655967.251,4450444.571,-118.359
655967.251,4450394.571,-118.562
655967.251,4450344.571,-118.008
655967.251,4450294.571,-118.134
655967.251,4450244.571,-117.811
655967.251,4450194.571,-117.309
655967.251,4450144.571,-116.567
655967.251,4450094.571,-115.615
655967.251,4450044.571,-115.970
655967.251,4449994.571,-116.154
655967.251,4449944.571,-116.851
655967.251,4449894.571,-118.069
655967.251,4449844.571,-119.549
655967.251,4449794.571,-120.920
655967.251,4449744.571,-122.784
655967.251,4449694.571,-124.553
655967.251,4449644.571,-126.335
655967.251,4449594.571,-128.097
655967.251,4449544.571,-129.093
655967.251,4449494.571,-128.827
655967.251,4449444.571,-128.203
655967.251,4449394.571,-128.922
655967.251,4449344.571,-129.312
655967.251,4449294.571,-128.613
655967.251,4449244.571,-129.551
655967.251,4449194.571,-130.106
655967.251,4449144.571,-130.667
655967.251,4449094.571,-130.969
655967.251,4449044.571,-131.250
655967.251,4448994.571,-132.289
655967.251,4448944.571,-134.158
655967.251,4448894.571,-135.030
655967.251,4448844.571,-136.003
655967.251,4448794.571,-138.406
655967.251,4448744.571,-139.437
655967.251,4448694.571,-141.304
655967.251,4448644.571,-142.751
655967.251,4448594.571,-146.779
655967.251,4448544.571,-147.944
655967.251,4448494.571,-151.028
655967.251,4448444.571,-153.616
655967.251,4448394.571,-154.071
655967.251,4448344.571,-154.696
655967.251,4448294.571,-155.756
655967.251,4448244.571,-157.461
655967.251,4448194.571,-160.781
655967.251,4448144.571,-164.006
655967.251,4448094.571,-167.004
655967.251,4448044.571,-168.876
655967.251,4447994.571,-171.142
655967.251,4447944.571,-173.540
655967.251,4447894.571,-173.079
655967.251,4447844.571,-174.811
655967.251,4447794.571,-175.506
655967.251,4447744.571,-174.420
655967.251,4447694.571,-175.969
655967.251,4447644.571,-175.845
655967.251,4447594.571,-175.338
655967.251,4447544.571,-176.268
655967.251,4447494.571,-175.270
655967.251,4447444.571,-175.264
655967.251,4447394.571,-176.229
655967.251,4447344.571,-175.303
655967.251,4447294.571,-176.070
655967.251,4447244.571,-176.418
655967.251,4447194.571,-172.233
655967.251,4447144.571,-172.361
655967.251,4447094.571,-170.549
655967.251,4447044.571,-170.715
655967.251,4446994.571,-170.756
655967.251,4446944.571,-171.117
655967.251,4446894.571,-170.921
655967.251,4446844.571,-171.552
655967.251,4446794.571,-172.767
655967.251,4446744.571,-174.526
655967.251,4446694.571,-177.038
655967.251,4446644.571,-178.858
655967.251,4446594.571,-179.731
656017.251,4462744.571,-26.442
656017.251,4462694.571,-27.125
656017.251,4462644.571,-27.794
656017.251,4462594.571,-28.208
656017.251,4462544.571,-28.868
656017.251,4462494.571,-29.475
656017.251,4462444.571,-30.369
656017.251,4462394.571,-30.815
656017.251,4462344.571,-31.611
656017.251,4462294.571,-32.718
656017.251,4462244.571,-34.208
656017.251,4462194.571,-34.833
656017.251,4462144.571,-33.564
656017.251,4462094.571,-33.425
656017.251,4462044.571,-34.194
656017.251,4461994.571,-35.334
656017.251,4461944.571,-36.737
656017.251,4461894.571,-38.238
656017.251,4461844.571,-38.888
656017.251,4461794.571,-40.278
656017.251,4461744.571,-40.675
656017.251,4461694.571,-40.868
656017.251,4461644.571,-41.922
656017.251,4461594.571,-42.898
656017.251,4461544.571,-43.884
656017.251,4461494.571,-46.785
656017.251,4461444.571,-45.331
656017.251,4461394.571,-47.299
656017.251,4461344.571,-64.615
656017.251,4461294.571,-53.446
656017.251,4461244.571,-45.992
656017.251,4461194.571,-44.853
656017.251,4461144.571,-45.040
656017.251,4461094.571,-45.819
656017.251,4461044.571,-46.520
656017.251,4460994.571,-47.046
656017.251,4460944.571,-47.163
656017.251,4460894.571,-47.878
656017.251,4460844.571,-48.691
656017.251,4460794.571,-49.859
656017.251,4460744.571,-51.404
656017.251,4460694.571,-53.098
656017.251,4460644.571,-54.655
656017.251,4460594.571,-56.726
656017.251,4460544.571,-58.941
656017.251,4460494.571,-59.672
656017.251,4460444.571,-66.950
656017.251,4460394.571,-63.230
656017.251,4460344.571,-65.338
656017.251,4460294.571,-79.091
656017.251,4460244.571,-82.464
656017.251,4460194.571,-72.864
656017.251,4460144.571,-84.326
656017.251,4460094.571,-89.108
656017.251,4460044.571,-78.016
656017.251,4459994.571,-68.665
656017.251,4459944.571,-62.774
656017.251,4459894.571,-61.103
656017.251,4459844.571,-60.315
656017.251,4459794.571,-60.476
656017.251,4459744.571,-60.855
656017.251,4459694.571,-61.973
656017.251,4459644.571,-63.654
656017.251,4459594.571,-65.570
656017.251,4459544.571,-67.621
656017.251,4459494.571,-69.331
656017.251,4459444.571,-70.110
656017.251,4459394.571,-72.800
656017.251,4459344.571,-73.290
656017.251,4459294.571,-75.021
656017.251,4459244.571,-77.982
656017.251,4459194.571,-78.012
656017.251,4459144.571,-79.559
656017.251,4459094.571,-81.980
656017.251,4459044.571,-85.082
656017.251,4458994.571,-88.066
656017.251,4458944.571,-92.746
656017.251,4458894.571,-95.928
656017.251,4458844.571,-103.488
656017.251,4458794.571,-114.455
656017.251,4458744.571,-124.978
656017.251,4458694.571,-127.869
656017.251,4458644.571,-126.818
656017.251,4458594.571,-127.651
656017.251,4458544.571,-131.892
656017.251,4458494.571,-127.123
656017.251,4458444.571,-129.565
656017.251,4458394.571,-141.071
656017.251,4458344.571,-147.467
656017.251,4458294.571,-152.806
656017.251,4458244.571,-160.954
656017.251,4458194.571,-156.482
656017.251,4458144.571,-163.228
656017.251,4458094.571,-165.502
656017.251,4458044.571,-169.587
656017.251,4457994.571,-170.677
656017.251,4457944.571,-166.433
656017.251,4457894.571,-162.821
656017.251,4457844.571,-158.869
656017.251,4457794.571,-158.954
656017.251,4457744.571,-154.110
656017.251,4457694.571,-158.099
656017.251,4457644.571,-165.145
656017.251,4457594.571,-155.459
656017.251,4457544.571,-153.250
656017.251,4457494.571,-153.722
656017.251,4457444.571,-157.749
656017.251,4457394.571,-154.899
656017.251,4457344.571,-146.757
656017.251,4457294.571,-145.397
656017.251,4457244.571,-133.566
656017.251,4457194.571,-137.587
656017.251,4457144.571,-145.334
656017.251,4457094.571,-150.159
656017.251,4457044.571,-156.227
656017.251,4456994.571,-161.193
656017.251,4456944.571,-166.938
656017.251,4456894.571,-173.826
656017.251,4456844.571,-179.343
656017.251,4456794.571,-178.815
656017.251,4452494.571,-178.282
656017.251,4452444.571,-172.861
656017.251,4452394.571,-168.068
656017.251,4452344.571,-162.432
656017.251,4452294.571,-155.631
656017.251,4452244.571,-143.148
656017.251,4452194.571,-129.140
656017.251,4452144.571,-116.185
656017.251,4452094.571,-119.136
656017.251,4452044.571,-123.367
656017.251,4451994.571,-124.087
656017.251,4451944.571,-125.488
656017.251,4451894.571,-124.557
656017.251,4451844.571,-123.498
656017.251,4451794.571,-123.274
656017.251,4451744.571,-123.005
656017.251,4451694.571,-123.818
656017.251,4451644.571,-125.168
656017.251,4451594.571,-126.744
656017.251,4451544.571,-127.330
656017.251,4451494.571,-127.167
656017.251,4451444.571,-126.763
656017.251,4451394.571,-127.216
656017.251,4451344.571,-127.363
656017.251,4451294.571,-127.869
656017.251,4451244.571,-127.955
656017.251,4451194.571,-129.194
656017.251,4451144.571,-129.444
656017.251,4451094.571,-128.826
656017.251,4451044.571,-129.078
656017.251,4450994.571,-127.870
656017.251,4450944.571,-127.080
656017.251,4450894.571,-126.023
656017.251,4450844.571,-124.976
656017.251,4450794.571,-122.391
656017.251,4450744.571,-122.801
656017.251,4450694.571,-121.928
656017.251,4450644.571,-120.866
656017.251,4450594.571,-120.268
656017.251,4450544.571,-119.902
656017.251,4450494.571,-117.967
656017.251,4450444.571,-118.966
656017.251,4450394.571,-120.422
656017.251,4450344.571,-121.799
656017.251,4450294.571,-121.661
656017.251,4450244.571,-120.418
656017.251,4450194.571,-119.978
656017.251,4450144.571,-119.162
656017.251,4450094.571,-119.208
656017.251,4450044.571,-119.511
656017.251,4449994.571,-120.255
656017.251,4449944.571,-121.292
656017.251,4449894.571,-123.107
656017.251,4449844.571,-124.563
656017.251,4449794.571,-126.158
656017.251,4449744.571,-127.340
656017.251,4449694.571,-128.679
656017.251,4449644.571,-129.803
656017.251,4449594.571,-130.516
656017.251,4449544.571,-130.818
656017.251,4449494.571,-130.794
656017.251,4449444.571,-130.757
656017.251,4449394.571,-130.886
656017.251,4449344.571,-131.329
656017.251,4449294.571,-130.584
656017.251,4449244.571,-131.485
656017.251,4449194.571,-131.538
656017.251,4449144.571,-132.503
656017.251,4449094.571,-132.540
656017.251,4449044.571,-134.142
656017.251,4448994.571,-133.898
656017.251,4448944.571,-136.568
656017.251,4448894.571,-137.579
656017.251,4448844.571,-138.454
656017.251,4448794.571,-140.450
656017.251,4448744.571,-141.232
656017.251,4448694.571,-142.869
656017.251,4448644.571,-143.521
656017.251,4448594.571,-145.279
656017.251,4448544.571,-147.408
656017.251,4448494.571,-149.539
656017.251,4448444.571,-152.102
656017.251,4448394.571,-155.519
656017.251,4448344.571,-157.198
656017.251,4448294.571,-157.848
656017.251,4448244.571,-158.172
656017.251,4448194.571,-160.670
656017.251,4448144.571,-162.587
656017.251,4448094.571,-166.884
656017.251,4448044.571,-169.449
656017.251,4447994.571,-172.924
656017.251,4447944.571,-175.172
656017.251,4447894.571,-174.938
656017.251,4447844.571,-175.138
656017.251,4447794.571,-175.951
656017.251,4447744.571,-176.631
656017.251,4447694.571,-177.004
656017.251,4447644.571,-177.326
656017.251,4447594.571,-178.036
656017.251,4447544.571,-178.592
656017.251,4447494.571,-178.018
656017.251,4447444.571,-178.138
656017.251,4447394.571,-177.256
656017.251,4447344.571,-178.465
656017.251,4447294.571,-177.266
656017.251,4447244.571,-179.002
656017.251,4447194.571,-176.707
656017.251,4447144.571,-174.274
656017.251,4447094.571,-173.563
656017.251,4447044.571,-172.622
656017.251,4446994.571,-173.219
656017.251,4446944.571,-173.062
656017.251,4446894.571,-173.422
656017.251,4446844.571,-174.164
656017.251,4446794.571,-176.524
656017.251,4446744.571,-178.465
656067.251,4462844.571,-26.094
656067.251,4462794.571,-26.699
656067.251,4462744.571,-27.584
656067.251,4462694.571,-28.144
656067.251,4462644.571,-29.020
656067.251,4462594.571,-29.648
656067.251,4462544.571,-30.481
656067.251,4462494.571,-30.765
656067.251,4462444.571,-31.481
656067.251,4462394.571,-32.453
656067.251,4462344.571,-33.314
656067.251,4462294.571,-34.419
656067.251,4462244.571,-35.249
656067.251,4462194.571,-36.724
656067.251,4462144.571,-35.489
656067.251,4462094.571,-35.408
656067.251,4462044.571,-35.701
656067.251,4461994.571,-36.529
656067.251,4461944.571,-37.498
656067.251,4461894.571,-39.918
656067.251,4461844.571,-41.335
656067.251,4461794.571,-41.920
656067.251,4461744.571,-44.472
656067.251,4461694.571,-43.441
656067.251,4461644.571,-44.040
656067.251,4461594.571,-45.515
656067.251,4461544.571,-47.678
656067.251,4461494.571,-50.795
656067.251,4461444.571,-47.171
656067.251,4461394.571,-48.073
656067.251,4461344.571,-62.818
656067.251,4461294.571,-58.795
656067.251,4461244.571,-48.523
656067.251,4461194.571,-47.645
656067.251,4461144.571,-47.379
656067.251,4461094.571,-47.756
656067.251,4461044.571,-48.330
656067.251,4460994.571,-49.012
656067.251,4460944.571,-50.021
656067.251,4460894.571,-50.032
656067.251,4460844.571,-50.681
656067.251,4460794.571,-51.886
656067.251,4460744.571,-52.993
656067.251,4460694.571,-54.560
656067.251,4460644.571,-56.482
656067.251,4460594.571,-59.827
656067.251,4460544.571,-60.527
656067.251,4460494.571,-62.605
656067.251,4460444.571,-63.492
656067.251,4460394.571,-67.781
656067.251,4460344.571,-66.943
656067.251,4460294.571,-75.658
656067.251,4460244.571,-91.966
656067.251,4460194.571,-83.569
656067.251,4460144.571,-96.542
656067.251,4460094.571,-86.688
656067.251,4460044.571,-75.924
656067.251,4459994.571,-71.350
656067.251,4459944.571,-69.588
656067.251,4459894.571,-66.567
656067.251,4459844.571,-64.039
656067.251,4459794.571,-62.763
656067.251,4459744.571,-62.773
656067.251,4459694.571,-63.915
656067.251,4459644.571,-65.158
656067.251,4459594.571,-67.380
656067.251,4459544.571,-70.216
656067.251,4459494.571,-71.830
656067.251,4459444.571,-72.322
656067.251,4459394.571,-76.947
656067.251,4459344.571,-76.037
656067.251,4459294.571,-82.732
656067.251,4459244.571,-79.259
656067.251,4459194.571,-82.456
656067.251,4459144.571,-83.591
656067.251,4459094.571,-86.430
656067.251,4459044.571,-88.539
656067.251,4458994.571,-89.723
656067.251,4458944.571,-91.940
656067.251,4458894.571,-94.649
656067.251,4458844.571,-101.082
656067.251,4458794.571,-109.048
656067.251,4458744.571,-117.631
656067.251,4458694.571,-129.346
656067.251,4458644.571,-133.510
656067.251,4458594.571,-134.861
656067.251,4458544.571,-137.821
656067.251,4458494.571,-137.120
656067.251,4458444.571,-131.053
656067.251,4458394.571,-139.286
656067.251,4458344.571,-147.699
656067.251,4458294.571,-156.788
656067.251,4458244.571,-167.615
656067.251,4458194.571,-168.581
656067.251,4458144.571,-168.694
656067.251,4458094.571,-172.483
656067.251,4458044.571,-175.705
656067.251,4457994.571,-177.398
656067.251,4457944.571,-171.498
656067.251,4457894.571,-164.649
656067.251,4457844.571,-163.880
656067.251,4457794.571,-165.309
656067.251,4457744.571,-160.756
656067.251,4457694.571,-165.718
656067.251,4457644.571,-177.908
656067.251,4457594.571,-162.021
656067.251,4457544.571,-168.125
656067.251,4457494.571,-168.058
656067.251,4457444.571,-167.528
656067.251,4457394.571,-160.883
656067.251,4457344.571,-157.248
656067.251,4457294.571,-150.276
656067.251,4457244.571,-139.502
656067.251,4457194.571,-136.203
656067.251,4457144.571,-146.472
656067.251,4457094.571,-152.454
656067.251,4457044.571,-156.892
656067.251,4456994.571,-160.866
656067.251,4456944.571,-166.725
656067.251,4456894.571,-175.027
656067.251,4456844.571,-179.310
656067.251,4456794.571,-178.494
656067.251,4452444.571,-176.037
656067.251,4452394.571,-171.818
656067.251,4452344.571,-164.084
656067.251,4452294.571,-152.258
656067.251,4452244.571,-141.414
656067.251,4452194.571,-129.730
656067.251,4452144.571,-125.251
656067.251,4452094.571,-123.483
656067.251,4452044.571,-124.806
656067.251,4451994.571,-129.128
656067.251,4451944.571,-128.708
656067.251,4451894.571,-126.402
656067.251,4451844.571,-125.161
656067.251,4451794.571,-124.880
656067.251,4451744.571,-124.472
656067.251,4451694.571,-125.768
656067.251,4451644.571,-127.460
656067.251,4451594.571,-129.096
656067.251,4451544.571,-130.469
656067.251,4451494.571,-131.276
656067.251,4451444.571,-131.643
656067.251,4451394.571,-131.142
656067.251,4451344.571,-130.571
656067.251,4451294.571,-130.499
656067.251,4451244.571,-130.165
656067.251,4451194.571,-131.905
656067.251,4451144.571,-131.645
656067.251,4451094.571,-131.666
656067.251,4451044.571,-131.933
656067.251,4450994.571,-130.398
656067.251,4450944.571,-130.397
656067.251,4450894.571,-129.974
656067.251,4450844.571,-127.825
656067.251,4450794.571,-126.902
656067.251,4450744.571,-125.804
656067.251,4450694.571,-124.875
656067.251,4450644.571,-124.140
656067.251,4450594.571,-123.347
656067.251,4450544.571,-122.056
656067.251,4450494.571,-123.387
656067.251,4450444.571,-122.399
656067.251,4450394.571,-120.899
656067.251,4450344.571,-121.435
656067.251,4450294.571,-120.979
656067.251,4450244.571,-119.809
656067.251,4450194.571,-119.363
656067.251,4450144.571,-120.751
656067.251,4450094.571,-122.666
656067.251,4450044.571,-124.258
656067.251,4449994.571,-125.695
656067.251,4449944.571,-127.123
656067.251,4449894.571,-128.463
656067.251,4449844.571,-129.514
656067.251,4449794.571,-129.939
656067.251,4449744.571,-130.696
656067.251,4449694.571,-131.431
656067.251,4449644.571,-131.908
656067.251,4449594.571,-132.377
656067.251,4449544.571,-133.389
656067.251,4449494.571,-133.152
656067.251,4449444.571,-132.688
656067.251,4449394.571,-133.067
656067.251,4449344.571,-133.391
656067.251,4449294.571,-133.006
656067.251,4449244.571,-133.830
656067.251,4449194.571,-134.456
656067.251,4449144.571,-134.984
656067.251,4449094.571,-135.744
656067.251,4449044.571,-136.864
656067.251,4448994.571,-137.367
656067.251,4448944.571,-139.421
656067.251,4448894.571,-140.162
656067.251,4448844.571,-140.982
656067.251,4448794.571,-142.504
656067.251,4448744.571,-142.848
656067.251,4448694.571,-144.228
656067.251,4448644.571,-145.206
656067.251,4448594.571,-146.545
656067.251,4448544.571,-147.821
656067.251,4448494.571,-149.768
656067.251,4448444.571,-152.456
656067.251,4448394.571,-155.344
656067.251,4448344.571,-158.990
656067.251,4448294.571,-160.667
656067.251,4448244.571,-160.139
656067.251,4448194.571,-161.298
656067.251,4448144.571,-162.664
656067.251,4448094.571,-166.128
656067.251,4448044.571,-168.963
656067.251,4447994.571,-172.459
656067.251,4447944.571,-175.688
656067.251,4447894.571,-176.936
656067.251,4447844.571,-177.377
656067.251,4447794.571,-178.058
656067.251,4447744.571,-179.767
656067.251,4447694.571,-179.740
656067.251,4447644.571,-179.713
656067.251,4447594.571,-179.686
656067.251,4447544.571,-179.659
656067.251,4447494.571,-179.632
656067.251,4447444.571,-179.600
656067.251,4447394.571,-179.567
656067.251,4447344.571,-179.535
656067.251,4447294.571,-179.502
656067.251,4447244.571,-179.470
656067.251,4447194.571,-179.438
656067.251,4447144.571,-177.453
656067.251,4447094.571,-176.230
656067.251,4447044.571,-174.936
656067.251,4446994.571,-175.647
656067.251,4446944.571,-175.894
656067.251,4446894.571,-177.243
656067.251,4446844.571,-178.541
656067.251,4446794.571,-179.668
656117.251,4463044.571,-26.241
656117.251,4462994.571,-26.230
656117.251,4462944.571,-26.274
656117.251,4462894.571,-26.526
656117.251,4462844.571,-27.239
656117.251,4462794.571,-27.874
656117.251,4462744.571,-28.579
656117.251,4462694.571,-29.481
656117.251,4462644.571,-30.318
656117.251,4462594.571,-31.058
656117.251,4462544.571,-31.525
656117.251,4462494.571,-32.522
656117.251,4462444.571,-33.202
656117.251,4462394.571,-34.403
656117.251,4462344.571,-34.721
656117.251,4462294.571,-35.684
656117.251,4462244.571,-37.729
656117.251,4462194.571,-38.990
656117.251,4462144.571,-37.595
656117.251,4462094.571,-37.027
656117.251,4462044.571,-37.518
656117.251,4461994.571,-38.128
656117.251,4461944.571,-39.766
656117.251,4461894.571,-42.169
656117.251,4461844.571,-43.935
656117.251,4461794.571,-44.513
656117.251,4461744.571,-44.931
656117.251,4461694.571,-49.445
656117.251,4461644.571,-46.865
656117.251,4461594.571,-48.643
656117.251,4461544.571,-50.600
656117.251,4461494.571,-53.639
656117.251,4461444.571,-49.219
656117.251,4461394.571,-49.610
656117.251,4461344.571,-62.499
656117.251,4461294.571,-64.588
656117.251,4461244.571,-51.891
656117.251,4461194.571,-49.941
656117.251,4461144.571,-49.596
656117.251,4461094.571,-50.238
656117.251,4461044.571,-51.049
656117.251,4460994.571,-52.355
656117.251,4460944.571,-52.134
656117.251,4460894.571,-52.128
656117.251,4460844.571,-52.318
656117.251,4460794.571,-53.102
656117.251,4460744.571,-54.604
656117.251,4460694.571,-55.981
656117.251,4460644.571,-57.597
656117.251,4460594.571,-59.574
656117.251,4460544.571,-62.877
656117.251,4460494.571,-64.912
656117.251,4460444.571,-66.188
656117.251,4460394.571,-67.841
656117.251,4460344.571,-79.619
656117.251,4460294.571,-71.254
656117.251,4460244.571,-92.716
656117.251,4460194.571,-97.491
656117.251,4460144.571,-92.405
656117.251,4460094.571,-89.095
656117.251,4460044.571,-84.957
656117.251,4459994.571,-81.740
656117.251,4459944.571,-76.955
656117.251,4459894.571,-70.668
656117.251,4459844.571,-66.443
656117.251,4459794.571,-66.955
656117.251,4459744.571,-65.373
656117.251,4459694.571,-66.916
656117.251,4459644.571,-67.425
656117.251,4459594.571,-69.190
656117.251,4459544.571,-71.484
656117.251,4459494.571,-73.327
656117.251,4459444.571,-76.209
656117.251,4459394.571,-77.173
656117.251,4459344.571,-79.651
656117.251,4459294.571,-81.750
656117.251,4459244.571,-83.547
656117.251,4459194.571,-86.939
656117.251,4459144.571,-85.652
656117.251,4459094.571,-87.415
656117.251,4459044.571,-89.795
656117.251,4458994.571,-93.364
656117.251,4458944.571,-95.851
656117.251,4458894.571,-99.633
656117.251,4458844.571,-103.577
656117.251,4458794.571,-108.823
656117.251,4458744.571,-114.329
656117.251,4458694.571,-124.109
656117.251,4458644.571,-134.547
656117.251,4458594.571,-140.137
656117.251,4458544.571,-143.086
656117.251,4458494.571,-143.295
656117.251,4458444.571,-138.767
656117.251,4458394.571,-139.049
656117.251,4458344.571,-151.004
656117.251,4458294.571,-157.670
656117.251,4458244.571,-175.297
656117.251,4458194.571,-175.228
656117.251,4458144.571,-175.158
656117.251,4458094.571,-179.036
656117.251,4458044.571,-179.586
656117.251,4457994.571,-176.513
656117.251,4457944.571,-173.441
656117.251,4457894.571,-169.589
656117.251,4457844.571,-168.808
656117.251,4457794.571,-172.614
656117.251,4457744.571,-170.806
656117.251,4457694.571,-174.510
656117.251,4457644.571,-176.784
656117.251,4457594.571,-179.058
656117.251,4457544.571,-177.905
656117.251,4457494.571,-179.116
656117.251,4457444.571,-175.519
656117.251,4457394.571,-163.852
656117.251,4457344.571,-156.349
656117.251,4457294.571,-154.065
656117.251,4457244.571,-147.557
656117.251,4457194.571,-137.166
656117.251,4457144.571,-145.438
656117.251,4457094.571,-152.025
656117.251,4457044.571,-155.917
656117.251,4456994.571,-159.130
656117.251,4456944.571,-164.598
656117.251,4456894.571,-172.388
656117.251,4456844.571,-179.277
656117.251,4456794.571,-178.173
656117.251,4452444.571,-177.480
656117.251,4452394.571,-167.561
656117.251,4452344.571,-167.534
656117.251,4452294.571,-157.324
656117.251,4452244.571,-153.424
656117.251,4452194.571,-128.307
656117.251,4452144.571,-114.143
656117.251,4452094.571,-132.660
656117.251,4452044.571,-135.558
656117.251,4451994.571,-126.646
656117.251,4451944.571,-127.123
656117.251,4451894.571,-127.417
656117.251,4451844.571,-125.383
656117.251,4451794.571,-127.160
656117.251,4451744.571,-127.169
656117.251,4451694.571,-128.362
656117.251,4451644.571,-130.031
656117.251,4451594.571,-132.285
656117.251,4451544.571,-133.810
656117.251,4451494.571,-134.356
656117.251,4451444.571,-134.478
656117.251,4451394.571,-135.344
656117.251,4451344.571,-135.708
656117.251,4451294.571,-136.161
656117.251,4451244.571,-132.952
656117.251,4451194.571,-135.708
656117.251,4451144.571,-135.281
656117.251,4451094.571,-135.690
656117.251,4451044.571,-135.937
656117.251,4450994.571,-134.543
656117.251,4450944.571,-135.125
656117.251,4450894.571,-134.190
656117.251,4450844.571,-132.312
656117.251,4450794.571,-131.039
656117.251,4450744.571,-129.996
656117.251,4450694.571,-128.092
656117.251,4450644.571,-127.388
656117.251,4450594.571,-127.003
656117.251,4450544.571,-126.648
656117.251,4450494.571,-125.832
656117.251,4450444.571,-125.270
656117.251,4450394.571,-124.530
656117.251,4450344.571,-123.623
656117.251,4450294.571,-122.443
656117.251,4450244.571,-123.589
656117.251,4450194.571,-122.723
656117.251,4450144.571,-126.177
656117.251,4450094.571,-127.969
656117.251,4450044.571,-129.157
656117.251,4449994.571,-129.948
656117.251,4449944.571,-131.032
656117.251,4449894.571,-131.578
656117.251,4449844.571,-131.826
656117.251,4449794.571,-131.913
656117.251,4449744.571,-132.126
656117.251,4449694.571,-132.578
656117.251,4449644.571,-132.747
656117.251,4449594.571,-133.048
656117.251,4449544.571,-133.446
656117.251,4449494.571,-134.282
656117.251,4449444.571,-134.279
656117.251,4449394.571,-134.846
656117.251,4449344.571,-135.523
656117.251,4449294.571,-135.859
656117.251,4449244.571,-136.437
656117.251,4449194.571,-136.701
656117.251,4449144.571,-137.160
656117.251,4449094.571,-137.906
656117.251,4449044.571,-138.446
656117.251,4448994.571,-139.951
656117.251,4448944.571,-141.404
656117.251,4448894.571,-141.462
656117.251,4448844.571,-142.495
656117.251,4448794.571,-143.460
656117.251,4448744.571,-144.311
656117.251,4448694.571,-145.538
656117.251,4448644.571,-145.923
656117.251,4448594.571,-147.719
656117.251,4448544.571,-148.882
656117.251,4448494.571,-150.714
656117.251,4448444.571,-152.940
656117.251,4448394.571,-155.425
656117.251,4448344.571,-158.352
656117.251,4448294.571,-162.306
656117.251,4448244.571,-163.621
656117.251,4448194.571,-163.341
656117.251,4448144.571,-163.967
656117.251,4448094.571,-165.565
656117.251,4448044.571,-168.676
656117.251,4447994.571,-170.975
656117.251,4447944.571,-174.225
656117.251,4447894.571,-177.677
656117.251,4447844.571,-177.739
656117.251,4447794.571,-177.802
656117.251,4447744.571,-177.864
656117.251,4447694.571,-177.926
656117.251,4447644.571,-177.988
656117.251,4447594.571,-178.050
656117.251,4447544.571,-178.113
656117.251,4447494.571,-178.175
656117.251,4447444.571,-178.237
656117.251,4447394.571,-178.299
656117.251,4447344.571,-178.362
656117.251,4447294.571,-178.424
656117.251,4447244.571,-178.486
656117.251,4447194.571,-178.548
656117.251,4447144.571,-178.610
656117.251,4447094.571,-178.673
656117.251,4447044.571,-178.358
656117.251,4446994.571,-178.400
656167.251,4463444.571,-29.868
656167.251,4463394.571,-28.830
656167.251,4463344.571,-27.557
656167.251,4463294.571,-26.605
656167.251,4463244.571,-26.156
656167.251,4463194.571,-26.189
656167.251,4463144.571,-26.499
656167.251,4463094.571,-26.999
656167.251,4463044.571,-27.157
656167.251,4462994.571,-27.484
656167.251,4462944.571,-27.562
656167.251,4462894.571,-27.948
656167.251,4462844.571,-28.448
656167.251,4462794.571,-29.309
656167.251,4462744.571,-29.973
656167.251,4462694.571,-30.522
656167.251,4462644.571,-31.369
656167.251,4462594.571,-32.464
656167.251,4462544.571,-33.240
656167.251,4462494.571,-33.802
656167.251,4462444.571,-34.447
656167.251,4462394.571,-35.748
656167.251,4462344.571,-36.745
656167.251,4462294.571,-37.633
656167.251,4462244.571,-40.301
656167.251,4462194.571,-40.643
656167.251,4462144.571,-40.461
656167.251,4462094.571,-39.467
656167.251,4462044.571,-39.114
656167.251,4461994.571,-40.271
656167.251,4461944.571,-41.611
656167.251,4461894.571,-43.830
656167.251,4461844.571,-45.741
656167.251,4461794.571,-47.174
656167.251,4461744.571,-47.539
656167.251,4461694.571,-49.409
656167.251,4461644.571,-51.745
656167.251,4461594.571,-51.033
656167.251,4461544.571,-54.878
656167.251,4461494.571,-54.635
656167.251,4461444.571,-51.632
656167.251,4461394.571,-50.752
656167.251,4461344.571,-61.376
656167.251,4461294.571,-73.507
656167.251,4461244.571,-60.390
656167.251,4461194.571,-55.006
656167.251,4461144.571,-53.015
656167.251,4461094.571,-52.432
656167.251,4461044.571,-53.772
656167.251,4460994.571,-55.323
656167.251,4460944.571,-54.556
656167.251,4460894.571,-54.202
656167.251,4460844.571,-54.786
656167.251,4460794.571,-56.100
656167.251,4460744.571,-57.215
656167.251,4460694.571,-58.043
656167.251,4460644.571,-59.553
656167.251,4460594.571,-60.332
656167.251,4460544.571,-61.892
656167.251,4460494.571,-65.358
656167.251,4460444.571,-68.035
656167.251,4460394.571,-73.065
656167.251,4460344.571,-77.617
656167.251,4460294.571,-88.650
656167.251,4460244.571,-78.630
656167.251,4460194.571,-100.468
656167.251,4460144.571,-111.942
656167.251,4460094.571,-101.575
656167.251,4460044.571,-92.263
656167.251,4459994.571,-87.257
656167.251,4459944.571,-81.720
656167.251,4459894.571,-83.546
656167.251,4459844.571,-78.385
656167.251,4459794.571,-71.146
656167.251,4459744.571,-67.973
656167.251,4459694.571,-68.764
656167.251,4459644.571,-70.244
656167.251,4459594.571,-71.983
656167.251,4459544.571,-73.320
656167.251,4459494.571,-75.785
656167.251,4459444.571,-79.225
656167.251,4459394.571,-81.235
656167.251,4459344.571,-85.689
656167.251,4459294.571,-85.859
656167.251,4459244.571,-90.714
656167.251,4459194.571,-87.778
656167.251,4459144.571,-89.877
656167.251,4459094.571,-92.721
656167.251,4459044.571,-94.860
656167.251,4458994.571,-96.703
656167.251,4458944.571,-99.550
656167.251,4458894.571,-103.037
656167.251,4458844.571,-105.983
656167.251,4458794.571,-109.428
656167.251,4458744.571,-113.129
656167.251,4458694.571,-118.209
656167.251,4458644.571,-126.529
656167.251,4458594.571,-138.504
656167.251,4458544.571,-147.665
656167.251,4458494.571,-149.143
656167.251,4458444.571,-150.781
656167.251,4458394.571,-145.831
656167.251,4458344.571,-150.691
656167.251,4458294.571,-160.707
656167.251,4458244.571,-170.214
656167.251,4458194.571,-171.764
656167.251,4458144.571,-173.313
656167.251,4458094.571,-174.863
656167.251,4458044.571,-176.412
656167.251,4457994.571,-177.962
656167.251,4457944.571,-179.511
656167.251,4457894.571,-173.967
656167.251,4457844.571,-175.029
656167.251,4457794.571,-178.846
656167.251,4457744.571,-177.776
656167.251,4457694.571,-176.706
656167.251,4457644.571,-175.636
656167.251,4457594.571,-174.565
656167.251,4457544.571,-173.495
656167.251,4457494.571,-172.425
656167.251,4457444.571,-171.355
656167.251,4457394.571,-165.926
656167.251,4457344.571,-160.869
656167.251,4457294.571,-158.979
656167.251,4457244.571,-151.973
656167.251,4457194.571,-148.958
656167.251,4457144.571,-142.381
656167.251,4457094.571,-149.405
656167.251,4457044.571,-153.881
656167.251,4456994.571,-158.476
656167.251,4456944.571,-162.255
656167.251,4456894.571,-166.617
656167.251,4456844.571,-172.282
656167.251,4456794.571,-177.853
656167.251,4452444.571,-176.420
656167.251,4452394.571,-168.891
656167.251,4452344.571,-161.362
656167.251,4452294.571,-153.833
656167.251,4452244.571,-146.304
656167.251,4452194.571,-138.775
656167.251,4452144.571,-108.311
656167.251,4452094.571,-139.859
656167.251,4452044.571,-146.310
656167.251,4451994.571,-139.217
656167.251,4451944.571,-129.381
656167.251,4451894.571,-129.412
656167.251,4451844.571,-128.639
656167.251,4451794.571,-128.249
656167.251,4451744.571,-129.850
656167.251,4451694.571,-131.097
656167.251,4451644.571,-133.075
656167.251,4451594.571,-136.120
656167.251,4451544.571,-138.010
656167.251,4451494.571,-137.734
656167.251,4451444.571,-138.161
656167.251,4451394.571,-138.184
656167.251,4451344.571,-138.750
656167.251,4451294.571,-139.240
656167.251,4451244.571,-135.738
656167.251,4451194.571,-140.138
656167.251,4451144.571,-140.672
656167.251,4451094.571,-140.998
656167.251,4451044.571,-140.488
656167.251,4450994.571,-139.970
656167.251,4450944.571,-140.009
656167.251,4450894.571,-139.234
656167.251,4450844.571,-137.421
656167.251,4450794.571,-135.976
656167.251,4450744.571,-134.216
656167.251,4450694.571,-131.936
656167.251,4450644.571,-130.549
656167.251,4450594.571,-129.305
656167.251,4450544.571,-128.306
656167.251,4450494.571,-127.180
656167.251,4450444.571,-127.149
656167.251,4450394.571,-126.986
656167.251,4450344.571,-126.977
656167.251,4450294.571,-129.052
656167.251,4450244.571,-129.568
656167.251,4450194.571,-127.697
656167.251,4450144.571,-129.885
656167.251,4450094.571,-129.938
656167.251,4450044.571,-130.514
656167.251,4449994.571,-130.896
656167.251,4449944.571,-131.800
656167.251,4449894.571,-131.694
656167.251,4449844.571,-131.923
656167.251,4449794.571,-132.120
656167.251,4449744.571,-132.734
656167.251,4449694.571,-132.705
656167.251,4449644.571,-133.086
656167.251,4449594.571,-132.957
656167.251,4449544.571,-133.375
656167.251,4449494.571,-134.020
656167.251,4449444.571,-134.637
656167.251,4449394.571,-135.492
656167.251,4449344.571,-136.313
656167.251,4449294.571,-137.665
656167.251,4449244.571,-137.861
656167.251,4449194.571,-138.428
656167.251,4449144.571,-139.104
656167.251,4449094.571,-139.868
656167.251,4449044.571,-140.948
656167.251,4448994.571,-142.160
656167.251,4448944.571,-142.369
656167.251,4448894.571,-143.943
656167.251,4448844.571,-144.357
656167.251,4448794.571,-146.048
656167.251,4448744.571,-146.812
656167.251,4448694.571,-147.155
656167.251,4448644.571,-148.653
656167.251,4448594.571,-149.314
