679230.597,4598900.000,-532.980
679230.597,4598800.000,-534.410
679230.597,4598700.000,-534.960
679230.597,4598600.000,-535.360
679230.597,4598500.000,-536.210
679230.597,4598400.000,-537.770
679230.597,4598300.000,-539.780
679230.597,4598200.000,-541.700
679230.597,4598100.000,-544.340
679230.597,4598000.000,-546.990
679230.597,4597900.000,-549.210
679230.597,4597800.000,-550.380
679230.597,4597700.000,-550.020
679230.597,4597600.000,-550.350
679230.597,4597500.000,-551.710
679230.597,4597400.000,-553.590
679230.597,4597300.000,-555.340
679230.597,4597200.000,-562.590
679230.597,4597100.000,-570.160
679230.597,4597000.000,-573.670
679230.597,4596900.000,-574.730
679230.597,4596800.000,-573.460
679230.597,4596700.000,-572.170
679230.597,4596600.000,-570.190
679230.597,4596500.000,-567.400
679230.597,4596400.000,-563.450
679230.597,4596300.000,-554.950
679230.597,4596200.000,-549.670
679230.597,4596100.000,-545.770
679230.597,4596000.000,-542.280
679230.597,4595900.000,-539.770
679230.597,4595800.000,-539.750
679230.597,4595700.000,-541.680
679230.597,4595600.000,-542.120
679230.597,4595500.000,-540.680
679230.597,4595400.000,-537.700
679230.597,4595300.000,-533.620
679230.597,4595200.000,-529.590
679230.597,4595100.000,-525.250
679230.597,4595000.000,-521.040
679230.597,4594900.000,-517.980
679230.597,4594800.000,-515.270
679230.597,4594700.000,-513.630
679230.597,4594600.000,-511.600
679230.597,4594500.000,-510.190
679230.597,4594400.000,-508.300
679230.597,4594300.000,-506.170
679230.597,4594200.000,-504.500
679230.597,4594100.000,-502.140
679230.597,4594000.000,-500.640
679230.597,4593900.000,-498.920
679330.597,4614600.000,-698.770
679330.597,4614500.000,-692.800
679330.597,4614400.000,-688.180
679330.597,4614300.000,-684.260
679330.597,4614200.000,-681.410
679330.597,4614100.000,-679.250
679330.597,4614000.000,-676.360
679330.597,4613900.000,-673.150
679330.597,4613800.000,-671.160
679330.597,4613700.000,-666.540
679330.597,4613600.000,-660.950
679330.597,4613500.000,-655.950
679330.597,4613400.000,-652.590
679330.597,4613300.000,-648.740
679330.597,4613200.000,-646.360
679330.597,4613100.000,-643.240
679330.597,4613000.000,-639.900
679330.597,4612900.000,-635.790
679330.597,4612800.000,-628.130
679330.597,4612700.000,-620.350
679330.597,4612600.000,-614.350
679330.597,4612500.000,-607.960
679330.597,4612400.000,-599.830
679330.597,4612300.000,-595.320
679330.597,4612200.000,-591.100
679330.597,4612100.000,-585.560
679330.597,4612000.000,-578.620
679330.597,4611900.000,-571.170
679330.597,4611800.000,-563.890
679330.597,4611700.000,-553.440
679330.597,4611600.000,-545.970
679330.597,4611500.000,-545.160
679330.597,4611400.000,-548.250
679330.597,4611300.000,-552.440
679330.597,4611200.000,-557.710
679330.597,4611100.000,-563.350
679330.597,4611000.000,-569.840
679330.597,4610900.000,-574.190
679330.597,4610800.000,-574.080
679330.597,4610700.000,-570.240
679330.597,4610600.000,-563.360
679330.597,4610500.000,-557.720
679330.597,4610400.000,-554.080
679330.597,4610300.000,-551.510
679330.597,4610200.000,-549.330
679330.597,4610100.000,-547.490
679330.597,4610000.000,-546.210
679330.597,4609900.000,-545.070
679330.597,4609800.000,-544.260
679330.597,4609700.000,-543.490
679330.597,4609600.000,-542.700
679330.597,4609500.000,-542.150
679330.597,4609400.000,-542.040
679330.597,4609300.000,-542.640
679330.597,4609200.000,-543.170
679330.597,4609100.000,-543.170
679330.597,4609000.000,-543.200
679330.597,4608900.000,-543.630
679330.597,4608800.000,-544.350
679330.597,4608700.000,-545.280
679330.597,4608600.000,-546.320
679330.597,4608500.000,-547.190
679330.597,4608400.000,-547.760
679330.597,4608300.000,-548.290
679330.597,4608200.000,-548.850
679330.597,4608100.000,-549.630
679330.597,4608000.000,-550.390
679330.597,4607900.000,-551.950
679330.597,4607800.000,-553.540
679330.597,4607700.000,-555.240
679330.597,4607600.000,-556.800
679330.597,4607500.000,-558.890
679330.597,4607400.000,-561.230
679330.597,4607300.000,-564.420
679330.597,4607200.000,-567.790
679330.597,4607100.000,-570.820
679330.597,4607000.000,-572.420
679330.597,4606900.000,-573.210
679330.597,4606800.000,-572.530
679330.597,4606700.000,-570.720
679330.597,4606600.000,-567.350
679330.597,4606500.000,-562.910
679330.597,4606400.000,-557.620
679330.597,4606300.000,-552.510
679330.597,4606200.000,-549.380
679330.597,4606100.000,-546.430
679330.597,4606000.000,-543.500
679330.597,4605900.000,-539.730
679330.597,4605800.000,-535.110
679330.597,4605700.000,-530.580
679330.597,4605600.000,-526.810
679330.597,4605500.000,-524.840
679330.597,4605400.000,-523.890
679330.597,4605300.000,-523.260
679330.597,4605200.000,-523.780
679330.597,4605100.000,-523.710
679330.597,4605000.000,-522.230
679330.597,4604900.000,-521.070
679330.597,4604800.000,-519.960
679330.597,4604700.000,-518.840
679330.597,4604600.000,-517.330
679330.597,4604500.000,-515.880
679330.597,4604400.000,-514.580
679330.597,4604300.000,-513.110
679330.597,4604200.000,-511.490
679330.597,4604100.000,-510.010
679330.597,4604000.000,-508.480
679330.597,4603900.000,-507.380
679330.597,4603800.000,-506.840
679330.597,4603700.000,-507.130
679330.597,4603600.000,-508.680
679330.597,4603500.000,-510.420
679330.597,4603400.000,-512.650
679330.597,4603300.000,-515.390
679330.597,4603200.000,-518.710
679330.597,4603100.000,-521.730
679330.597,4603000.000,-524.410
679330.597,4602900.000,-525.380
679330.597,4602800.000,-525.030
679330.597,4602700.000,-524.260
679330.597,4602600.000,-523.700
679330.597,4602500.000,-523.580
679330.597,4602400.000,-523.680
679330.597,4602300.000,-524.000
679330.597,4602200.000,-523.910
679330.597,4602100.000,-523.730
679330.597,4602000.000,-523.200
679330.597,4601900.000,-522.610
679330.597,4601800.000,-522.200
679330.597,4601700.000,-522.280
679330.597,4601600.000,-522.490
679330.597,4601500.000,-523.030
679330.597,4601400.000,-524.260
679330.597,4601300.000,-526.740
679330.597,4601200.000,-529.040
679330.597,4601100.000,-531.260
679330.597,4601000.000,-532.770
679330.597,4600900.000,-533.000
679330.597,4600800.000,-532.510
679330.597,4600700.000,-531.350
679330.597,4600600.000,-529.970
679330.597,4600500.000,-528.720
679330.597,4600400.000,-528.030
679330.597,4600300.000,-527.670
679330.597,4600200.000,-527.580
679330.597,4600100.000,-527.730
679330.597,4600000.000,-527.560
679330.597,4599900.000,-526.830
679330.597,4599800.000,-525.530
679330.597,4599700.000,-524.160
679330.597,4599600.000,-523.570
679330.597,4599500.000,-523.400
679330.597,4599400.000,-523.420
679330.597,4599300.000,-524.890
679330.597,4599200.000,-526.960
679330.597,4599100.000,-529.760
679330.597,4599000.000,-532.010
679330.597,4598900.000,-534.070
679330.597,4598800.000,-535.220
679330.597,4598700.000,-535.820
679330.597,4598600.000,-536.040
679330.597,4598500.000,-536.870
679330.597,4598400.000,-538.370
679330.597,4598300.000,-540.100
679330.597,4598200.000,-541.940
679330.597,4598100.000,-544.370
679330.597,4598000.000,-546.810
679330.597,4597900.000,-549.750
679330.597,4597800.000,-550.840
679330.597,4597700.000,-551.630
679330.597,4597600.000,-552.100
679330.597,4597500.000,-554.310
679330.597,4597400.000,-556.740
679330.597,4597300.000,-556.950
679330.597,4597200.000,-563.230
679330.597,4597100.000,-572.380
679330.597,4597000.000,-576.370
679330.597,4596900.000,-576.770
679330.597,4596800.000,-576.390
679330.597,4596700.000,-573.900
679330.597,4596600.000,-571.060
679330.597,4596500.000,-567.260
679330.597,4596400.000,-562.310
679330.597,4596300.000,-555.600
679330.597,4596200.000,-549.220
679330.597,4596100.000,-543.460
679330.597,4596000.000,-540.050
679330.597,4595900.000,-537.650
679330.597,4595800.000,-535.670
679330.597,4595700.000,-535.240
679330.597,4595600.000,-535.830
679330.597,4595500.000,-536.130
679330.597,4595400.000,-534.180
679330.597,4595300.000,-531.210
679330.597,4595200.000,-528.150
679330.597,4595100.000,-524.040
679330.597,4595000.000,-521.020
679330.597,4594900.000,-518.720
679330.597,4594800.000,-516.570
679330.597,4594700.000,-514.860
679330.597,4594600.000,-512.810
679330.597,4594500.000,-511.300
679330.597,4594400.000,-509.460
679330.597,4594300.000,-507.760
679330.597,4594200.000,-506.510
679330.597,4594100.000,-504.980
679330.597,4594000.000,-504.040
679330.597,4593900.000,-502.230
679430.597,4614400.000,-698.750
679430.597,4614300.000,-692.170
679430.597,4614200.000,-685.690
679430.597,4614100.000,-681.310
679430.597,4614000.000,-677.570
679430.597,4613900.000,-674.530
679430.597,4613800.000,-672.580
679430.597,4613700.000,-673.470
679430.597,4613600.000,-665.460
679430.597,4613500.000,-659.080
679430.597,4613400.000,-655.380
679430.597,4613300.000,-652.140
679430.597,4613200.000,-649.030
679430.597,4613100.000,-646.630
679430.597,4613000.000,-643.660
679430.597,4612900.000,-640.230
679430.597,4612800.000,-635.470
679430.597,4612700.000,-628.490
679430.597,4612600.000,-621.060
679430.597,4612500.000,-612.650
679430.597,4612400.000,-603.220
679430.597,4612300.000,-596.380
679430.597,4612200.000,-592.970
679430.597,4612100.000,-587.830
679430.597,4612000.000,-580.390
679430.597,4611900.000,-572.970
679430.597,4611800.000,-566.230
679430.597,4611700.000,-556.300
679430.597,4611600.000,-547.740
679430.597,4611500.000,-544.790
679430.597,4611400.000,-548.710
679430.597,4611300.000,-553.980
679430.597,4611200.000,-558.770
679430.597,4611100.000,-564.440
679430.597,4611000.000,-572.390
679430.597,4610900.000,-576.810
679430.597,4610800.000,-577.200
679430.597,4610700.000,-573.690
679430.597,4610600.000,-567.190
679430.597,4610500.000,-559.650
679430.597,4610400.000,-555.360
679430.597,4610300.000,-552.530
679430.597,4610200.000,-550.170
679430.597,4610100.000,-548.200
679430.597,4610000.000,-546.740
679430.597,4609900.000,-545.560
679430.597,4609800.000,-544.690
679430.597,4609700.000,-543.770
679430.597,4609600.000,-542.900
679430.597,4609500.000,-542.180
679430.597,4609400.000,-541.760
679430.597,4609300.000,-541.740
679430.597,4609200.000,-542.330
679430.597,4609100.000,-542.880
679430.597,4609000.000,-543.240
679430.597,4608900.000,-543.880
679430.597,4608800.000,-544.760
679430.597,4608700.000,-545.860
679430.597,4608600.000,-547.030
679430.597,4608500.000,-547.820
679430.597,4608400.000,-548.350
679430.597,4608300.000,-548.790
679430.597,4608200.000,-549.150
679430.597,4608100.000,-549.560
679430.597,4608000.000,-550.100
679430.597,4607900.000,-551.250
679430.597,4607800.000,-552.630
679430.597,4607700.000,-554.100
679430.597,4607600.000,-555.510
679430.597,4607500.000,-557.070
679430.597,4607400.000,-558.380
679430.597,4607300.000,-560.950
679430.597,4607200.000,-563.060
679430.597,4607100.000,-565.960
679430.597,4607000.000,-569.070
679430.597,4606900.000,-570.170
679430.597,4606800.000,-569.810
679430.597,4606700.000,-568.710
679430.597,4606600.000,-566.710
679430.597,4606500.000,-564.410
679430.597,4606400.000,-561.570
679430.597,4606300.000,-557.940
679430.597,4606200.000,-556.380
679430.597,4606100.000,-552.930
679430.597,4606000.000,-549.870
679430.597,4605900.000,-545.870
679430.597,4605800.000,-540.380
679430.597,4605700.000,-534.680
679430.597,4605600.000,-530.400
679430.597,4605500.000,-527.770
679430.597,4605400.000,-526.660
679430.597,4605300.000,-526.400
679430.597,4605200.000,-527.060
679430.597,4605100.000,-526.530
679430.597,4605000.000,-524.880
679430.597,4604900.000,-524.220
679430.597,4604800.000,-522.750
679430.597,4604700.000,-520.830
679430.597,4604600.000,-519.090
679430.597,4604500.000,-517.430
679430.597,4604400.000,-516.060
679430.597,4604300.000,-514.710
679430.597,4604200.000,-513.370
679430.597,4604100.000,-511.640
679430.597,4604000.000,-509.880
679430.597,4603900.000,-508.720
679430.597,4603800.000,-508.200
679430.597,4603700.000,-508.530
679430.597,4603600.000,-509.930
679430.597,4603500.000,-511.640
679430.597,4603400.000,-513.590
679430.597,4603300.000,-516.040
679430.597,4603200.000,-518.380
679430.597,4603100.000,-521.470
679430.597,4603000.000,-524.530
679430.597,4602900.000,-526.560
679430.597,4602800.000,-527.380
679430.597,4602700.000,-526.680
679430.597,4602600.000,-526.140
679430.597,4602500.000,-525.510
679430.597,4602400.000,-525.560
679430.597,4602300.000,-525.770
679430.597,4602200.000,-525.780
679430.597,4602100.000,-525.740
679430.597,4602000.000,-525.300
679430.597,4601900.000,-524.790
679430.597,4601800.000,-524.290
679430.597,4601700.000,-524.120
679430.597,4601600.000,-524.200
679430.597,4601500.000,-524.890
679430.597,4601400.000,-526.520
679430.597,4601300.000,-528.590
679430.597,4601200.000,-531.010
679430.597,4601100.000,-533.140
679430.597,4601000.000,-534.540
679430.597,4600900.000,-534.800
679430.597,4600800.000,-534.170
679430.597,4600700.000,-532.990
679430.597,4600600.000,-531.620
679430.597,4600500.000,-530.410
679430.597,4600400.000,-529.580
679430.597,4600300.000,-529.210
679430.597,4600200.000,-529.180
679430.597,4600100.000,-529.190
679430.597,4600000.000,-529.060
679430.597,4599900.000,-528.120
679430.597,4599800.000,-526.850
679430.597,4599700.000,-525.550
679430.597,4599600.000,-525.000
679430.597,4599500.000,-525.140
679430.597,4599400.000,-525.430
679430.597,4599300.000,-526.600
679430.597,4599200.000,-528.700
679430.597,4599100.000,-531.030
679430.597,4599000.000,-533.310
679430.597,4598900.000,-535.140
679430.597,4598800.000,-536.350
679430.597,4598700.000,-536.980
679430.597,4598600.000,-537.340
679430.597,4598500.000,-537.850
679430.597,4598400.000,-539.110
679430.597,4598300.000,-540.740
679430.597,4598200.000,-542.650
679430.597,4598100.000,-544.800
679430.597,4598000.000,-547.260
679430.597,4597900.000,-550.060
679430.597,4597800.000,-552.460
679430.597,4597700.000,-553.360
679430.597,4597600.000,-554.410
679430.597,4597500.000,-556.530
679430.597,4597400.000,-560.420
679430.597,4597300.000,-563.710
679430.597,4597200.000,-567.610
679430.597,4597100.000,-575.720
679430.597,4597000.000,-577.060
679430.597,4596900.000,-576.860
679430.597,4596800.000,-575.830
679430.597,4596700.000,-573.550
679430.597,4596600.000,-571.110
679430.597,4596500.000,-567.180
679430.597,4596400.000,-561.750
679430.597,4596300.000,-555.650
679430.597,4596200.000,-549.260
679430.597,4596100.000,-543.920
679430.597,4596000.000,-540.880
679430.597,4595900.000,-538.650
679430.597,4595800.000,-536.710
679430.597,4595700.000,-535.580
679430.597,4595600.000,-535.380
679430.597,4595500.000,-534.610
679430.597,4595400.000,-533.580
679430.597,4595300.000,-530.900
679430.597,4595200.000,-528.190
679430.597,4595100.000,-525.130
679430.597,4595000.000,-522.180
679430.597,4594900.000,-519.780
679430.597,4594800.000,-517.790
679430.597,4594700.000,-516.160
679430.597,4594600.000,-514.420
679430.597,4594500.000,-512.800
679430.597,4594400.000,-511.060
679430.597,4594300.000,-509.630
679430.597,4594200.000,-508.440
679430.597,4594100.000,-507.340
679430.597,4594000.000,-506.350
679430.597,4593900.000,-505.300
679530.597,4614300.000,-697.490
679530.597,4614200.000,-690.120
679530.597,4614100.000,-683.640
679530.597,4614000.000,-680.510
679530.597,4613900.000,-676.600
679530.597,4613800.000,-673.400
679530.597,4613700.000,-674.910
679530.597,4613600.000,-669.200
679530.597,4613500.000,-664.310
679530.597,4613400.000,-658.540
679530.597,4613300.000,-655.270
679530.597,4613200.000,-651.670
679530.597,4613100.000,-649.230
679530.597,4613000.000,-645.750
679530.597,4612900.000,-641.760
679530.597,4612800.000,-638.760
679530.597,4612700.000,-634.740
679530.597,4612600.000,-630.070
679530.597,4612500.000,-619.940
679530.597,4612400.000,-608.010
679530.597,4612300.000,-598.510
679530.597,4612200.000,-594.590
679530.597,4612100.000,-589.340
679530.597,4612000.000,-582.190
679530.597,4611900.000,-575.990
679530.597,4611800.000,-568.760
679530.597,4611700.000,-560.180
679530.597,4611600.000,-549.340
679530.597,4611500.000,-544.240
679530.597,4611400.000,-547.360
679530.597,4611300.000,-552.280
679530.597,4611200.000,-557.960
679530.597,4611100.000,-564.050
679530.597,4611000.000,-572.430
679530.597,4610900.000,-577.860
679530.597,4610800.000,-579.570
679530.597,4610700.000,-576.900
679530.597,4610600.000,-571.240
679530.597,4610500.000,-562.960
679530.597,4610400.000,-557.890
679530.597,4610300.000,-554.230
679530.597,4610200.000,-551.680
679530.597,4610100.000,-549.350
679530.597,4610000.000,-547.610
679530.597,4609900.000,-546.340
679530.597,4609800.000,-545.330
679530.597,4609700.000,-544.270
679530.597,4609600.000,-543.410
679530.597,4609500.000,-542.600
679530.597,4609400.000,-541.710
679530.597,4609300.000,-541.310
679530.597,4609200.000,-541.750
679530.597,4609100.000,-542.530
679530.597,4609000.000,-543.620
679530.597,4608900.000,-544.340
679530.597,4608800.000,-545.520
679530.597,4608700.000,-546.810
679530.597,4608600.000,-547.920
679530.597,4608500.000,-548.610
679530.597,4608400.000,-549.050
679530.597,4608300.000,-549.430
679530.597,4608200.000,-549.760
679530.597,4608100.000,-550.090
679530.597,4608000.000,-550.700
679530.597,4607900.000,-551.320
679530.597,4607800.000,-552.130
679530.597,4607700.000,-553.380
679530.597,4607600.000,-554.620
679530.597,4607500.000,-555.940
679530.597,4607400.000,-556.740
679530.597,4607300.000,-558.400
679530.597,4607200.000,-559.770
679530.597,4607100.000,-562.020
679530.597,4607000.000,-564.410
679530.597,4606900.000,-566.410
679530.597,4606800.000,-567.390
679530.597,4606700.000,-567.260
679530.597,4606600.000,-566.770
679530.597,4606500.000,-566.170
679530.597,4606400.000,-565.210
679530.597,4606300.000,-564.670
679530.597,4606200.000,-563.700
679530.597,4606100.000,-562.310
679530.597,4606000.000,-556.940
679530.597,4605900.000,-552.030
679530.597,4605800.000,-546.150
679530.597,4605700.000,-539.850
679530.597,4605600.000,-534.490
679530.597,4605500.000,-530.890
679530.597,4605400.000,-529.380
679530.597,4605300.000,-529.280
679530.597,4605200.000,-529.340
679530.597,4605100.000,-528.710
679530.597,4605000.000,-527.870
679530.597,4604900.000,-527.220
679530.597,4604800.000,-525.690
679530.597,4604700.000,-523.750
679530.597,4604600.000,-521.630
679530.597,4604500.000,-519.430
679530.597,4604400.000,-517.760
679530.597,4604300.000,-516.570
679530.597,4604200.000,-515.180
679530.597,4604100.000,-513.570
679530.597,4604000.000,-511.770
679530.597,4603900.000,-510.170
679530.597,4603800.000,-509.440
679530.597,4603700.000,-509.760
679530.597,4603600.000,-510.930
679530.597,4603500.000,-512.640
679530.597,4603400.000,-514.410
679530.597,4603300.000,-516.830
679530.597,4603200.000,-519.380
679530.597,4603100.000,-522.120
679530.597,4603000.000,-524.100
679530.597,4602900.000,-526.260
679530.597,4602800.000,-527.910
679530.597,4602700.000,-528.390
679530.597,4602600.000,-528.440
679530.597,4602500.000,-528.100
679530.597,4602400.000,-527.580
679530.597,4602300.000,-527.540
679530.597,4602200.000,-527.710
679530.597,4602100.000,-527.740
679530.597,4602000.000,-527.270
679530.597,4601900.000,-526.930
679530.597,4601800.000,-526.680
679530.597,4601700.000,-526.580
679530.597,4601600.000,-526.490
679530.597,4601500.000,-527.370
679530.597,4601400.000,-528.860
679530.597,4601300.000,-530.850
679530.597,4601200.000,-533.020
679530.597,4601100.000,-534.910
679530.597,4601000.000,-536.100
679530.597,4600900.000,-536.430
679530.597,4600800.000,-535.850
679530.597,4600700.000,-534.860
679530.597,4600600.000,-533.770
679530.597,4600500.000,-532.590
679530.597,4600400.000,-531.800
679530.597,4600300.000,-531.410
679530.597,4600200.000,-531.240
679530.597,4600100.000,-530.980
679530.597,4600000.000,-530.510
679530.597,4599900.000,-529.400
679530.597,4599800.000,-528.020
679530.597,4599700.000,-526.770
679530.597,4599600.000,-526.330
679530.597,4599500.000,-526.630
679530.597,4599400.000,-527.310
679530.597,4599300.000,-528.560
679530.597,4599200.000,-530.240
679530.597,4599100.000,-532.550
679530.597,4599000.000,-534.670
679530.597,4598900.000,-536.310
679530.597,4598800.000,-537.430
679530.597,4598700.000,-537.970
679530.597,4598600.000,-538.380
679530.597,4598500.000,-538.990
679530.597,4598400.000,-540.180
679530.597,4598300.000,-541.550
679530.597,4598200.000,-543.420
679530.597,4598100.000,-545.590
679530.597,4598000.000,-548.090
679530.597,4597900.000,-550.780
679530.597,4597800.000,-553.400
679530.597,4597700.000,-555.040
679530.597,4597600.000,-556.380
679530.597,4597500.000,-559.180
679530.597,4597400.000,-562.260
679530.597,4597300.000,-569.140
679530.597,4597200.000,-574.130
679530.597,4597100.000,-578.070
679530.597,4597000.000,-578.300
679530.597,4596900.000,-576.790
679530.597,4596800.000,-575.070
679530.597,4596700.000,-572.530
679530.597,4596600.000,-570.060
679530.597,4596500.000,-566.240
679530.597,4596400.000,-561.350
679530.597,4596300.000,-556.210
679530.597,4596200.000,-550.580
679530.597,4596100.000,-545.960
679530.597,4596000.000,-543.010
679530.597,4595900.000,-541.260
679530.597,4595800.000,-540.930
679530.597,4595700.000,-539.120
679530.597,4595600.000,-536.980
679530.597,4595500.000,-536.380
679530.597,4595400.000,-535.110
679530.597,4595300.000,-532.770
679530.597,4595200.000,-529.930
679530.597,4595100.000,-526.720
679530.597,4595000.000,-523.950
679530.597,4594900.000,-521.650
679530.597,4594800.000,-519.540
679530.597,4594700.000,-517.680
679530.597,4594600.000,-515.850
679530.597,4594500.000,-514.440
679530.597,4594400.000,-512.950
679530.597,4594300.000,-511.420
679530.597,4594200.000,-510.330
679530.597,4594100.000,-509.360
679530.597,4594000.000,-508.680
679530.597,4593900.000,-508.070
679630.597,4614300.000,-698.000
679630.597,4614200.000,-691.450
679630.597,4614100.000,-686.850
679630.597,4614000.000,-682.950
679630.597,4613900.000,-678.720
679630.597,4613800.000,-674.870
679630.597,4613700.000,-676.040
679630.597,4613600.000,-669.160
679630.597,4613500.000,-664.770
679630.597,4613400.000,-661.240
679630.597,4613300.000,-657.370
679630.597,4613200.000,-654.850
679630.597,4613100.000,-652.170
679630.597,4613000.000,-648.810
679630.597,4612900.000,-644.470
679630.597,4612800.000,-641.010
679630.597,4612700.000,-638.120
679630.597,4612600.000,-634.480
679630.597,4612500.000,-626.080
679630.597,4612400.000,-612.810
679630.597,4612300.000,-602.450
679630.597,4612200.000,-597.030
679630.597,4612100.000,-591.470
679630.597,4612000.000,-585.280
679630.597,4611900.000,-580.340
679630.597,4611800.000,-572.190
679630.597,4611700.000,-563.920
679630.597,4611600.000,-553.490
679630.597,4611500.000,-545.030
679630.597,4611400.000,-546.300
679630.597,4611300.000,-549.480
679630.597,4611200.000,-555.950
679630.597,4611100.000,-562.060
679630.597,4611000.000,-570.090
679630.597,4610900.000,-577.140
679630.597,4610800.000,-579.710
679630.597,4610700.000,-577.840
679630.597,4610600.000,-573.380
679630.597,4610500.000,-566.280
679630.597,4610400.000,-560.450
679630.597,4610300.000,-556.610
679630.597,4610200.000,-554.260
679630.597,4610100.000,-551.450
679630.597,4610000.000,-549.250
679630.597,4609900.000,-548.040
679630.597,4609800.000,-546.570
679630.597,4609700.000,-545.280
679630.597,4609600.000,-544.360
679630.597,4609500.000,-543.430
679630.597,4609400.000,-542.520
679630.597,4609300.000,-542.210
679630.597,4609200.000,-542.020
679630.597,4609100.000,-542.190
679630.597,4609000.000,-544.020
679630.597,4608900.000,-545.460
679630.597,4608800.000,-546.670
679630.597,4608700.000,-548.080
679630.597,4608600.000,-549.110
679630.597,4608500.000,-549.760
679630.597,4608400.000,-550.050
679630.597,4608300.000,-550.380
679630.597,4608200.000,-550.600
679630.597,4608100.000,-550.910
679630.597,4608000.000,-551.210
679630.597,4607900.000,-551.660
679630.597,4607800.000,-552.490
679630.597,4607700.000,-553.480
679630.597,4607600.000,-554.560
679630.597,4607500.000,-555.620
679630.597,4607400.000,-556.460
679630.597,4607300.000,-557.130
679630.597,4607200.000,-558.200
679630.597,4607100.000,-559.110
679630.597,4607000.000,-560.720
679630.597,4606900.000,-562.230
679630.597,4606800.000,-564.450
679630.597,4606700.000,-565.640
679630.597,4606600.000,-566.290
679630.597,4606500.000,-567.620
679630.597,4606400.000,-569.790
679630.597,4606300.000,-571.000
679630.597,4606200.000,-571.750
679630.597,4606100.000,-571.360
679630.597,4606000.000,-566.740
679630.597,4605900.000,-558.890
679630.597,4605800.000,-551.760
679630.597,4605700.000,-545.170
679630.597,4605600.000,-539.520
679630.597,4605500.000,-535.400
679630.597,4605400.000,-533.260
679630.597,4605300.000,-532.580
679630.597,4605200.000,-531.830
679630.597,4605100.000,-531.280
679630.597,4605000.000,-530.140
679630.597,4604900.000,-529.190
679630.597,4604800.000,-528.310
679630.597,4604700.000,-526.280
679630.597,4604600.000,-524.190
679630.597,4604500.000,-522.610
679630.597,4604400.000,-520.700
679630.597,4604300.000,-519.040
679630.597,4604200.000,-517.040
679630.597,4604100.000,-515.370
679630.597,4604000.000,-513.680
679630.597,4603900.000,-512.020
679630.597,4603800.000,-510.980
679630.597,4603700.000,-510.880
679630.597,4603600.000,-511.990
679630.597,4603500.000,-513.460
679630.597,4603400.000,-515.340
679630.597,4603300.000,-517.830
679630.597,4603200.000,-520.420
679630.597,4603100.000,-522.660
679630.597,4603000.000,-524.610
679630.597,4602900.000,-526.660
679630.597,4602800.000,-528.040
679630.597,4602700.000,-528.560
679630.597,4602600.000,-529.340
679630.597,4602500.000,-530.200
679630.597,4602400.000,-530.480
679630.597,4602300.000,-529.970
679630.597,4602200.000,-529.780
679630.597,4602100.000,-529.820
679630.597,4602000.000,-529.680
679630.597,4601900.000,-529.330
679630.597,4601800.000,-529.140
679630.597,4601700.000,-529.300
679630.597,4601600.000,-529.660
679630.597,4601500.000,-530.370
679630.597,4601400.000,-531.490
679630.597,4601300.000,-533.170
679630.597,4601200.000,-535.150
679630.597,4601100.000,-536.950
679630.597,4601000.000,-537.860
679630.597,4600900.000,-537.940
679630.597,4600800.000,-537.710
679630.597,4600700.000,-536.740
679630.597,4600600.000,-535.890
679630.597,4600500.000,-535.380
679630.597,4600400.000,-534.800
679630.597,4600300.000,-534.040
679630.597,4600200.000,-533.810
679630.597,4600100.000,-533.120
679630.597,4600000.000,-531.980
679630.597,4599900.000,-530.360
679630.597,4599800.000,-528.840
679630.597,4599700.000,-527.910
679630.597,4599600.000,-527.370
679630.597,4599500.000,-527.820
679630.597,4599400.000,-528.940
679630.597,4599300.000,-530.200
679630.597,4599200.000,-531.880
679630.597,4599100.000,-533.950
679630.597,4599000.000,-536.100
679630.597,4598900.000,-537.720
679630.597,4598800.000,-538.640
679630.597,4598700.000,-539.120
679630.597,4598600.000,-539.500
679630.597,4598500.000,-540.050
679630.597,4598400.000,-541.160
679630.597,4598300.000,-542.440
679630.597,4598200.000,-544.150
679630.597,4598100.000,-546.160
679630.597,4598000.000,-548.850
679630.597,4597900.000,-552.000
679630.597,4597800.000,-554.130
679630.597,4597700.000,-556.820
679630.597,4597600.000,-559.010
679630.597,4597500.000,-561.370
679630.597,4597400.000,-563.990
679630.597,4597300.000,-571.800
679630.597,4597200.000,-576.550
679630.597,4597100.000,-579.220
679630.597,4597000.000,-578.490
679630.597,4596900.000,-576.120
679630.597,4596800.000,-573.870
679630.597,4596700.000,-570.240
679630.597,4596600.000,-567.220
679630.597,4596500.000,-563.490
679630.597,4596400.000,-559.310
679630.597,4596300.000,-555.390
679630.597,4596200.000,-551.170
679630.597,4596100.000,-548.050
679630.597,4596000.000,-545.920
679630.597,4595900.000,-544.950
679630.597,4595800.000,-545.180
679630.597,4595700.000,-545.090
679630.597,4595600.000,-542.730
679630.597,4595500.000,-540.270
679630.597,4595400.000,-538.360
679630.597,4595300.000,-535.610
679630.597,4595200.000,-532.560
679630.597,4595100.000,-529.210
679630.597,4595000.000,-526.080
679630.597,4594900.000,-523.740
679630.597,4594800.000,-521.330
679630.597,4594700.000,-519.510
679630.597,4594600.000,-517.620
679630.597,4594500.000,-516.160
679630.597,4594400.000,-514.790
679630.597,4594300.000,-513.640
679630.597,4594200.000,-512.460
679630.597,4594100.000,-511.530
679630.597,4594000.000,-510.760
679630.597,4593900.000,-510.430
679730.597,4614300.000,-697.060
679730.597,4614200.000,-692.000
679730.597,4614100.000,-688.640
679730.597,4614000.000,-685.270
679730.597,4613900.000,-681.600
679730.597,4613800.000,-676.850
679730.597,4613700.000,-676.780
679730.597,4613600.000,-671.280
679730.597,4613500.000,-666.140
679730.597,4613400.000,-662.830
679730.597,4613300.000,-660.530
679730.597,4613200.000,-657.730
679730.597,4613100.000,-654.120
679730.597,4613000.000,-650.480
679730.597,4612900.000,-646.820
679730.597,4612800.000,-643.420
679730.597,4612700.000,-640.530
679730.597,4612600.000,-636.010
679730.597,4612500.000,-630.230
679730.597,4612400.000,-617.760
679730.597,4612300.000,-606.020
679730.597,4612200.000,-600.060
679730.597,4612100.000,-593.690
679730.597,4612000.000,-587.980
679730.597,4611900.000,-582.250
679730.597,4611800.000,-575.050
679730.597,4611700.000,-566.330
679730.597,4611600.000,-557.960
679730.597,4611500.000,-548.230
679730.597,4611400.000,-546.580
679730.597,4611300.000,-548.440
679730.597,4611200.000,-554.020
679730.597,4611100.000,-559.550
679730.597,4611000.000,-565.890
679730.597,4610900.000,-574.750
679730.597,4610800.000,-578.470
679730.597,4610700.000,-577.840
679730.597,4610600.000,-573.670
679730.597,4610500.000,-566.840
679730.597,4610400.000,-560.760
679730.597,4610300.000,-557.170
679730.597,4610200.000,-554.580
679730.597,4610100.000,-552.730
679730.597,4610000.000,-550.810
679730.597,4609900.000,-549.390
679730.597,4609800.000,-548.280
679730.597,4609700.000,-547.350
679730.597,4609600.000,-546.170
679730.597,4609500.000,-545.140
679730.597,4609400.000,-544.210
679730.597,4609300.000,-543.800
679730.597,4609200.000,-543.390
679730.597,4609100.000,-543.460
679730.597,4609000.000,-544.640
679730.597,4608900.000,-546.540
679730.597,4608800.000,-548.220
679730.597,4608700.000,-549.720
679730.597,4608600.000,-550.620
679730.597,4608500.000,-551.160
679730.597,4608400.000,-551.430
679730.597,4608300.000,-551.610
679730.597,4608200.000,-551.660
679730.597,4608100.000,-551.990
679730.597,4608000.000,-552.030
679730.597,4607900.000,-552.280
679730.597,4607800.000,-553.170
679730.597,4607700.000,-553.880
679730.597,4607600.000,-554.820
679730.597,4607500.000,-555.930
679730.597,4607400.000,-556.880
679730.597,4607300.000,-557.740
679730.597,4607200.000,-558.700
679730.597,4607100.000,-559.480
679730.597,4607000.000,-559.420
679730.597,4606900.000,-560.380
679730.597,4606800.000,-562.020
679730.597,4606700.000,-563.770
679730.597,4606600.000,-564.440
679730.597,4606500.000,-566.190
679730.597,4606400.000,-571.180
679730.597,4606300.000,-575.340
679730.597,4606200.000,-577.220
679730.597,4606100.000,-577.080
679730.597,4606000.000,-574.630
679730.597,4605900.000,-567.440
679730.597,4605800.000,-557.500
679730.597,4605700.000,-549.630
679730.597,4605600.000,-544.060
679730.597,4605500.000,-540.040
679730.597,4605400.000,-537.960
679730.597,4605300.000,-536.340
679730.597,4605200.000,-535.340
679730.597,4605100.000,-534.300
679730.597,4605000.000,-532.950
679730.597,4604900.000,-531.450
679730.597,4604800.000,-530.140
679730.597,4604700.000,-528.100
679730.597,4604600.000,-526.620
679730.597,4604500.000,-525.610
679730.597,4604400.000,-523.980
679730.597,4604300.000,-521.700
679730.597,4604200.000,-519.760
679730.597,4604100.000,-517.770
679730.597,4604000.000,-515.700
679730.597,4603900.000,-513.760
679730.597,4603800.000,-512.580
679730.597,4603700.000,-512.310
679730.597,4603600.000,-513.140
679730.597,4603500.000,-514.440
679730.597,4603400.000,-516.320
679730.597,4603300.000,-518.850
679730.597,4603200.000,-521.150
679730.597,4603100.000,-523.290
679730.597,4603000.000,-525.540
679730.597,4602900.000,-527.330
679730.597,4602800.000,-528.710
679730.597,4602700.000,-529.330
679730.597,4602600.000,-529.920
679730.597,4602500.000,-530.590
679730.597,4602400.000,-531.350
679730.597,4602300.000,-532.290
679730.597,4602200.000,-532.370
679730.597,4602100.000,-532.280
679730.597,4602000.000,-532.180
679730.597,4601900.000,-532.170
679730.597,4601800.000,-532.190
679730.597,4601700.000,-532.110
679730.597,4601600.000,-532.800
679730.597,4601500.000,-533.160
679730.597,4601400.000,-533.820
679730.597,4601300.000,-535.340
679730.597,4601200.000,-537.280
679730.597,4601100.000,-539.020
679730.597,4601000.000,-539.990
679730.597,4600900.000,-539.920
679730.597,4600800.000,-539.380
679730.597,4600700.000,-538.630
679730.597,4600600.000,-538.040
679730.597,4600500.000,-537.660
679730.597,4600400.000,-537.040
679730.597,4600300.000,-536.520
679730.597,4600200.000,-535.810
679730.597,4600100.000,-534.530
679730.597,4600000.000,-532.940
679730.597,4599900.000,-531.010
679730.597,4599800.000,-529.490
679730.597,4599700.000,-528.670
679730.597,4599600.000,-528.690
679730.597,4599500.000,-529.480
679730.597,4599400.000,-530.720
679730.597,4599300.000,-532.160
679730.597,4599200.000,-533.920
679730.597,4599100.000,-535.950
679730.597,4599000.000,-537.740
679730.597,4598900.000,-539.490
679730.597,4598800.000,-540.400
679730.597,4598700.000,-540.820
679730.597,4598600.000,-541.200
679730.597,4598500.000,-541.620
679730.597,4598400.000,-542.630
679730.597,4598300.000,-543.820
679730.597,4598200.000,-545.590
679730.597,4598100.000,-547.680
679730.597,4598000.000,-550.350
679730.597,4597900.000,-553.450
679730.597,4597800.000,-556.470
679730.597,4597700.000,-559.600
679730.597,4597600.000,-562.090
679730.597,4597500.000,-564.480
679730.597,4597400.000,-568.710
679730.597,4597300.000,-575.400
679730.597,4597200.000,-578.570
679730.597,4597100.000,-580.380
679730.597,4597000.000,-579.260
679730.597,4596900.000,-576.450
679730.597,4596800.000,-571.990
679730.597,4596700.000,-567.430
679730.597,4596600.000,-563.530
679730.597,4596500.000,-560.550
679730.597,4596400.000,-557.020
679730.597,4596300.000,-553.490
679730.597,4596200.000,-551.150
679730.597,4596100.000,-549.410
679730.597,4596000.000,-548.120
679730.597,4595900.000,-548.110
679730.597,4595800.000,-548.570
679730.597,4595700.000,-548.660
679730.597,4595600.000,-548.010
679730.597,4595500.000,-545.460
679730.597,4595400.000,-541.930
679730.597,4595300.000,-538.750
679730.597,4595200.000,-535.440
679730.597,4595100.000,-532.070
679730.597,4595000.000,-528.740
679730.597,4594900.000,-525.830
679730.597,4594800.000,-523.650
679730.597,4594700.000,-521.380
679730.597,4594600.000,-519.410
679730.597,4594500.000,-518.040
679730.597,4594400.000,-516.870
679730.597,4594300.000,-515.840
679730.597,4594200.000,-514.690
679730.597,4594100.000,-513.660
679730.597,4594000.000,-512.440
679730.597,4593900.000,-512.230
679830.597,4614300.000,-696.350
679830.597,4614200.000,-691.750
679830.597,4614100.000,-689.660
679830.597,4614000.000,-686.980
679830.597,4613900.000,-683.890
679830.597,4613800.000,-679.230
679830.597,4613700.000,-676.270
679830.597,4613600.000,-672.060
679830.597,4613500.000,-667.440
679830.597,4613400.000,-665.370
679830.597,4613300.000,-663.840
679830.597,4613200.000,-659.760
679830.597,4613100.000,-656.180
679830.597,4613000.000,-652.640
679830.597,4612900.000,-649.100
679830.597,4612800.000,-645.840
679830.597,4612700.000,-642.700
679830.597,4612600.000,-638.810
679830.597,4612500.000,-633.250
679830.597,4612400.000,-622.650
679830.597,4612300.000,-609.640
679830.597,4612200.000,-602.520
679830.597,4612100.000,-596.650
679830.597,4612000.000,-590.710
679830.597,4611900.000,-584.250
679830.597,4611800.000,-576.420
679830.597,4611700.000,-567.820
679830.597,4611600.000,-560.110
679830.597,4611500.000,-551.910
679830.597,4611400.000,-547.390
679830.597,4611300.000,-548.500
679830.597,4611200.000,-552.740
679830.597,4611100.000,-557.700
679830.597,4611000.000,-563.090
679830.597,4610900.000,-572.240
679830.597,4610800.000,-577.190
679830.597,4610700.000,-577.450
679830.597,4610600.000,-573.440
679830.597,4610500.000,-566.070
679830.597,4610400.000,-559.890
679830.597,4610300.000,-555.550
679830.597,4610200.000,-553.140
679830.597,4610100.000,-551.330
679830.597,4610000.000,-549.950
679830.597,4609900.000,-549.200
679830.597,4609800.000,-548.400
679830.597,4609700.000,-547.390
679830.597,4609600.000,-546.840
679830.597,4609500.000,-546.640
679830.597,4609400.000,-546.560
679830.597,4609300.000,-545.880
679830.597,4609200.000,-545.450
679830.597,4609100.000,-545.770
679830.597,4609000.000,-546.760
679830.597,4608900.000,-548.280
679830.597,4608800.000,-549.750
679830.597,4608700.000,-551.460
679830.597,4608600.000,-552.320
679830.597,4608500.000,-552.690
679830.597,4608400.000,-553.050
679830.597,4608300.000,-552.960
679830.597,4608200.000,-552.970
679830.597,4608100.000,-553.420
679830.597,4608000.000,-553.130
679830.597,4607900.000,-553.370
679830.597,4607800.000,-554.030
679830.597,4607700.000,-554.580
679830.597,4607600.000,-555.700
679830.597,4607500.000,-556.800
679830.597,4607400.000,-558.110
679830.597,4607300.000,-559.280
679830.597,4607200.000,-560.300
679830.597,4607100.000,-560.120
679830.597,4607000.000,-559.840
679830.597,4606900.000,-560.200
679830.597,4606800.000,-561.490
679830.597,4606700.000,-562.460
679830.597,4606600.000,-562.380
679830.597,4606500.000,-567.250
679830.597,4606400.000,-575.190
679830.597,4606300.000,-583.700
679830.597,4606200.000,-584.810
679830.597,4606100.000,-582.390
679830.597,4606000.000,-579.430
679830.597,4605900.000,-572.790
679830.597,4605800.000,-562.640
679830.597,4605700.000,-553.620
679830.597,4605600.000,-547.850
679830.597,4605500.000,-543.740
679830.597,4605400.000,-541.510
679830.597,4605300.000,-540.030
679830.597,4605200.000,-538.790
679830.597,4605100.000,-537.780
679830.597,4605000.000,-536.380
679830.597,4604900.000,-533.970
679830.597,4604800.000,-531.830
679830.597,4604700.000,-529.890
679830.597,4604600.000,-528.810
679830.597,4604500.000,-527.800
679830.597,4604400.000,-526.270
679830.597,4604300.000,-524.840
679830.597,4604200.000,-522.970
679830.597,4604100.000,-520.680
679830.597,4604000.000,-518.210
679830.597,4603900.000,-515.680
679830.597,4603800.000,-514.140
679830.597,4603700.000,-513.780
679830.597,4603600.000,-514.470
679830.597,4603500.000,-515.790
679830.597,4603400.000,-517.410
679830.597,4603300.000,-519.430
679830.597,4603200.000,-521.860
679830.597,4603100.000,-524.150
679830.597,4603000.000,-526.300
679830.597,4602900.000,-528.170
679830.597,4602800.000,-529.600
679830.597,4602700.000,-530.700
679830.597,4602600.000,-531.030
679830.597,4602500.000,-531.340
679830.597,4602400.000,-532.030
679830.597,4602300.000,-533.100
679830.597,4602200.000,-534.340
679830.597,4602100.000,-535.060
679830.597,4602000.000,-535.140
679830.597,4601900.000,-535.370
679830.597,4601800.000,-535.440
679830.597,4601700.000,-535.540
679830.597,4601600.000,-536.550
679830.597,4601500.000,-535.640
679830.597,4601400.000,-536.160
679830.597,4601300.000,-537.340
679830.597,4601200.000,-539.320
679830.597,4601100.000,-540.970
679830.597,4601000.000,-541.870
679830.597,4600900.000,-541.910
679830.597,4600800.000,-541.320
679830.597,4600700.000,-540.420
679830.597,4600600.000,-539.800
679830.597,4600500.000,-539.340
679830.597,4600400.000,-538.680
679830.597,4600300.000,-537.950
679830.597,4600200.000,-537.030
679830.597,4600100.000,-535.470
679830.597,4600000.000,-533.770
679830.597,4599900.000,-531.760
679830.597,4599800.000,-530.400
679830.597,4599700.000,-530.000
679830.597,4599600.000,-530.030
679830.597,4599500.000,-531.120
679830.597,4599400.000,-532.760
679830.597,4599300.000,-534.540
679830.597,4599200.000,-536.250
679830.597,4599100.000,-537.840
679830.597,4599000.000,-539.280
679830.597,4598900.000,-540.860
679830.597,4598800.000,-541.780
679830.597,4598700.000,-542.360
679830.597,4598600.000,-542.880
679830.597,4598500.000,-543.390
679830.597,4598400.000,-544.380
679830.597,4598300.000,-545.560
679830.597,4598200.000,-547.270
679830.597,4598100.000,-549.410
679830.597,4598000.000,-551.920
679830.597,4597900.000,-555.070
679830.597,4597800.000,-558.600
679830.597,4597700.000,-562.760
679830.597,4597600.000,-565.850
679830.597,4597500.000,-569.260
679830.597,4597400.000,-573.640
679830.597,4597300.000,-579.680
679830.597,4597200.000,-582.580
679830.597,4597100.000,-582.260
679830.597,4597000.000,-580.070
679830.597,4596900.000,-576.270
679830.597,4596800.000,-571.700
679830.597,4596700.000,-564.960
679830.597,4596600.000,-560.910
679830.597,4596500.000,-557.970
679830.597,4596400.000,-555.260
679830.597,4596300.000,-553.600
679830.597,4596200.000,-551.610
679830.597,4596100.000,-550.620
679830.597,4596000.000,-550.350
679830.597,4595900.000,-550.640
679830.597,4595800.000,-551.100
679830.597,4595700.000,-551.360
679830.597,4595600.000,-550.640
679830.597,4595500.000,-548.720
679830.597,4595400.000,-545.500
679830.597,4595300.000,-542.100
679830.597,4595200.000,-538.650
679830.597,4595100.000,-535.290
679830.597,4595000.000,-531.750
679830.597,4594900.000,-528.670
679830.597,4594800.000,-526.030
679830.597,4594700.000,-523.940
679830.597,4594600.000,-522.060
679830.597,4594500.000,-520.400
679830.597,4594400.000,-519.410
679830.597,4594300.000,-518.380
679830.597,4594200.000,-517.700
679830.597,4594100.000,-517.160
679830.597,4594000.000,-515.260
679830.597,4593900.000,-514.090
679930.597,4614400.000,-698.970
679930.597,4614300.000,-696.030
679930.597,4614200.000,-692.880
679930.597,4614100.000,-690.640
679930.597,4614000.000,-688.140
679930.597,4613900.000,-684.570
679930.597,4613800.000,-680.380
679930.597,4613700.000,-676.700
679930.597,4613600.000,-674.590
679930.597,4613500.000,-670.190
679930.597,4613400.000,-667.690
679930.597,4613300.000,-665.520
679930.597,4613200.000,-661.180
679930.597,4613100.000,-657.630
679930.597,4613000.000,-654.650
679930.597,4612900.000,-651.000
679930.597,4612800.000,-647.950
679930.597,4612700.000,-645.150
679930.597,4612600.000,-641.480
679930.597,4612500.000,-634.410
679930.597,4612400.000,-623.570
679930.597,4612300.000,-611.130
679930.597,4612200.000,-604.430
679930.597,4612100.000,-598.970
679930.597,4612000.000,-593.570
679930.597,4611900.000,-587.000
679930.597,4611800.000,-578.020
679930.597,4611700.000,-569.690
679930.597,4611600.000,-561.890
679930.597,4611500.000,-554.960
679930.597,4611400.000,-548.890
679930.597,4611300.000,-548.700
679930.597,4611200.000,-551.690
679930.597,4611100.000,-556.890
679930.597,4611000.000,-561.210
679930.597,4610900.000,-570.340
679930.597,4610800.000,-576.400
679930.597,4610700.000,-577.130
679930.597,4610600.000,-573.720
679930.597,4610500.000,-566.230
679930.597,4610400.000,-559.450
679930.597,4610300.000,-554.610
679930.597,4610200.000,-552.140
679930.597,4610100.000,-549.830
679930.597,4610000.000,-548.390
679930.597,4609900.000,-547.400
679930.597,4609800.000,-546.710
679930.597,4609700.000,-546.020
679930.597,4609600.000,-545.820
679930.597,4609500.000,-545.780
679930.597,4609400.000,-546.370
679930.597,4609300.000,-546.780
679930.597,4609200.000,-547.350
679930.597,4609100.000,-548.100
679930.597,4609000.000,-549.180
679930.597,4608900.000,-550.670
679930.597,4608800.000,-552.610
679930.597,4608700.000,-554.360
679930.597,4608600.000,-555.300
679930.597,4608500.000,-555.350
679930.597,4608400.000,-555.020
679930.597,4608300.000,-554.870
679930.597,4608200.000,-555.370
679930.597,4608100.000,-554.930
679930.597,4608000.000,-554.360
679930.597,4607900.000,-554.840
679930.597,4607800.000,-555.330
679930.597,4607700.000,-555.790
679930.597,4607600.000,-556.880
679930.597,4607500.000,-558.010
679930.597,4607400.000,-559.460
679930.597,4607300.000,-561.190
679930.597,4607200.000,-562.530
679930.597,4607100.000,-562.620
679930.597,4607000.000,-563.530
679930.597,4606900.000,-563.220
679930.597,4606800.000,-562.820
679930.597,4606700.000,-562.270
679930.597,4606600.000,-561.540
679930.597,4606500.000,-568.180
679930.597,4606400.000,-579.340
679930.597,4606300.000,-590.780
679930.597,4606200.000,-591.580
679930.597,4606100.000,-587.720
679930.597,4606000.000,-583.150
679930.597,4605900.000,-576.920
679930.597,4605800.000,-567.580
679930.597,4605700.000,-557.820
679930.597,4605600.000,-551.640
679930.597,4605500.000,-547.130
679930.597,4605400.000,-544.380
679930.597,4605300.000,-543.020
679930.597,4605200.000,-542.060
679930.597,4605100.000,-540.850
679930.597,4605000.000,-539.490
679930.597,4604900.000,-536.890
679930.597,4604800.000,-534.480
679930.597,4604700.000,-532.570
679930.597,4604600.000,-531.190
679930.597,4604500.000,-529.550
679930.597,4604400.000,-528.370
679930.597,4604300.000,-527.250
679930.597,4604200.000,-525.980
679930.597,4604100.000,-524.320
679930.597,4604000.000,-521.030
679930.597,4603900.000,-517.750
679930.597,4603800.000,-516.110
679930.597,4603700.000,-515.380
679930.597,4603600.000,-515.870
679930.597,4603500.000,-516.950
679930.597,4603400.000,-518.620
679930.597,4603300.000,-520.560
679930.597,4603200.000,-522.530
679930.597,4603100.000,-524.750
679930.597,4603000.000,-527.020
679930.597,4602900.000,-528.820
679930.597,4602800.000,-530.470
679930.597,4602700.000,-531.740
679930.597,4602600.000,-532.350
679930.597,4602500.000,-532.740
679930.597,4602400.000,-532.810
679930.597,4602300.000,-533.820
679930.597,4602200.000,-534.970
679930.597,4602100.000,-536.400
679930.597,4602000.000,-538.150
679930.597,4601900.000,-538.260
679930.597,4601800.000,-538.050
679930.597,4601700.000,-538.860
679930.597,4601600.000,-539.590
679930.597,4601500.000,-538.550
679930.597,4601400.000,-538.650
679930.597,4601300.000,-539.250
679930.597,4601200.000,-541.410
679930.597,4601100.000,-542.990
679930.597,4601000.000,-543.740
679930.597,4600900.000,-543.700
679930.597,4600800.000,-543.260
679930.597,4600700.000,-542.440
679930.597,4600600.000,-541.590
679930.597,4600500.000,-540.890
679930.597,4600400.000,-540.100
679930.597,4600300.000,-539.180
679930.597,4600200.000,-538.170
679930.597,4600100.000,-536.410
679930.597,4600000.000,-534.650
679930.597,4599900.000,-532.790
679930.597,4599800.000,-532.070
679930.597,4599700.000,-531.650
679930.597,4599600.000,-532.270
679930.597,4599500.000,-533.440
679930.597,4599400.000,-535.300
679930.597,4599300.000,-536.980
679930.597,4599200.000,-538.480
679930.597,4599100.000,-539.910
679930.597,4599000.000,-541.190
679930.597,4598900.000,-542.510
679930.597,4598800.000,-543.110
679930.597,4598700.000,-543.860
679930.597,4598600.000,-544.570
679930.597,4598500.000,-545.360
679930.597,4598400.000,-546.430
679930.597,4598300.000,-547.710
679930.597,4598200.000,-549.340
679930.597,4598100.000,-551.270
679930.597,4598000.000,-553.720
679930.597,4597900.000,-556.760
679930.597,4597800.000,-560.130
679930.597,4597700.000,-564.230
679930.597,4597600.000,-568.630
