704080.597,4608950.000,-1130.540
704080.597,4608750.000,-1128.640
704080.597,4608550.000,-1126.640
704080.597,4608350.000,-1124.380
704080.597,4608150.000,-1122.170
704080.597,4607950.000,-1119.790
704080.597,4607750.000,-1117.060
704080.597,4607550.000,-1114.050
704080.597,4607350.000,-1111.700
704080.597,4607150.000,-1109.090
704080.597,4606950.000,-1106.150
704080.597,4606750.000,-1102.630
704080.597,4606550.000,-1100.020
704080.597,4606350.000,-1098.160
704080.597,4606150.000,-1098.220
704080.597,4605950.000,-1100.900
704080.597,4605750.000,-1105.900
704080.597,4605550.000,-1110.800
704080.597,4605350.000,-1111.360
704080.597,4605150.000,-1107.130
704080.597,4604950.000,-1102.640
704080.597,4604750.000,-1101.500
704080.597,4604550.000,-1101.220
704080.597,4604350.000,-1100.890
704080.597,4604150.000,-1099.890
704080.597,4603950.000,-1099.110
704080.597,4603750.000,-1098.050
704080.597,4603550.000,-1097.100
704080.597,4603350.000,-1096.150
704080.597,4603150.000,-1095.270
704080.597,4602950.000,-1092.710
704080.597,4602750.000,-1087.130
704080.597,4602550.000,-1073.760
704080.597,4602350.000,-1062.170
704080.597,4602150.000,-1042.270
704080.597,4601950.000,-1015.380
704080.597,4601750.000,-996.340
704080.597,4601550.000,-968.720
704080.597,4601350.000,-949.100
704080.597,4601150.000,-919.890
704080.597,4600950.000,-875.930
704080.597,4600750.000,-839.110
704080.597,4600550.000,-846.730
704080.597,4600350.000,-862.700
704080.597,4600150.000,-877.240
704080.597,4599950.000,-880.280
704080.597,4599750.000,-874.760
704080.597,4599550.000,-871.350
704080.597,4599350.000,-871.840
704080.597,4599150.000,-882.250
704080.597,4598950.000,-900.070
704080.597,4598750.000,-915.860
704080.597,4598550.000,-943.630
704080.597,4598350.000,-973.790
704080.597,4598150.000,-1005.130
704080.597,4597950.000,-1030.330
704080.597,4597750.000,-1037.470
704080.597,4597550.000,-1040.990
704080.597,4597350.000,-1041.630
704080.597,4597150.000,-1041.760
704080.597,4596950.000,-1041.720
704080.597,4596750.000,-1041.020
704080.597,4596550.000,-1038.510
704080.597,4596350.000,-1033.830
704080.597,4596150.000,-1028.540
704080.597,4595950.000,-1014.130
704080.597,4595750.000,-1003.790
704080.597,4595550.000,-1009.710
704080.597,4595350.000,-1016.540
704080.597,4595150.000,-1020.490
704080.597,4594950.000,-1023.950
704080.597,4594750.000,-1026.080
704080.597,4594550.000,-1027.660
704080.597,4594350.000,-1029.000
704080.597,4594150.000,-1029.740
704080.597,4593950.000,-1030.730
704080.597,4593750.000,-1030.350
704280.597,4628950.000,-1113.860
704280.597,4628750.000,-1114.860
704280.597,4628550.000,-1116.590
704280.597,4628350.000,-1117.330
704280.597,4628150.000,-1117.720
704280.597,4627950.000,-1119.350
704280.597,4627750.000,-1120.960
704280.597,4627550.000,-1121.520
704280.597,4627350.000,-1122.780
704280.597,4627150.000,-1123.580
704280.597,4626950.000,-1124.480
704280.597,4626750.000,-1125.510
704280.597,4626550.000,-1126.650
704280.597,4626350.000,-1127.370
704280.597,4626150.000,-1127.740
704280.597,4625950.000,-1128.500
704280.597,4625750.000,-1129.240
704280.597,4625550.000,-1129.480
704280.597,4625350.000,-1130.330
704280.597,4625150.000,-1131.460
704280.597,4624950.000,-1131.800
704280.597,4624750.000,-1132.040
704280.597,4624550.000,-1132.610
704280.597,4624350.000,-1133.590
704280.597,4624150.000,-1134.150
704280.597,4623950.000,-1134.680
704280.597,4623750.000,-1135.140
704280.597,4623550.000,-1135.520
704280.597,4623350.000,-1135.650
704280.597,4623150.000,-1136.110
704280.597,4622950.000,-1136.430
704280.597,4622750.000,-1136.910
704280.597,4622550.000,-1137.170
704280.597,4622350.000,-1137.160
704280.597,4622150.000,-1137.320
704280.597,4621950.000,-1137.530
704280.597,4621750.000,-1137.740
704280.597,4621550.000,-1137.400
704280.597,4621350.000,-1137.320
704280.597,4621150.000,-1137.290
704280.597,4620950.000,-1137.610
704280.597,4620750.000,-1137.800
704280.597,4620550.000,-1137.850
704280.597,4620350.000,-1138.030
704280.597,4620150.000,-1138.070
704280.597,4619950.000,-1137.840
704280.597,4619750.000,-1138.190
704280.597,4619550.000,-1138.180
704280.597,4619350.000,-1138.360
704280.597,4619150.000,-1138.590
704280.597,4618950.000,-1138.460
704280.597,4618750.000,-1138.750
704280.597,4618550.000,-1138.720
704280.597,4618350.000,-1138.560
704280.597,4618150.000,-1138.940
704280.597,4617950.000,-1139.180
704280.597,4617750.000,-1139.060
704280.597,4617550.000,-1139.100
704280.597,4617350.000,-1139.640
704280.597,4617150.000,-1139.730
704280.597,4616950.000,-1140.220
704280.597,4616750.000,-1140.430
704280.597,4616550.000,-1140.380
704280.597,4616350.000,-1140.310
704280.597,4616150.000,-1140.310
704280.597,4615950.000,-1140.350
704280.597,4615750.000,-1140.300
704280.597,4615550.000,-1140.610
704280.597,4615350.000,-1140.600
704280.597,4615150.000,-1140.360
704280.597,4614950.000,-1140.250
704280.597,4614750.000,-1140.090
704280.597,4614550.000,-1139.650
704280.597,4614350.000,-1139.130
704280.597,4614150.000,-1138.800
704280.597,4613950.000,-1138.340
704280.597,4613750.000,-1137.870
704280.597,4613550.000,-1137.430
704280.597,4613350.000,-1136.650
704280.597,4613150.000,-1136.220
704280.597,4612950.000,-1136.910
704280.597,4612750.000,-1138.340
704280.597,4612550.000,-1139.120
704280.597,4612350.000,-1139.520
704280.597,4612150.000,-1139.900
704280.597,4611950.000,-1140.050
704280.597,4611750.000,-1140.390
704280.597,4611550.000,-1140.470
704280.597,4611350.000,-1140.610
704280.597,4611150.000,-1140.170
704280.597,4610950.000,-1139.410
704280.597,4610750.000,-1138.930
704280.597,4610550.000,-1138.880
704280.597,4610350.000,-1138.480
704280.597,4610150.000,-1138.440
704280.597,4609950.000,-1137.350
704280.597,4609750.000,-1136.910
704280.597,4609550.000,-1135.540
704280.597,4609350.000,-1133.820
704280.597,4609150.000,-1132.790
704280.597,4608950.000,-1130.540
704280.597,4608750.000,-1128.670
704280.597,4608550.000,-1126.530
704280.597,4608350.000,-1124.440
704280.597,4608150.000,-1122.300
704280.597,4607950.000,-1119.650
704280.597,4607750.000,-1117.200
704280.597,4607550.000,-1114.390
704280.597,4607350.000,-1111.550
704280.597,4607150.000,-1108.560
704280.597,4606950.000,-1104.980
704280.597,4606750.000,-1101.570
704280.597,4606550.000,-1099.550
704280.597,4606350.000,-1098.340
704280.597,4606150.000,-1100.850
704280.597,4605950.000,-1107.830
704280.597,4605750.000,-1115.060
704280.597,4605550.000,-1116.460
704280.597,4605350.000,-1113.190
704280.597,4605150.000,-1109.010
704280.597,4604950.000,-1106.660
704280.597,4604750.000,-1106.220
704280.597,4604550.000,-1105.090
704280.597,4604350.000,-1102.290
704280.597,4604150.000,-1100.520
704280.597,4603950.000,-1100.500
704280.597,4603750.000,-1100.640
704280.597,4603550.000,-1099.510
704280.597,4603350.000,-1097.400
704280.597,4603150.000,-1094.330
704280.597,4602950.000,-1090.820
704280.597,4602750.000,-1086.400
704280.597,4602550.000,-1077.810
704280.597,4602350.000,-1062.630
704280.597,4602150.000,-1031.110
704280.597,4601950.000,-1010.680
704280.597,4601750.000,-991.870
704280.597,4601550.000,-967.900
704280.597,4601350.000,-940.520
704280.597,4601150.000,-911.810
704280.597,4600950.000,-867.280
704280.597,4600750.000,-843.020
704280.597,4600550.000,-863.070
704280.597,4600350.000,-876.590
704280.597,4600150.000,-884.040
704280.597,4599950.000,-887.930
704280.597,4599750.000,-885.240
704280.597,4599550.000,-878.920
704280.597,4599350.000,-881.630
704280.597,4599150.000,-891.710
704280.597,4598950.000,-901.660
704280.597,4598750.000,-914.450
704280.597,4598550.000,-938.250
704280.597,4598350.000,-968.880
704280.597,4598150.000,-1003.790
704280.597,4597950.000,-1032.350
704280.597,4597750.000,-1038.830
704280.597,4597550.000,-1042.080
704280.597,4597350.000,-1042.900
704280.597,4597150.000,-1042.310
704280.597,4596950.000,-1042.700
704280.597,4596750.000,-1042.260
704280.597,4596550.000,-1040.200
704280.597,4596350.000,-1036.510
704280.597,4596150.000,-1030.630
704280.597,4595950.000,-1017.240
704280.597,4595750.000,-1007.940
704280.597,4595550.000,-1014.050
704280.597,4595350.000,-1021.730
704280.597,4595150.000,-1025.660
704280.597,4594950.000,-1028.050
704280.597,4594750.000,-1030.470
704280.597,4594550.000,-1031.940
704280.597,4594350.000,-1032.470
704280.597,4594150.000,-1032.950
704280.597,4593950.000,-1033.500
704280.597,4593750.000,-1033.060
704480.597,4628950.000,-1113.700
704480.597,4628750.000,-1114.870
704480.597,4628550.000,-1116.020
704480.597,4628350.000,-1116.950
704480.597,4628150.000,-1117.870
704480.597,4627950.000,-1119.080
704480.597,4627750.000,-1119.640
704480.597,4627550.000,-1120.530
704480.597,4627350.000,-1121.950
704480.597,4627150.000,-1122.930
704480.597,4626950.000,-1123.210
704480.597,4626750.000,-1124.500
704480.597,4626550.000,-1125.130
704480.597,4626350.000,-1126.180
704480.597,4626150.000,-1126.370
704480.597,4625950.000,-1127.720
704480.597,4625750.000,-1127.930
704480.597,4625550.000,-1129.090
704480.597,4625350.000,-1129.630
704480.597,4625150.000,-1130.860
704480.597,4624950.000,-1131.430
704480.597,4624750.000,-1131.820
704480.597,4624550.000,-1132.720
704480.597,4624350.000,-1133.460
704480.597,4624150.000,-1134.100
704480.597,4623950.000,-1134.400
704480.597,4623750.000,-1134.670
704480.597,4623550.000,-1135.200
704480.597,4623350.000,-1135.390
704480.597,4623150.000,-1135.890
704480.597,4622950.000,-1136.030
704480.597,4622750.000,-1136.460
704480.597,4622550.000,-1136.950
704480.597,4622350.000,-1137.360
704480.597,4622150.000,-1137.420
704480.597,4621950.000,-1137.470
704480.597,4621750.000,-1137.530
704480.597,4621550.000,-1137.750
704480.597,4621350.000,-1137.840
704480.597,4621150.000,-1137.810
704480.597,4620950.000,-1137.970
704480.597,4620750.000,-1137.990
704480.597,4620550.000,-1138.030
704480.597,4620350.000,-1138.270
704480.597,4620150.000,-1138.230
704480.597,4619950.000,-1138.310
704480.597,4619750.000,-1138.360
704480.597,4619550.000,-1138.500
704480.597,4619350.000,-1138.430
704480.597,4619150.000,-1138.600
704480.597,4618950.000,-1138.360
704480.597,4618750.000,-1138.070
704480.597,4618550.000,-1138.240
704480.597,4618350.000,-1138.730
704480.597,4618150.000,-1139.300
704480.597,4617950.000,-1139.430
704480.597,4617750.000,-1139.210
704480.597,4617550.000,-1139.170
704480.597,4617350.000,-1139.220
704480.597,4617150.000,-1139.390
704480.597,4616950.000,-1140.070
704480.597,4616750.000,-1140.220
704480.597,4616550.000,-1140.220
704480.597,4616350.000,-1140.330
704480.597,4616150.000,-1140.260
704480.597,4615950.000,-1140.120
704480.597,4615750.000,-1140.200
704480.597,4615550.000,-1140.400
704480.597,4615350.000,-1140.340
704480.597,4615150.000,-1140.190
704480.597,4614950.000,-1140.210
704480.597,4614750.000,-1140.160
704480.597,4614550.000,-1139.850
704480.597,4614350.000,-1139.460
704480.597,4614150.000,-1138.950
704480.597,4613950.000,-1138.910
704480.597,4613750.000,-1138.330
704480.597,4613550.000,-1138.000
704480.597,4613350.000,-1138.130
704480.597,4613150.000,-1137.780
704480.597,4612950.000,-1137.040
704480.597,4612750.000,-1138.640
704480.597,4612550.000,-1139.490
704480.597,4612350.000,-1140.120
704480.597,4612150.000,-1140.330
704480.597,4611950.000,-1140.300
704480.597,4611750.000,-1140.510
704480.597,4611550.000,-1140.790
704480.597,4611350.000,-1140.810
704480.597,4611150.000,-1140.460
704480.597,4610950.000,-1140.060
704480.597,4610750.000,-1139.480
704480.597,4610550.000,-1139.290
704480.597,4610350.000,-1138.930
704480.597,4610150.000,-1139.010
704480.597,4609950.000,-1138.020
704480.597,4609750.000,-1136.950
704480.597,4609550.000,-1135.870
704480.597,4609350.000,-1135.050
704480.597,4609150.000,-1133.170
704480.597,4608950.000,-1131.410
704480.597,4608750.000,-1129.280
704480.597,4608550.000,-1127.350
704480.597,4608350.000,-1125.630
704480.597,4608150.000,-1122.540
704480.597,4607950.000,-1120.060
704480.597,4607750.000,-1116.910
704480.597,4607550.000,-1114.790
704480.597,4607350.000,-1111.520
704480.597,4607150.000,-1108.960
704480.597,4606950.000,-1104.730
704480.597,4606750.000,-1101.760
704480.597,4606550.000,-1100.190
704480.597,4606350.000,-1103.630
704480.597,4606150.000,-1112.740
704480.597,4605950.000,-1119.460
704480.597,4605750.000,-1122.810
704480.597,4605550.000,-1120.400
704480.597,4605350.000,-1115.910
704480.597,4605150.000,-1113.420
704480.597,4604950.000,-1113.350
704480.597,4604750.000,-1112.090
704480.597,4604550.000,-1109.440
704480.597,4604350.000,-1106.110
704480.597,4604150.000,-1104.890
704480.597,4603950.000,-1105.730
704480.597,4603750.000,-1106.750
704480.597,4603550.000,-1105.910
704480.597,4603350.000,-1101.740
704480.597,4603150.000,-1097.550
704480.597,4602950.000,-1091.650
704480.597,4602750.000,-1086.260
704480.597,4602550.000,-1081.470
704480.597,4602350.000,-1060.300
704480.597,4602150.000,-1029.920
704480.597,4601950.000,-1003.700
704480.597,4601750.000,-984.140
704480.597,4601550.000,-967.270
704480.597,4601350.000,-929.170
704480.597,4601150.000,-895.040
704480.597,4600950.000,-851.960
704480.597,4600750.000,-833.910
704480.597,4600550.000,-863.400
704480.597,4600350.000,-878.050
704480.597,4600150.000,-885.080
704480.597,4599950.000,-890.170
704480.597,4599750.000,-892.200
704480.597,4599550.000,-887.930
704480.597,4599350.000,-890.630
704480.597,4599150.000,-904.790
704480.597,4598950.000,-913.910
704480.597,4598750.000,-919.580
704480.597,4598550.000,-939.340
704480.597,4598350.000,-967.460
704480.597,4598150.000,-1001.770
704480.597,4597950.000,-1033.470
704480.597,4597750.000,-1040.040
704480.597,4597550.000,-1043.440
704480.597,4597350.000,-1044.280
704480.597,4597150.000,-1044.410
704480.597,4596950.000,-1043.740
704480.597,4596750.000,-1043.180
704480.597,4596550.000,-1041.700
704480.597,4596350.000,-1039.400
704480.597,4596150.000,-1031.310
704480.597,4595950.000,-1019.940
704480.597,4595750.000,-1013.830
704480.597,4595550.000,-1020.100
704480.597,4595350.000,-1025.960
704480.597,4595150.000,-1030.390
704480.597,4594950.000,-1033.810
704480.597,4594750.000,-1035.710
704480.597,4594550.000,-1036.440
704480.597,4594350.000,-1036.840
704480.597,4594150.000,-1037.150
704480.597,4593950.000,-1037.600
704480.597,4593750.000,-1036.750
704680.597,4628950.000,-1113.250
704680.597,4628750.000,-1114.260
704680.597,4628550.000,-1115.670
704680.597,4628350.000,-1116.640
704680.597,4628150.000,-1118.410
704680.597,4627950.000,-1118.750
704680.597,4627750.000,-1120.130
704680.597,4627550.000,-1121.600
704680.597,4627350.000,-1122.010
704680.597,4627150.000,-1123.060
704680.597,4626950.000,-1123.450
704680.597,4626750.000,-1125.460
704680.597,4626550.000,-1125.180
704680.597,4626350.000,-1125.310
704680.597,4626150.000,-1126.360
704680.597,4625950.000,-1126.860
704680.597,4625750.000,-1126.440
704680.597,4625550.000,-1127.380
704680.597,4625350.000,-1127.630
704680.597,4625150.000,-1129.550
704680.597,4624950.000,-1129.450
704680.597,4624750.000,-1130.810
704680.597,4624550.000,-1132.300
704680.597,4624350.000,-1133.340
704680.597,4624150.000,-1133.790
704680.597,4623950.000,-1133.990
704680.597,4623750.000,-1134.720
704680.597,4623550.000,-1134.770
704680.597,4623350.000,-1135.480
704680.597,4623150.000,-1135.620
704680.597,4622950.000,-1135.860
704680.597,4622750.000,-1136.310
704680.597,4622550.000,-1136.640
704680.597,4622350.000,-1136.710
704680.597,4622150.000,-1136.820
704680.597,4621950.000,-1136.780
704680.597,4621750.000,-1137.030
704680.597,4621550.000,-1137.510
704680.597,4621350.000,-1137.790
704680.597,4621150.000,-1137.810
704680.597,4620950.000,-1137.750
704680.597,4620750.000,-1138.120
704680.597,4620550.000,-1138.510
704680.597,4620350.000,-1138.550
704680.597,4620150.000,-1138.680
704680.597,4619950.000,-1138.550
704680.597,4619750.000,-1138.690
704680.597,4619550.000,-1138.980
704680.597,4619350.000,-1138.930
704680.597,4619150.000,-1138.860
704680.597,4618950.000,-1138.540
704680.597,4618750.000,-1138.310
704680.597,4618550.000,-1138.570
704680.597,4618350.000,-1138.850
704680.597,4618150.000,-1139.200
704680.597,4617950.000,-1139.100
704680.597,4617750.000,-1139.210
704680.597,4617550.000,-1139.150
704680.597,4617350.000,-1139.340
704680.597,4617150.000,-1139.780
704680.597,4616950.000,-1139.690
704680.597,4616750.000,-1139.980
704680.597,4616550.000,-1139.950
704680.597,4616350.000,-1140.190
704680.597,4616150.000,-1140.140
704680.597,4615950.000,-1140.200
704680.597,4615750.000,-1140.650
704680.597,4615550.000,-1140.690
704680.597,4615350.000,-1140.290
704680.597,4615150.000,-1139.860
704680.597,4614950.000,-1139.960
704680.597,4614750.000,-1139.720
704680.597,4614550.000,-1139.450
704680.597,4614350.000,-1139.060
704680.597,4614150.000,-1138.790
704680.597,4613950.000,-1138.640
704680.597,4613750.000,-1138.400
704680.597,4613550.000,-1138.010
704680.597,4613350.000,-1138.050
704680.597,4613150.000,-1138.130
704680.597,4612950.000,-1137.320
704680.597,4612750.000,-1138.450
704680.597,4612550.000,-1139.840
704680.597,4612350.000,-1140.330
704680.597,4612150.000,-1140.590
704680.597,4611950.000,-1140.880
704680.597,4611750.000,-1141.050
704680.597,4611550.000,-1141.320
704680.597,4611350.000,-1141.280
704680.597,4611150.000,-1140.860
704680.597,4610950.000,-1140.320
704680.597,4610750.000,-1139.930
704680.597,4610550.000,-1139.580
704680.597,4610350.000,-1139.230
704680.597,4610150.000,-1139.020
704680.597,4609950.000,-1138.270
704680.597,4609750.000,-1136.990
704680.597,4609550.000,-1136.240
704680.597,4609350.000,-1135.210
704680.597,4609150.000,-1133.650
704680.597,4608950.000,-1132.150
704680.597,4608750.000,-1130.290
704680.597,4608550.000,-1128.660
704680.597,4608350.000,-1126.680
704680.597,4608150.000,-1124.040
704680.597,4607950.000,-1121.670
704680.597,4607750.000,-1118.510
704680.597,4607550.000,-1115.760
704680.597,4607350.000,-1112.170
704680.597,4607150.000,-1109.220
704680.597,4606950.000,-1105.260
704680.597,4606750.000,-1103.350
704680.597,4606550.000,-1105.700
704680.597,4606350.000,-1115.320
704680.597,4606150.000,-1122.580
704680.597,4605950.000,-1126.220
704680.597,4605750.000,-1126.430
704680.597,4605550.000,-1123.980
704680.597,4605350.000,-1122.010
704680.597,4605150.000,-1118.920
704680.597,4604950.000,-1119.870
704680.597,4604750.000,-1118.760
704680.597,4604550.000,-1117.610
704680.597,4604350.000,-1116.020
704680.597,4604150.000,-1115.540
704680.597,4603950.000,-1116.610
704680.597,4603750.000,-1116.200
704680.597,4603550.000,-1112.730
704680.597,4603350.000,-1106.850
704680.597,4603150.000,-1100.230
704680.597,4602950.000,-1093.300
704680.597,4602750.000,-1088.490
704680.597,4602550.000,-1083.060
704680.597,4602350.000,-1055.080
704680.597,4602150.000,-1025.240
704680.597,4601950.000,-997.370
704680.597,4601750.000,-974.900
704680.597,4601550.000,-961.540
704680.597,4601350.000,-926.210
704680.597,4601150.000,-892.370
704680.597,4600950.000,-854.750
704680.597,4600750.000,-820.550
704680.597,4600550.000,-825.930
704680.597,4600350.000,-850.530
704680.597,4600150.000,-873.030
704680.597,4599950.000,-893.140
704680.597,4599750.000,-894.730
704680.597,4599550.000,-890.060
704680.597,4599350.000,-892.020
704680.597,4599150.000,-902.850
704680.597,4598950.000,-920.550
704680.597,4598750.000,-929.700
704680.597,4598550.000,-936.720
704680.597,4598350.000,-956.960
704680.597,4598150.000,-990.950
704680.597,4597950.000,-1025.080
704680.597,4597750.000,-1039.180
704680.597,4597550.000,-1044.200
704680.597,4597350.000,-1045.930
704680.597,4597150.000,-1046.210
704680.597,4596950.000,-1046.050
704680.597,4596750.000,-1045.150
704680.597,4596550.000,-1044.420
704680.597,4596350.000,-1042.340
704680.597,4596150.000,-1033.600
704680.597,4595950.000,-1020.730
704680.597,4595750.000,-1019.280
704680.597,4595550.000,-1026.150
704680.597,4595350.000,-1030.660
704680.597,4595150.000,-1034.910
704680.597,4594950.000,-1038.500
704680.597,4594750.000,-1040.190
704680.597,4594550.000,-1040.660
704680.597,4594350.000,-1040.700
704680.597,4594150.000,-1040.860
704680.597,4593950.000,-1041.130
704680.597,4593750.000,-1040.650
704880.597,4628950.000,-1113.390
704880.597,4628750.000,-1114.680
704880.597,4628550.000,-1115.600
704880.597,4628350.000,-1116.650
704880.597,4628150.000,-1118.090
704880.597,4627950.000,-1119.080
704880.597,4627750.000,-1120.480
704880.597,4627550.000,-1121.060
704880.597,4627350.000,-1122.230
704880.597,4627150.000,-1123.090
704880.597,4626950.000,-1123.620
704880.597,4626750.000,-1123.930
704880.597,4626550.000,-1125.320
704880.597,4626350.000,-1125.670
704880.597,4626150.000,-1126.700
704880.597,4625950.000,-1126.880
704880.597,4625750.000,-1127.340
704880.597,4625550.000,-1127.640
704880.597,4625350.000,-1128.480
704880.597,4625150.000,-1128.790
704880.597,4624950.000,-1129.660
704880.597,4624750.000,-1128.990
704880.597,4624550.000,-1129.610
704880.597,4624350.000,-1130.930
704880.597,4624150.000,-1131.860
704880.597,4623950.000,-1133.410
704880.597,4623750.000,-1133.700
704880.597,4623550.000,-1134.140
704880.597,4623350.000,-1135.100
704880.597,4623150.000,-1134.830
704880.597,4622950.000,-1135.340
704880.597,4622750.000,-1135.860
704880.597,4622550.000,-1135.950
704880.597,4622350.000,-1136.550
704880.597,4622150.000,-1136.660
704880.597,4621950.000,-1136.630
704880.597,4621750.000,-1136.750
704880.597,4621550.000,-1136.950
704880.597,4621350.000,-1136.900
704880.597,4621150.000,-1136.820
704880.597,4620950.000,-1137.130
704880.597,4620750.000,-1137.740
704880.597,4620550.000,-1138.330
704880.597,4620350.000,-1138.680
704880.597,4620150.000,-1138.810
704880.597,4619950.000,-1139.010
704880.597,4619750.000,-1139.310
704880.597,4619550.000,-1139.130
704880.597,4619350.000,-1139.170
704880.597,4619150.000,-1139.010
704880.597,4618950.000,-1138.640
704880.597,4618750.000,-1138.780
704880.597,4618550.000,-1138.810
704880.597,4618350.000,-1138.890
704880.597,4618150.000,-1139.010
704880.597,4617950.000,-1139.060
704880.597,4617750.000,-1139.150
704880.597,4617550.000,-1139.190
704880.597,4617350.000,-1139.180
704880.597,4617150.000,-1139.670
704880.597,4616950.000,-1140.090
704880.597,4616750.000,-1139.960
704880.597,4616550.000,-1139.970
704880.597,4616350.000,-1139.860
704880.597,4616150.000,-1140.170
704880.597,4615950.000,-1140.400
704880.597,4615750.000,-1140.460
704880.597,4615550.000,-1140.600
704880.597,4615350.000,-1140.060
704880.597,4615150.000,-1139.930
704880.597,4614950.000,-1139.910
704880.597,4614750.000,-1139.850
704880.597,4614550.000,-1139.330
704880.597,4614350.000,-1138.780
704880.597,4614150.000,-1138.550
704880.597,4613950.000,-1138.120
704880.597,4613750.000,-1138.430
704880.597,4613550.000,-1137.690
704880.597,4613350.000,-1137.420
704880.597,4613150.000,-1137.140
704880.597,4612950.000,-1137.080
704880.597,4612750.000,-1137.530
704880.597,4612550.000,-1138.650
704880.597,4612350.000,-1139.350
704880.597,4612150.000,-1140.190
704880.597,4611950.000,-1140.820
704880.597,4611750.000,-1140.980
704880.597,4611550.000,-1141.550
704880.597,4611350.000,-1141.590
704880.597,4611150.000,-1141.500
704880.597,4610950.000,-1141.150
704880.597,4610750.000,-1140.800
704880.597,4610550.000,-1140.460
704880.597,4610350.000,-1139.800
704880.597,4610150.000,-1139.340
704880.597,4609950.000,-1138.320
704880.597,4609750.000,-1137.360
704880.597,4609550.000,-1136.450
704880.597,4609350.000,-1135.160
704880.597,4609150.000,-1133.760
704880.597,4608950.000,-1132.100
704880.597,4608750.000,-1130.280
704880.597,4608550.000,-1128.710
704880.597,4608350.000,-1126.940
704880.597,4608150.000,-1124.730
704880.597,4607950.000,-1122.830
704880.597,4607750.000,-1120.000
704880.597,4607550.000,-1117.070
704880.597,4607350.000,-1113.940
704880.597,4607150.000,-1110.560
704880.597,4606950.000,-1107.910
704880.597,4606750.000,-1110.470
704880.597,4606550.000,-1119.540
704880.597,4606350.000,-1127.570
704880.597,4606150.000,-1131.080
704880.597,4605950.000,-1132.920
704880.597,4605750.000,-1132.090
704880.597,4605550.000,-1130.600
704880.597,4605350.000,-1131.300
704880.597,4605150.000,-1131.260
704880.597,4604950.000,-1132.950
704880.597,4604750.000,-1133.470
704880.597,4604550.000,-1133.960
704880.597,4604350.000,-1134.310
704880.597,4604150.000,-1132.260
704880.597,4603950.000,-1130.080
704880.597,4603750.000,-1124.470
704880.597,4603550.000,-1119.110
704880.597,4603350.000,-1112.260
704880.597,4603150.000,-1104.050
704880.597,4602950.000,-1095.370
704880.597,4602750.000,-1089.350
704880.597,4602550.000,-1087.590
704880.597,4602350.000,-1063.620
704880.597,4602150.000,-1027.340
704880.597,4601950.000,-996.540
704880.597,4601750.000,-965.560
704880.597,4601550.000,-946.090
704880.597,4601350.000,-917.490
704880.597,4601150.000,-877.560
704880.597,4600950.000,-843.790
704880.597,4600750.000,-818.640
704880.597,4600550.000,-796.720
704880.597,4600350.000,-811.240
704880.597,4600150.000,-843.080
704880.597,4599950.000,-891.410
704880.597,4599750.000,-899.960
704880.597,4599550.000,-892.440
704880.597,4599350.000,-891.620
704880.597,4599150.000,-901.740
704880.597,4598950.000,-918.570
704880.597,4598750.000,-931.370
704880.597,4598550.000,-947.150
704880.597,4598350.000,-966.450
704880.597,4598150.000,-992.540
704880.597,4597950.000,-1022.730
704880.597,4597750.000,-1038.760
704880.597,4597550.000,-1043.700
704880.597,4597350.000,-1045.830
704880.597,4597150.000,-1046.610
704880.597,4596950.000,-1046.880
704880.597,4596750.000,-1046.370
704880.597,4596550.000,-1045.210
704880.597,4596350.000,-1043.170
704880.597,4596150.000,-1034.410
704880.597,4595950.000,-1024.320
704880.597,4595750.000,-1026.310
704880.597,4595550.000,-1032.480
704880.597,4595350.000,-1036.770
704880.597,4595150.000,-1040.000
704880.597,4594950.000,-1043.380
704880.597,4594750.000,-1044.220
704880.597,4594550.000,-1044.140
704880.597,4594350.000,-1044.310
704880.597,4594150.000,-1044.590
704880.597,4593950.000,-1045.080
704880.597,4593750.000,-1044.980
705080.597,4628950.000,-1113.380
705080.597,4628750.000,-1114.970
705080.597,4628550.000,-1116.060
705080.597,4628350.000,-1117.160
705080.597,4628150.000,-1118.520
705080.597,4627950.000,-1119.520
705080.597,4627750.000,-1120.990
705080.597,4627550.000,-1121.730
705080.597,4627350.000,-1122.700
705080.597,4627150.000,-1123.060
705080.597,4626950.000,-1124.190
705080.597,4626750.000,-1125.150
705080.597,4626550.000,-1125.800
705080.597,4626350.000,-1125.690
705080.597,4626150.000,-1126.550
705080.597,4625950.000,-1126.710
705080.597,4625750.000,-1127.490
705080.597,4625550.000,-1127.700
705080.597,4625350.000,-1128.260
705080.597,4625150.000,-1129.030
705080.597,4624950.000,-1129.620
705080.597,4624750.000,-1130.480
705080.597,4624550.000,-1130.420
705080.597,4624350.000,-1130.270
705080.597,4624150.000,-1131.180
705080.597,4623950.000,-1131.990
705080.597,4623750.000,-1132.420
705080.597,4623550.000,-1131.460
705080.597,4623350.000,-1134.660
705080.597,4623150.000,-1134.980
705080.597,4622950.000,-1135.060
705080.597,4622750.000,-1135.090
705080.597,4622550.000,-1135.230
705080.597,4622350.000,-1135.460
705080.597,4622150.000,-1135.770
705080.597,4621950.000,-1136.220
705080.597,4621750.000,-1136.410
705080.597,4621550.000,-1136.350
705080.597,4621350.000,-1136.570
705080.597,4621150.000,-1136.640
705080.597,4620950.000,-1137.030
705080.597,4620750.000,-1137.540
705080.597,4620550.000,-1137.850
705080.597,4620350.000,-1138.080
705080.597,4620150.000,-1138.500
705080.597,4619950.000,-1138.870
705080.597,4619750.000,-1139.050
705080.597,4619550.000,-1139.260
705080.597,4619350.000,-1138.830
705080.597,4619150.000,-1138.930
705080.597,4618950.000,-1139.020
705080.597,4618750.000,-1139.050
705080.597,4618550.000,-1138.960
705080.597,4618350.000,-1138.780
705080.597,4618150.000,-1138.870
705080.597,4617950.000,-1138.940
705080.597,4617750.000,-1138.960
705080.597,4617550.000,-1139.050
705080.597,4617350.000,-1139.150
705080.597,4617150.000,-1139.770
705080.597,4616950.000,-1140.340
705080.597,4616750.000,-1140.090
705080.597,4616550.000,-1140.290
705080.597,4616350.000,-1140.160
705080.597,4616150.000,-1140.490
705080.597,4615950.000,-1140.050
705080.597,4615750.000,-1140.360
705080.597,4615550.000,-1140.320
705080.597,4615350.000,-1140.040
705080.597,4615150.000,-1139.850
705080.597,4614950.000,-1139.960
705080.597,4614750.000,-1139.850
705080.597,4614550.000,-1139.430
705080.597,4614350.000,-1138.900
705080.597,4614150.000,-1138.770
705080.597,4613950.000,-1137.770
705080.597,4613750.000,-1138.480
705080.597,4613550.000,-1138.290
705080.597,4613350.000,-1137.890
705080.597,4613150.000,-1137.060
705080.597,4612950.000,-1137.200
705080.597,4612750.000,-1136.770
705080.597,4612550.000,-1136.890
705080.597,4612350.000,-1137.740
705080.597,4612150.000,-1138.870
705080.597,4611950.000,-1139.470
705080.597,4611750.000,-1140.110
705080.597,4611550.000,-1140.620
705080.597,4611350.000,-1140.790
705080.597,4611150.000,-1140.890
705080.597,4610950.000,-1140.900
705080.597,4610750.000,-1140.800
705080.597,4610550.000,-1140.390
705080.597,4610350.000,-1140.300
705080.597,4610150.000,-1139.730
705080.597,4609950.000,-1138.960
705080.597,4609750.000,-1138.080
705080.597,4609550.000,-1137.080
705080.597,4609350.000,-1135.820
705080.597,4609150.000,-1134.280
705080.597,4608950.000,-1132.530
705080.597,4608750.000,-1130.570
705080.597,4608550.000,-1128.870
705080.597,4608350.000,-1126.950
705080.597,4608150.000,-1125.030
705080.597,4607950.000,-1123.190
705080.597,4607750.000,-1120.740
705080.597,4607550.000,-1118.370
705080.597,4607350.000,-1115.140
705080.597,4607150.000,-1112.580
705080.597,4606950.000,-1113.490
705080.597,4606750.000,-1123.340
705080.597,4606550.000,-1132.770
705080.597,4606350.000,-1137.130
705080.597,4606150.000,-1139.840
705080.597,4605950.000,-1142.930
705080.597,4605750.000,-1143.820
705080.597,4605550.000,-1147.110
705080.597,4605350.000,-1149.890
705080.597,4605150.000,-1150.340
705080.597,4604950.000,-1150.960
705080.597,4604750.000,-1150.830
705080.597,4604550.000,-1148.720
705080.597,4604350.000,-1146.840
705080.597,4604150.000,-1144.040
705080.597,4603950.000,-1140.700
705080.597,4603750.000,-1134.470
705080.597,4603550.000,-1129.430
705080.597,4603350.000,-1122.020
705080.597,4603150.000,-1112.300
705080.597,4602950.000,-1100.650
705080.597,4602750.000,-1091.100
705080.597,4602550.000,-1086.230
705080.597,4602350.000,-1071.780
705080.597,4602150.000,-1037.810
705080.597,4601950.000,-1012.090
705080.597,4601750.000,-973.910
705080.597,4601550.000,-937.500
705080.597,4601350.000,-898.010
705080.597,4601150.000,-849.310
705080.597,4600950.000,-823.460
705080.597,4600750.000,-797.570
705080.597,4600550.000,-776.940
705080.597,4600350.000,-775.630
705080.597,4600150.000,-812.410
705080.597,4599950.000,-880.920
705080.597,4599750.000,-908.710
705080.597,4599550.000,-907.190
705080.597,4599350.000,-897.360
705080.597,4599150.000,-899.990
705080.597,4598950.000,-913.530
705080.597,4598750.000,-929.880
705080.597,4598550.000,-949.460
705080.597,4598350.000,-973.350
705080.597,4598150.000,-997.330
705080.597,4597950.000,-1024.980
705080.597,4597750.000,-1039.150
705080.597,4597550.000,-1043.460
705080.597,4597350.000,-1045.210
705080.597,4597150.000,-1046.370
705080.597,4596950.000,-1046.560
705080.597,4596750.000,-1046.190
705080.597,4596550.000,-1044.600
705080.597,4596350.000,-1042.330
705080.597,4596150.000,-1034.080
705080.597,4595950.000,-1027.850
705080.597,4595750.000,-1032.730
705080.597,4595550.000,-1037.910
705080.597,4595350.000,-1041.820
705080.597,4595150.000,-1045.010
705080.597,4594950.000,-1047.450
705080.597,4594750.000,-1048.730
705080.597,4594550.000,-1048.140
705080.597,4594350.000,-1048.060
705080.597,4594150.000,-1048.420
705080.597,4593950.000,-1049.110
705080.597,4593750.000,-1048.760
705280.597,4628950.000,-1112.230
705280.597,4628750.000,-1114.060
705280.597,4628550.000,-1115.550
705280.597,4628350.000,-1116.860
705280.597,4628150.000,-1118.160
705280.597,4627950.000,-1119.480
705280.597,4627750.000,-1120.610
705280.597,4627550.000,-1121.350
705280.597,4627350.000,-1122.610
705280.597,4627150.000,-1123.520
705280.597,4626950.000,-1125.030
705280.597,4626750.000,-1125.770
705280.597,4626550.000,-1126.170
705280.597,4626350.000,-1126.430
705280.597,4626150.000,-1127.010
705280.597,4625950.000,-1127.040
705280.597,4625750.000,-1127.540
705280.597,4625550.000,-1128.390
705280.597,4625350.000,-1128.320
705280.597,4625150.000,-1128.940
705280.597,4624950.000,-1129.400
705280.597,4624750.000,-1130.340
705280.597,4624550.000,-1131.040
705280.597,4624350.000,-1131.310
705280.597,4624150.000,-1131.590
705280.597,4623950.000,-1132.190
705280.597,4623750.000,-1132.660
705280.597,4623550.000,-1133.060
705280.597,4623350.000,-1135.310
705280.597,4623150.000,-1135.490
705280.597,4622950.000,-1135.340
705280.597,4622750.000,-1135.220
705280.597,4622550.000,-1135.140
705280.597,4622350.000,-1135.430
705280.597,4622150.000,-1135.300
705280.597,4621950.000,-1135.340
705280.597,4621750.000,-1135.530
705280.597,4621550.000,-1136.200
705280.597,4621350.000,-1136.060
705280.597,4621150.000,-1136.560
705280.597,4620950.000,-1136.940
705280.597,4620750.000,-1137.370
705280.597,4620550.000,-1137.840
705280.597,4620350.000,-1137.880
705280.597,4620150.000,-1138.200
705280.597,4619950.000,-1138.270
705280.597,4619750.000,-1138.260
705280.597,4619550.000,-1138.200
705280.597,4619350.000,-1137.990
705280.597,4619150.000,-1138.170
705280.597,4618950.000,-1138.610
705280.597,4618750.000,-1138.940
705280.597,4618550.000,-1138.630
705280.597,4618350.000,-1138.790
705280.597,4618150.000,-1138.830
705280.597,4617950.000,-1138.990
705280.597,4617750.000,-1139.070
705280.597,4617550.000,-1139.100
705280.597,4617350.000,-1139.100
705280.597,4617150.000,-1139.570
705280.597,4616950.000,-1140.290
705280.597,4616750.000,-1140.640
705280.597,4616550.000,-1140.660
705280.597,4616350.000,-1140.700
705280.597,4616150.000,-1140.700
705280.597,4615950.000,-1140.330
705280.597,4615750.000,-1140.440
705280.597,4615550.000,-1140.040
705280.597,4615350.000,-1140.060
705280.597,4615150.000,-1139.890
705280.597,4614950.000,-1140.140
705280.597,4614750.000,-1139.870
705280.597,4614550.000,-1139.490
705280.597,4614350.000,-1139.280
705280.597,4614150.000,-1138.390
705280.597,4613950.000,-1137.190
705280.597,4613750.000,-1137.760
705280.597,4613550.000,-1137.800
705280.597,4613350.000,-1138.380
705280.597,4613150.000,-1138.090
705280.597,4612950.000,-1137.910
705280.597,4612750.000,-1137.040
705280.597,4612550.000,-1136.950
705280.597,4612350.000,-1137.680
705280.597,4612150.000,-1138.950
705280.597,4611950.000,-1139.150
705280.597,4611750.000,-1139.730
705280.597,4611550.000,-1139.950
705280.597,4611350.000,-1140.170
705280.597,4611150.000,-1140.160
705280.597,4610950.000,-1140.090
705280.597,4610750.000,-1139.830
705280.597,4610550.000,-1139.710
705280.597,4610350.000,-1139.340
705280.597,4610150.000,-1139.030
705280.597,4609950.000,-1138.510
705280.597,4609750.000,-1137.820
705280.597,4609550.000,-1136.700
705280.597,4609350.000,-1135.810
705280.597,4609150.000,-1134.250
705280.597,4608950.000,-1132.920
705280.597,4608750.000,-1131.440
705280.597,4608550.000,-1129.690
705280.597,4608350.000,-1127.940
705280.597,4608150.000,-1126.050
705280.597,4607950.000,-1124.190
705280.597,4607750.000,-1122.240
705280.597,4607550.000,-1120.150
705280.597,4607350.000,-1119.180
705280.597,4607150.000,-1121.950
705280.597,4606950.000,-1129.600
705280.597,4606750.000,-1135.370
705280.597,4606550.000,-1142.970
705280.597,4606350.000,-1146.840
705280.597,4606150.000,-1151.850
705280.597,4605950.000,-1155.970
705280.597,4605750.000,-1157.960
705280.597,4605550.000,-1158.390
705280.597,4605350.000,-1157.980
705280.597,4605150.000,-1157.240
705280.597,4604950.000,-1155.950
705280.597,4604750.000,-1153.240
705280.597,4604550.000,-1150.890
705280.597,4604350.000,-1149.150
705280.597,4604150.000,-1145.950
705280.597,4603950.000,-1142.600
705280.597,4603750.000,-1138.230
705280.597,4603550.000,-1134.100
705280.597,4603350.000,-1128.470
705280.597,4603150.000,-1118.570
705280.597,4602950.000,-1103.670
705280.597,4602750.000,-1082.890
705280.597,4602550.000,-1061.810
705280.597,4602350.000,-1058.830
705280.597,4602150.000,-1041.100
705280.597,4601950.000,-993.550
705280.597,4601750.000,-949.350
705280.597,4601550.000,-915.790
705280.597,4601350.000,-874.540
705280.597,4601150.000,-832.200
705280.597,4600950.000,-805.490
705280.597,4600750.000,-784.160
705280.597,4600550.000,-764.600
705280.597,4600350.000,-753.860
705280.597,4600150.000,-791.020
705280.597,4599950.000,-845.170
705280.597,4599750.000,-901.490
705280.597,4599550.000,-925.010
705280.597,4599350.000,-908.570
705280.597,4599150.000,-902.310
705280.597,4598950.000,-909.800
705280.597,4598750.000,-928.160
705280.597,4598550.000,-952.490
705280.597,4598350.000,-974.210
705280.597,4598150.000,-1000.940
705280.597,4597950.000,-1027.770
705280.597,4597750.000,-1039.790
705280.597,4597550.000,-1043.670
705280.597,4597350.000,-1046.290
705280.597,4597150.000,-1046.420
705280.597,4596950.000,-1045.820
705280.597,4596750.000,-1044.550
705280.597,4596550.000,-1041.670
705280.597,4596350.000,-1038.620
705280.597,4596150.000,-1031.740
705280.597,4595950.000,-1029.900
705280.597,4595750.000,-1036.820
705280.597,4595550.000,-1041.990
705280.597,4595350.000,-1046.080
705280.597,4595150.000,-1049.410
705280.597,4594950.000,-1051.620
705280.597,4594750.000,-1052.180
705280.597,4594550.000,-1051.380
705280.597,4594350.000,-1051.940
705280.597,4594150.000,-1052.410
705280.597,4593950.000,-1052.780
705280.597,4593750.000,-1052.470
705480.597,4628950.000,-1112.640
705480.597,4628750.000,-1113.760
705480.597,4628550.000,-1114.280
705480.597,4628350.000,-1116.320
705480.597,4628150.000,-1117.170
705480.597,4627950.000,-1117.980
705480.597,4627750.000,-1119.270
705480.597,4627550.000,-1120.400
705480.597,4627350.000,-1121.850
705480.597,4627150.000,-1122.830
705480.597,4626950.000,-1123.940
705480.597,4626750.000,-1125.290
705480.597,4626550.000,-1126.040
705480.597,4626350.000,-1126.340
705480.597,4626150.000,-1126.940
705480.597,4625950.000,-1127.300
705480.597,4625750.000,-1128.180
705480.597,4625550.000,-1128.780
705480.597,4625350.000,-1129.430
705480.597,4625150.000,-1129.620
705480.597,4624950.000,-1129.690
705480.597,4624750.000,-1130.450
705480.597,4624550.000,-1130.590
705480.597,4624350.000,-1130.390
705480.597,4624150.000,-1131.490
705480.597,4623950.000,-1131.780
705480.597,4623750.000,-1132.730
705480.597,4623550.000,-1133.640
705480.597,4623350.000,-1135.180
705480.597,4623150.000,-1135.530
705480.597,4622950.000,-1135.460
705480.597,4622750.000,-1135.360
705480.597,4622550.000,-1135.500
705480.597,4622350.000,-1135.610
705480.597,4622150.000,-1135.870
705480.597,4621950.000,-1135.430
705480.597,4621750.000,-1135.540
705480.597,4621550.000,-1135.790
705480.597,4621350.000,-1136.060
705480.597,4621150.000,-1135.940
705480.597,4620950.000,-1136.220
705480.597,4620750.000,-1136.400
705480.597,4620550.000,-1137.270
705480.597,4620350.000,-1137.590
705480.597,4620150.000,-1137.440
705480.597,4619950.000,-1137.790
705480.597,4619750.000,-1137.940
705480.597,4619550.000,-1137.970
705480.597,4619350.000,-1137.850
705480.597,4619150.000,-1137.840
705480.597,4618950.000,-1137.870
705480.597,4618750.000,-1137.750
705480.597,4618550.000,-1137.960
705480.597,4618350.000,-1138.210
705480.597,4618150.000,-1138.420
705480.597,4617950.000,-1138.840
705480.597,4617750.000,-1138.950
705480.597,4617550.000,-1138.940
705480.597,4617350.000,-1138.730
705480.597,4617150.000,-1138.840
705480.597,4616950.000,-1139.590
705480.597,4616750.000,-1139.950
705480.597,4616550.000,-1140.480
705480.597,4616350.000,-1140.790
705480.597,4616150.000,-1140.920
705480.597,4615950.000,-1141.050
705480.597,4615750.000,-1140.990
705480.597,4615550.000,-1140.600
705480.597,4615350.000,-1140.180
705480.597,4615150.000,-1140.040
705480.597,4614950.000,-1140.050
705480.597,4614750.000,-1139.940
705480.597,4614550.000,-1139.700
705480.597,4614350.000,-1139.550
705480.597,4614150.000,-1138.870
705480.597,4613950.000,-1137.590
705480.597,4613750.000,-1137.710
705480.597,4613550.000,-1137.440
705480.597,4613350.000,-1137.850
705480.597,4613150.000,-1137.770
705480.597,4612950.000,-1137.890
705480.597,4612750.000,-1137.100
705480.597,4612550.000,-1137.140
705480.597,4612350.000,-1138.210
705480.597,4612150.000,-1139.060
705480.597,4611950.000,-1139.470
705480.597,4611750.000,-1139.730
705480.597,4611550.000,-1139.970
705480.597,4611350.000,-1140.220
705480.597,4611150.000,-1140.220
705480.597,4610950.000,-1140.110
705480.597,4610750.000,-1139.850
705480.597,4610550.000,-1139.710
705480.597,4610350.000,-1138.890
705480.597,4610150.000,-1138.540
705480.597,4609950.000,-1137.820
705480.597,4609750.000,-1136.780
705480.597,4609550.000,-1135.630
705480.597,4609350.000,-1134.880
705480.597,4609150.000,-1133.670
705480.597,4608950.000,-1132.540
705480.597,4608750.000,-1131.260
705480.597,4608550.000,-1129.750
705480.597,4608350.000,-1128.620
705480.597,4608150.000,-1127.360
705480.597,4607950.000,-1125.810
705480.597,4607750.000,-1124.650
705480.597,4607550.000,-1125.710
705480.597,4607350.000,-1128.030
705480.597,4607150.000,-1135.330
705480.597,4606950.000,-1143.940
705480.597,4606750.000,-1148.760
705480.597,4606550.000,-1152.540
705480.597,4606350.000,-1156.760
705480.597,4606150.000,-1160.340
705480.597,4605950.000,-1162.820
705480.597,4605750.000,-1162.930
705480.597,4605550.000,-1161.830
705480.597,4605350.000,-1160.650
705480.597,4605150.000,-1159.550
705480.597,4604950.000,-1157.080
705480.597,4604750.000,-1154.680
705480.597,4604550.000,-1153.510
705480.597,4604350.000,-1150.500
705480.597,4604150.000,-1147.140
705480.597,4603950.000,-1143.680
705480.597,4603750.000,-1141.180
705480.597,4603550.000,-1130.230
705480.597,4603350.000,-1113.050
705480.597,4603150.000,-1089.520
705480.597,4602950.000,-1057.300
705480.597,4602750.000,-1034.320
705480.597,4602550.000,-1017.610
705480.597,4602350.000,-1007.570
705480.597,4602150.000,-1001.430
705480.597,4601950.000,-965.600
705480.597,4601750.000,-928.120
705480.597,4601550.000,-889.800
705480.597,4601350.000,-850.170
705480.597,4601150.000,-818.830
705480.597,4600950.000,-792.350
705480.597,4600750.000,-774.260
705480.597,4600550.000,-751.520
705480.597,4600350.000,-740.710
705480.597,4600150.000,-768.400
705480.597,4599950.000,-826.410
705480.597,4599750.000,-909.180
705480.597,4599550.000,-939.720
705480.597,4599350.000,-925.840
705480.597,4599150.000,-913.050
705480.597,4598950.000,-917.490
705480.597,4598750.000,-925.810
705480.597,4598550.000,-945.850
705480.597,4598350.000,-974.620
705480.597,4598150.000,-1002.600
705480.597,4597950.000,-1032.780
705480.597,4597750.000,-1042.180
705480.597,4597550.000,-1044.840
705480.597,4597350.000,-1045.520
705480.597,4597150.000,-1045.390
705480.597,4596950.000,-1044.080
705480.597,4596750.000,-1041.880
705480.597,4596550.000,-1037.550
705480.597,4596350.000,-1032.840
705480.597,4596150.000,-1031.740
705480.597,4595950.000,-1035.500
705480.597,4595750.000,-1040.230
705480.597,4595550.000,-1044.130
705480.597,4595350.000,-1048.160
705480.597,4595150.000,-1051.690
705480.597,4594950.000,-1055.000
705480.597,4594750.000,-1054.420
705480.597,4594550.000,-1054.720
705480.597,4594350.000,-1055.910
705480.597,4594150.000,-1055.970
705480.597,4593950.000,-1056.200
705480.597,4593750.000,-1056.550
705680.597,4628950.000,-1111.710
705680.597,4628750.000,-1113.180
705680.597,4628550.000,-1113.400
705680.597,4628350.000,-1115.380
705680.597,4628150.000,-1115.990
705680.597,4627950.000,-1117.640
705680.597,4627750.000,-1119.120
705680.597,4627550.000,-1119.720
705680.597,4627350.000,-1120.950
705680.597,4627150.000,-1122.120
705680.597,4626950.000,-1123.180
705680.597,4626750.000,-1123.920
705680.597,4626550.000,-1124.620
705680.597,4626350.000,-1125.510
705680.597,4626150.000,-1125.980
705680.597,4625950.000,-1126.880
705680.597,4625750.000,-1127.720
705680.597,4625550.000,-1128.280
705680.597,4625350.000,-1129.070
705680.597,4625150.000,-1129.010
705680.597,4624950.000,-1130.220
705680.597,4624750.000,-1131.090
705680.597,4624550.000,-1130.990
705680.597,4624350.000,-1131.210
705680.597,4624150.000,-1131.590
705680.597,4623950.000,-1132.340
705680.597,4623750.000,-1132.700
705680.597,4623550.000,-1133.390
705680.597,4623350.000,-1135.420
705680.597,4623150.000,-1135.510
705680.597,4622950.000,-1135.460
705680.597,4622750.000,-1135.550
705680.597,4622550.000,-1135.740
705680.597,4622350.000,-1135.970
705680.597,4622150.000,-1136.090
705680.597,4621950.000,-1135.880
705680.597,4621750.000,-1135.900
705680.597,4621550.000,-1136.170
705680.597,4621350.000,-1136.080
705680.597,4621150.000,-1136.650
705680.597,4620950.000,-1136.550
705680.597,4620750.000,-1136.700
705680.597,4620550.000,-1136.310
705680.597,4620350.000,-1136.640
705680.597,4620150.000,-1136.610
705680.597,4619950.000,-1136.790
705680.597,4619750.000,-1137.130
705680.597,4619550.000,-1137.220
705680.597,4619350.000,-1137.010
705680.597,4619150.000,-1137.150
705680.597,4618950.000,-1137.330
705680.597,4618750.000,-1137.320
705680.597,4618550.000,-1137.320
705680.597,4618350.000,-1137.450
705680.597,4618150.000,-1137.860
705680.597,4617950.000,-1137.790
705680.597,4617750.000,-1137.850
705680.597,4617550.000,-1137.970
705680.597,4617350.000,-1138.080
705680.597,4617150.000,-1138.170
705680.597,4616950.000,-1138.130
705680.597,4616750.000,-1138.540
705680.597,4616550.000,-1139.020
705680.597,4616350.000,-1139.670
705680.597,4616150.000,-1140.430
705680.597,4615950.000,-1140.840
705680.597,4615750.000,-1141.090
705680.597,4615550.000,-1141.110
705680.597,4615350.000,-1140.910
705680.597,4615150.000,-1140.550
705680.597,4614950.000,-1140.170
705680.597,4614750.000,-1140.020
705680.597,4614550.000,-1139.840
705680.597,4614350.000,-1139.490
705680.597,4614150.000,-1138.460
705680.597,4613950.000,-1138.070
705680.597,4613750.000,-1138.970
705680.597,4613550.000,-1139.100
705680.597,4613350.000,-1138.330
705680.597,4613150.000,-1138.190
705680.597,4612950.000,-1138.730
705680.597,4612750.000,-1137.110
705680.597,4612550.000,-1137.380
705680.597,4612350.000,-1138.220
705680.597,4612150.000,-1138.920
705680.597,4611950.000,-1139.200
705680.597,4611750.000,-1139.470
705680.597,4611550.000,-1139.960
705680.597,4611350.000,-1140.140
705680.597,4611150.000,-1140.060
705680.597,4610950.000,-1139.950
705680.597,4610750.000,-1139.730
705680.597,4610550.000,-1139.730
705680.597,4610350.000,-1138.660
705680.597,4610150.000,-1138.410
705680.597,4609950.000,-1137.990
705680.597,4609750.000,-1136.700
705680.597,4609550.000,-1135.440
705680.597,4609350.000,-1134.450
705680.597,4609150.000,-1133.430
