657905.597,4611475.000,-140.021
657905.597,4611425.000,-140.101
657905.597,4611375.000,-140.166
657905.597,4611325.000,-140.238
657905.597,4611275.000,-140.191
657905.597,4611225.000,-140.299
657905.597,4611175.000,-140.673
657905.597,4611125.000,-141.109
657905.597,4611075.000,-141.393
657905.597,4611025.000,-141.591
657905.597,4610975.000,-142.092
657905.597,4610925.000,-142.604
657905.597,4610875.000,-142.816
657905.597,4610825.000,-143.016
657905.597,4610775.000,-143.068
657905.597,4610725.000,-143.073
657905.597,4610675.000,-143.096
657905.597,4610625.000,-143.090
657905.597,4610575.000,-143.113
657905.597,4610525.000,-143.083
657905.597,4610475.000,-142.992
657905.597,4610425.000,-142.655
657905.597,4610375.000,-142.595
657905.597,4610325.000,-142.343
657905.597,4610275.000,-141.449
657905.597,4610225.000,-140.313
657905.597,4610175.000,-139.874
657905.597,4610125.000,-139.818
657905.597,4610075.000,-139.295
657905.597,4610025.000,-139.321
657905.597,4609975.000,-139.710
657905.597,4609925.000,-140.295
657905.597,4609875.000,-140.230
657905.597,4609825.000,-139.304
657905.597,4609775.000,-138.083
657905.597,4609725.000,-137.864
657905.597,4609675.000,-138.168
657905.597,4609625.000,-138.444
657905.597,4609575.000,-138.683
657905.597,4609525.000,-138.890
657905.597,4609475.000,-139.112
657905.597,4609425.000,-139.423
657905.597,4609375.000,-139.813
657905.597,4609325.000,-140.283
657905.597,4609275.000,-140.693
657905.597,4609225.000,-141.078
657905.597,4609175.000,-141.479
657905.597,4609125.000,-141.822
657905.597,4609075.000,-142.178
657905.597,4609025.000,-142.500
657905.597,4608975.000,-142.787
657905.597,4608925.000,-143.068
657905.597,4608875.000,-143.163
657905.597,4608825.000,-143.232
657905.597,4608775.000,-143.344
657905.597,4608725.000,-143.473
657905.597,4608675.000,-143.654
657905.597,4608625.000,-143.897
657905.597,4608575.000,-144.080
657905.597,4608525.000,-144.237
657905.597,4608475.000,-144.411
657905.597,4608425.000,-144.640
657905.597,4608375.000,-144.965
657905.597,4608325.000,-145.316
657905.597,4608275.000,-145.635
657905.597,4608225.000,-145.988
657905.597,4608175.000,-146.342
657905.597,4608125.000,-146.683
657905.597,4608075.000,-147.045
657905.597,4608025.000,-147.414
657905.597,4607975.000,-147.768
657905.597,4607925.000,-148.012
657905.597,4607875.000,-148.219
657905.597,4607825.000,-148.443
657905.597,4607775.000,-148.640
657905.597,4607725.000,-148.839
657905.597,4607675.000,-149.034
657905.597,4607625.000,-149.211
657905.597,4607575.000,-149.371
657905.597,4607525.000,-149.478
657905.597,4607475.000,-149.590
657905.597,4607425.000,-149.675
657905.597,4607375.000,-149.808
657905.597,4607325.000,-149.943
657905.597,4607275.000,-150.083
657905.597,4607225.000,-150.226
657905.597,4607175.000,-150.381
657905.597,4607125.000,-150.522
657905.597,4607075.000,-150.668
657905.597,4607025.000,-150.777
657905.597,4606975.000,-150.823
657905.597,4606925.000,-150.854
657905.597,4606875.000,-150.972
657905.597,4606825.000,-151.090
657905.597,4606775.000,-151.137
657905.597,4606725.000,-151.169
657905.597,4606675.000,-151.194
657905.597,4606625.000,-151.182
657905.597,4606575.000,-151.163
657905.597,4606525.000,-151.144
657905.597,4606475.000,-151.074
657955.597,4613875.000,-177.385
657955.597,4613825.000,-171.967
657955.597,4613775.000,-165.549
657955.597,4613725.000,-159.008
657955.597,4613675.000,-155.848
657955.597,4613625.000,-154.764
657955.597,4613575.000,-153.608
657955.597,4613525.000,-152.348
657955.597,4613475.000,-151.466
657955.597,4613425.000,-151.290
657955.597,4613375.000,-150.866
657955.597,4613325.000,-150.363
657955.597,4613275.000,-149.796
657955.597,4613225.000,-149.531
657955.597,4613175.000,-149.372
657955.597,4613125.000,-149.334
657955.597,4613075.000,-149.180
657955.597,4613025.000,-148.892
657955.597,4612975.000,-148.268
657955.597,4612925.000,-147.910
657955.597,4612875.000,-147.626
657955.597,4612825.000,-146.913
657955.597,4612775.000,-146.516
657955.597,4612725.000,-145.819
657955.597,4612675.000,-144.821
657955.597,4612625.000,-143.790
657955.597,4612575.000,-143.051
657955.597,4612525.000,-142.659
657955.597,4612475.000,-142.485
657955.597,4612425.000,-142.251
657955.597,4612375.000,-142.299
657955.597,4612325.000,-142.688
657955.597,4612275.000,-142.872
657955.597,4612225.000,-142.831
657955.597,4612175.000,-143.394
657955.597,4612125.000,-143.935
657955.597,4612075.000,-143.969
657955.597,4612025.000,-143.857
657955.597,4611975.000,-143.259
657955.597,4611925.000,-142.169
657955.597,4611875.000,-141.063
657955.597,4611825.000,-140.308
657955.597,4611775.000,-140.062
657955.597,4611725.000,-139.947
657955.597,4611675.000,-139.903
657955.597,4611625.000,-139.884
657955.597,4611575.000,-139.865
657955.597,4611525.000,-139.875
657955.597,4611475.000,-139.954
657955.597,4611425.000,-140.050
657955.597,4611375.000,-140.166
657955.597,4611325.000,-140.217
657955.597,4611275.000,-140.051
657955.597,4611225.000,-139.992
657955.597,4611175.000,-140.329
657955.597,4611125.000,-140.741
657955.597,4611075.000,-141.038
657955.597,4611025.000,-141.384
657955.597,4610975.000,-141.826
657955.597,4610925.000,-142.324
657955.597,4610875.000,-142.634
657955.597,4610825.000,-142.867
657955.597,4610775.000,-143.036
657955.597,4610725.000,-143.012
657955.597,4610675.000,-142.959
657955.597,4610625.000,-142.948
657955.597,4610575.000,-142.931
657955.597,4610525.000,-142.615
657955.597,4610475.000,-141.693
657955.597,4610425.000,-141.488
657955.597,4610375.000,-141.691
657955.597,4610325.000,-141.427
657955.597,4610275.000,-140.809
657955.597,4610225.000,-140.135
657955.597,4610175.000,-139.851
657955.597,4610125.000,-139.843
657955.597,4610075.000,-139.456
657955.597,4610025.000,-138.792
657955.597,4609975.000,-138.994
657955.597,4609925.000,-139.287
657955.597,4609875.000,-139.301
657955.597,4609825.000,-138.333
657955.597,4609775.000,-137.320
657955.597,4609725.000,-137.566
657955.597,4609675.000,-137.886
657955.597,4609625.000,-138.126
657955.597,4609575.000,-138.387
657955.597,4609525.000,-138.599
657955.597,4609475.000,-138.860
657955.597,4609425.000,-139.120
657955.597,4609375.000,-139.499
657955.597,4609325.000,-140.011
657955.597,4609275.000,-140.425
657955.597,4609225.000,-140.805
657955.597,4609175.000,-141.202
657955.597,4609125.000,-141.607
657955.597,4609075.000,-141.973
657955.597,4609025.000,-142.309
657955.597,4608975.000,-142.661
657955.597,4608925.000,-142.912
657955.597,4608875.000,-143.046
657955.597,4608825.000,-143.151
657955.597,4608775.000,-143.286
657955.597,4608725.000,-143.408
657955.597,4608675.000,-143.602
657955.597,4608625.000,-143.888
657955.597,4608575.000,-144.106
657955.597,4608525.000,-144.289
657955.597,4608475.000,-144.541
657955.597,4608425.000,-144.791
657955.597,4608375.000,-145.119
657955.597,4608325.000,-145.485
657955.597,4608275.000,-145.889
657955.597,4608225.000,-146.215
657955.597,4608175.000,-146.543
657955.597,4608125.000,-146.891
657955.597,4608075.000,-147.264
657955.597,4608025.000,-147.637
657955.597,4607975.000,-147.982
657955.597,4607925.000,-148.244
657955.597,4607875.000,-148.437
657955.597,4607825.000,-148.643
657955.597,4607775.000,-148.797
657955.597,4607725.000,-149.060
657955.597,4607675.000,-149.242
657955.597,4607625.000,-149.438
657955.597,4607575.000,-149.603
657955.597,4607525.000,-149.693
657955.597,4607475.000,-149.799
657955.597,4607425.000,-149.881
657955.597,4607375.000,-149.943
657955.597,4607325.000,-150.079
657955.597,4607275.000,-150.232
657955.597,4607225.000,-150.371
657955.597,4607175.000,-150.495
657955.597,4607125.000,-150.594
657955.597,4607075.000,-150.707
657955.597,4607025.000,-150.819
657955.597,4606975.000,-150.881
657955.597,4606925.000,-150.958
657955.597,4606875.000,-151.082
657955.597,4606825.000,-151.151
657955.597,4606775.000,-151.217
657955.597,4606725.000,-151.269
657955.597,4606675.000,-151.288
657955.597,4606625.000,-151.257
657955.597,4606575.000,-151.257
657955.597,4606525.000,-151.280
657955.597,4606475.000,-151.194
658005.597,4613875.000,-177.343
658005.597,4613825.000,-171.847
658005.597,4613775.000,-166.651
658005.597,4613725.000,-160.824
658005.597,4613675.000,-156.884
658005.597,4613625.000,-155.545
658005.597,4613575.000,-154.186
658005.597,4613525.000,-152.555
658005.597,4613475.000,-151.065
658005.597,4613425.000,-150.658
658005.597,4613375.000,-150.867
658005.597,4613325.000,-150.777
658005.597,4613275.000,-150.451
658005.597,4613225.000,-150.154
658005.597,4613175.000,-149.712
658005.597,4613125.000,-149.439
658005.597,4613075.000,-149.237
658005.597,4613025.000,-148.873
658005.597,4612975.000,-148.191
658005.597,4612925.000,-147.783
658005.597,4612875.000,-147.494
658005.597,4612825.000,-147.044
658005.597,4612775.000,-146.887
658005.597,4612725.000,-146.278
658005.597,4612675.000,-145.514
658005.597,4612625.000,-144.924
658005.597,4612575.000,-143.891
658005.597,4612525.000,-142.965
658005.597,4612475.000,-142.571
658005.597,4612425.000,-142.419
658005.597,4612375.000,-142.429
658005.597,4612325.000,-142.312
658005.597,4612275.000,-141.829
658005.597,4612225.000,-141.474
658005.597,4612175.000,-142.063
658005.597,4612125.000,-142.852
658005.597,4612075.000,-143.423
658005.597,4612025.000,-143.726
658005.597,4611975.000,-143.544
658005.597,4611925.000,-143.257
658005.597,4611875.000,-141.996
658005.597,4611825.000,-140.744
658005.597,4611775.000,-140.447
658005.597,4611725.000,-140.450
658005.597,4611675.000,-140.364
658005.597,4611625.000,-140.321
658005.597,4611575.000,-140.195
658005.597,4611525.000,-140.100
658005.597,4611475.000,-140.056
658005.597,4611425.000,-140.073
658005.597,4611375.000,-140.101
658005.597,4611325.000,-140.141
658005.597,4611275.000,-140.090
658005.597,4611225.000,-140.000
658005.597,4611175.000,-140.233
658005.597,4611125.000,-140.643
658005.597,4611075.000,-141.102
658005.597,4611025.000,-141.363
658005.597,4610975.000,-141.579
658005.597,4610925.000,-141.879
658005.597,4610875.000,-142.209
658005.597,4610825.000,-142.455
658005.597,4610775.000,-142.609
658005.597,4610725.000,-142.684
658005.597,4610675.000,-142.635
658005.597,4610625.000,-142.592
658005.597,4610575.000,-142.438
658005.597,4610525.000,-141.634
658005.597,4610475.000,-139.943
658005.597,4610425.000,-138.925
658005.597,4610375.000,-139.626
658005.597,4610325.000,-139.971
658005.597,4610275.000,-140.018
658005.597,4610225.000,-139.832
658005.597,4610175.000,-139.582
658005.597,4610125.000,-139.322
658005.597,4610075.000,-138.846
658005.597,4610025.000,-138.451
658005.597,4609975.000,-138.459
658005.597,4609925.000,-138.763
658005.597,4609875.000,-138.955
658005.597,4609825.000,-138.067
658005.597,4609775.000,-137.147
658005.597,4609725.000,-137.263
658005.597,4609675.000,-137.725
658005.597,4609625.000,-137.997
658005.597,4609575.000,-138.275
658005.597,4609525.000,-138.500
658005.597,4609475.000,-138.753
658005.597,4609425.000,-139.031
658005.597,4609375.000,-139.429
658005.597,4609325.000,-139.931
658005.597,4609275.000,-140.358
658005.597,4609225.000,-140.759
658005.597,4609175.000,-141.173
658005.597,4609125.000,-141.571
658005.597,4609075.000,-141.925
658005.597,4609025.000,-142.277
658005.597,4608975.000,-142.657
658005.597,4608925.000,-142.941
658005.597,4608875.000,-143.119
658005.597,4608825.000,-143.205
658005.597,4608775.000,-143.301
658005.597,4608725.000,-143.439
658005.597,4608675.000,-143.651
658005.597,4608625.000,-143.902
658005.597,4608575.000,-144.201
658005.597,4608525.000,-144.546
658005.597,4608475.000,-144.911
658005.597,4608425.000,-145.203
658005.597,4608375.000,-145.548
658005.597,4608325.000,-146.006
658005.597,4608275.000,-146.380
658005.597,4608225.000,-146.644
658005.597,4608175.000,-146.893
658005.597,4608125.000,-147.246
658005.597,4608075.000,-147.619
658005.597,4608025.000,-147.998
658005.597,4607975.000,-148.513
658005.597,4607925.000,-148.805
658005.597,4607875.000,-149.019
658005.597,4607825.000,-149.145
658005.597,4607775.000,-149.271
658005.597,4607725.000,-149.456
658005.597,4607675.000,-149.681
658005.597,4607625.000,-149.934
658005.597,4607575.000,-150.078
658005.597,4607525.000,-150.158
658005.597,4607475.000,-150.281
658005.597,4607425.000,-150.412
658005.597,4607375.000,-150.507
658005.597,4607325.000,-150.585
658005.597,4607275.000,-150.638
658005.597,4607225.000,-150.726
658005.597,4607175.000,-150.814
658005.597,4607125.000,-150.908
658005.597,4607075.000,-151.065
658005.597,4607025.000,-151.141
658005.597,4606975.000,-151.207
658005.597,4606925.000,-151.261
658005.597,4606875.000,-151.356
658005.597,4606825.000,-151.458
658005.597,4606775.000,-151.551
658005.597,4606725.000,-151.557
658005.597,4606675.000,-151.563
658005.597,4606625.000,-151.539
658005.597,4606575.000,-151.567
658005.597,4606525.000,-151.606
658005.597,4606475.000,-151.574
658055.597,4613875.000,-178.102
658055.597,4613825.000,-172.160
658055.597,4613775.000,-167.540
658055.597,4613725.000,-162.673
658055.597,4613675.000,-158.547
658055.597,4613625.000,-156.639
658055.597,4613575.000,-155.194
658055.597,4613525.000,-153.722
658055.597,4613475.000,-152.072
658055.597,4613425.000,-150.656
658055.597,4613375.000,-150.774
658055.597,4613325.000,-150.881
658055.597,4613275.000,-150.662
658055.597,4613225.000,-150.452
658055.597,4613175.000,-150.053
658055.597,4613125.000,-149.695
658055.597,4613075.000,-149.416
658055.597,4613025.000,-149.003
658055.597,4612975.000,-148.498
658055.597,4612925.000,-148.128
658055.597,4612875.000,-147.797
658055.597,4612825.000,-147.516
658055.597,4612775.000,-147.432
658055.597,4612725.000,-146.598
658055.597,4612675.000,-145.701
658055.597,4612625.000,-145.714
658055.597,4612575.000,-145.208
658055.597,4612525.000,-144.022
658055.597,4612475.000,-143.566
658055.597,4612425.000,-143.698
658055.597,4612375.000,-143.554
658055.597,4612325.000,-143.109
658055.597,4612275.000,-142.211
658055.597,4612225.000,-141.416
658055.597,4612175.000,-141.252
658055.597,4612125.000,-141.659
658055.597,4612075.000,-142.457
658055.597,4612025.000,-143.267
658055.597,4611975.000,-143.585
658055.597,4611925.000,-143.137
658055.597,4611875.000,-141.869
658055.597,4611825.000,-140.735
658055.597,4611775.000,-140.796
658055.597,4611725.000,-140.719
658055.597,4611675.000,-140.658
658055.597,4611625.000,-140.695
658055.597,4611575.000,-140.729
658055.597,4611525.000,-140.583
658055.597,4611475.000,-140.515
658055.597,4611425.000,-140.459
658055.597,4611375.000,-140.206
658055.597,4611325.000,-140.283
658055.597,4611275.000,-140.292
658055.597,4611225.000,-140.230
658055.597,4611175.000,-140.354
658055.597,4611125.000,-140.865
658055.597,4611075.000,-141.394
658055.597,4611025.000,-141.477
658055.597,4610975.000,-141.530
658055.597,4610925.000,-141.715
658055.597,4610875.000,-141.926
658055.597,4610825.000,-142.164
658055.597,4610775.000,-142.302
658055.597,4610725.000,-142.473
658055.597,4610675.000,-142.493
658055.597,4610625.000,-142.499
658055.597,4610575.000,-142.424
658055.597,4610525.000,-141.459
658055.597,4610475.000,-139.325
658055.597,4610425.000,-137.398
658055.597,4610375.000,-137.696
658055.597,4610325.000,-138.242
658055.597,4610275.000,-138.738
658055.597,4610225.000,-139.049
658055.597,4610175.000,-138.859
658055.597,4610125.000,-138.515
658055.597,4610075.000,-138.356
658055.597,4610025.000,-138.396
658055.597,4609975.000,-138.520
658055.597,4609925.000,-138.781
658055.597,4609875.000,-139.106
658055.597,4609825.000,-138.588
658055.597,4609775.000,-137.409
658055.597,4609725.000,-137.262
658055.597,4609675.000,-137.672
658055.597,4609625.000,-138.062
658055.597,4609575.000,-138.335
658055.597,4609525.000,-138.551
658055.597,4609475.000,-138.809
658055.597,4609425.000,-139.126
658055.597,4609375.000,-139.504
658055.597,4609325.000,-139.955
658055.597,4609275.000,-140.438
658055.597,4609225.000,-140.907
658055.597,4609175.000,-141.358
658055.597,4609125.000,-141.783
658055.597,4609075.000,-142.169
658055.597,4609025.000,-142.529
658055.597,4608975.000,-142.886
658055.597,4608925.000,-143.231
658055.597,4608875.000,-143.538
658055.597,4608825.000,-143.621
658055.597,4608775.000,-143.610
658055.597,4608725.000,-143.641
658055.597,4608675.000,-143.805
658055.597,4608625.000,-144.167
658055.597,4608575.000,-144.596
658055.597,4608525.000,-144.870
658055.597,4608475.000,-145.150
658055.597,4608425.000,-145.363
658055.597,4608375.000,-145.666
658055.597,4608325.000,-146.204
658055.597,4608275.000,-146.574
658055.597,4608225.000,-146.753
658055.597,4608175.000,-146.985
658055.597,4608125.000,-147.284
658055.597,4608075.000,-147.663
658055.597,4608025.000,-148.004
658055.597,4607975.000,-148.574
658055.597,4607925.000,-149.081
658055.597,4607875.000,-149.198
658055.597,4607825.000,-149.340
658055.597,4607775.000,-149.545
658055.597,4607725.000,-149.714
658055.597,4607675.000,-149.894
658055.597,4607625.000,-150.242
658055.597,4607575.000,-150.519
658055.597,4607525.000,-150.674
658055.597,4607475.000,-150.696
658055.597,4607425.000,-150.740
658055.597,4607375.000,-150.822
658055.597,4607325.000,-151.073
658055.597,4607275.000,-151.064
658055.597,4607225.000,-151.133
658055.597,4607175.000,-151.359
658055.597,4607125.000,-151.444
658055.597,4607075.000,-151.547
658055.597,4607025.000,-151.659
658055.597,4606975.000,-151.794
658055.597,4606925.000,-151.886
658055.597,4606875.000,-151.862
658055.597,4606825.000,-151.887
658055.597,4606775.000,-151.956
658055.597,4606725.000,-152.048
658055.597,4606675.000,-152.158
658055.597,4606625.000,-152.151
658055.597,4606575.000,-152.156
658055.597,4606525.000,-152.180
658055.597,4606475.000,-152.069
658105.597,4613825.000,-173.259
658105.597,4613775.000,-169.110
658105.597,4613725.000,-164.652
658105.597,4613675.000,-160.731
658105.597,4613625.000,-157.968
658105.597,4613575.000,-156.506
658105.597,4613525.000,-155.040
658105.597,4613475.000,-153.736
658105.597,4613425.000,-152.152
658105.597,4613375.000,-150.852
658105.597,4613325.000,-150.829
658105.597,4613275.000,-150.650
658105.597,4613225.000,-150.362
658105.597,4613175.000,-150.096
658105.597,4613125.000,-149.779
658105.597,4613075.000,-149.523
658105.597,4613025.000,-149.116
658105.597,4612975.000,-148.602
658105.597,4612925.000,-148.387
658105.597,4612875.000,-148.405
658105.597,4612825.000,-148.249
658105.597,4612775.000,-148.167
658105.597,4612725.000,-147.327
658105.597,4612675.000,-146.057
658105.597,4612625.000,-146.026
658105.597,4612575.000,-146.102
658105.597,4612525.000,-145.702
658105.597,4612475.000,-145.354
658105.597,4612425.000,-145.222
658105.597,4612375.000,-144.628
658105.597,4612325.000,-143.911
658105.597,4612275.000,-143.122
658105.597,4612225.000,-142.160
658105.597,4612175.000,-141.273
658105.597,4612125.000,-141.286
658105.597,4612075.000,-141.945
658105.597,4612025.000,-142.564
658105.597,4611975.000,-142.760
658105.597,4611925.000,-141.837
658105.597,4611875.000,-140.845
658105.597,4611825.000,-140.601
658105.597,4611775.000,-140.791
658105.597,4611725.000,-140.627
658105.597,4611675.000,-140.784
658105.597,4611625.000,-140.939
658105.597,4611575.000,-140.997
658105.597,4611525.000,-140.934
658105.597,4611475.000,-140.973
658105.597,4611425.000,-140.997
658105.597,4611375.000,-140.896
658105.597,4611325.000,-140.967
658105.597,4611275.000,-140.880
658105.597,4611225.000,-140.709
658105.597,4611175.000,-140.698
658105.597,4611125.000,-141.051
658105.597,4611075.000,-141.402
658105.597,4611025.000,-141.591
658105.597,4610975.000,-141.663
658105.597,4610925.000,-141.747
658105.597,4610875.000,-141.868
658105.597,4610825.000,-142.053
658105.597,4610775.000,-142.229
658105.597,4610725.000,-142.349
658105.597,4610675.000,-142.434
658105.597,4610625.000,-142.459
658105.597,4610575.000,-142.348
658105.597,4610525.000,-141.566
658105.597,4610475.000,-139.111
658105.597,4610425.000,-136.872
658105.597,4610375.000,-136.847
658105.597,4610325.000,-137.206
658105.597,4610275.000,-137.523
658105.597,4610225.000,-137.913
658105.597,4610175.000,-138.194
658105.597,4610125.000,-138.191
658105.597,4610075.000,-138.419
658105.597,4610025.000,-138.620
658105.597,4609975.000,-138.885
658105.597,4609925.000,-139.229
658105.597,4609875.000,-139.677
658105.597,4609825.000,-139.402
658105.597,4609775.000,-138.259
658105.597,4609725.000,-137.613
658105.597,4609675.000,-137.824
658105.597,4609625.000,-138.275
658105.597,4609575.000,-138.673
658105.597,4609525.000,-138.899
658105.597,4609475.000,-139.129
658105.597,4609425.000,-139.424
658105.597,4609375.000,-139.807
658105.597,4609325.000,-140.245
658105.597,4609275.000,-140.732
658105.597,4609225.000,-141.295
658105.597,4609175.000,-141.780
658105.597,4609125.000,-142.230
658105.597,4609075.000,-142.611
658105.597,4609025.000,-143.027
658105.597,4608975.000,-143.429
658105.597,4608925.000,-143.678
658105.597,4608875.000,-143.916
658105.597,4608825.000,-144.028
658105.597,4608775.000,-143.751
658105.597,4608725.000,-143.735
658105.597,4608675.000,-143.875
658105.597,4608625.000,-144.027
658105.597,4608575.000,-144.253
658105.597,4608525.000,-144.635
658105.597,4608475.000,-144.946
658105.597,4608425.000,-145.131
658105.597,4608375.000,-145.478
658105.597,4608325.000,-146.203
658105.597,4608275.000,-146.662
658105.597,4608225.000,-146.885
658105.597,4608175.000,-147.021
658105.597,4608125.000,-147.438
658105.597,4608075.000,-147.939
658105.597,4608025.000,-148.214
658105.597,4607975.000,-148.714
658105.597,4607925.000,-149.139
658105.597,4607875.000,-149.421
658105.597,4607825.000,-149.570
658105.597,4607775.000,-149.762
658105.597,4607725.000,-150.023
658105.597,4607675.000,-150.154
658105.597,4607625.000,-150.363
658105.597,4607575.000,-150.805
658105.597,4607525.000,-151.016
658105.597,4607475.000,-150.968
658105.597,4607425.000,-150.930
658105.597,4607375.000,-151.013
658105.597,4607325.000,-151.140
658105.597,4607275.000,-151.304
658105.597,4607225.000,-151.466
658105.597,4607175.000,-151.658
658105.597,4607125.000,-151.697
658105.597,4607075.000,-151.659
658105.597,4607025.000,-151.747
658105.597,4606975.000,-152.004
658105.597,4606925.000,-152.159
658105.597,4606875.000,-152.164
658105.597,4606825.000,-152.070
658105.597,4606775.000,-151.914
658105.597,4606725.000,-151.909
658105.597,4606675.000,-152.279
658105.597,4606625.000,-152.251
658105.597,4606575.000,-152.073
658105.597,4606525.000,-152.198
658105.597,4606475.000,-152.161
658155.597,4613825.000,-175.204
658155.597,4613775.000,-170.994
658155.597,4613725.000,-166.449
658155.597,4613675.000,-162.046
658155.597,4613625.000,-159.032
658155.597,4613575.000,-157.261
658155.597,4613525.000,-155.822
658155.597,4613475.000,-154.809
658155.597,4613425.000,-153.665
658155.597,4613375.000,-152.001
658155.597,4613325.000,-150.891
658155.597,4613275.000,-150.647
658155.597,4613225.000,-150.472
658155.597,4613175.000,-150.271
658155.597,4613125.000,-149.878
658155.597,4613075.000,-149.553
658155.597,4613025.000,-149.072
658155.597,4612975.000,-148.443
658155.597,4612925.000,-148.115
658155.597,4612875.000,-148.220
658155.597,4612825.000,-148.314
658155.597,4612775.000,-148.253
658155.597,4612725.000,-147.650
658155.597,4612675.000,-146.697
658155.597,4612625.000,-146.409
658155.597,4612575.000,-146.529
658155.597,4612525.000,-146.636
658155.597,4612475.000,-146.626
658155.597,4612425.000,-146.467
658155.597,4612375.000,-145.359
658155.597,4612325.000,-144.423
658155.597,4612275.000,-143.824
658155.597,4612225.000,-142.651
658155.597,4612175.000,-141.651
658155.597,4612125.000,-141.537
658155.597,4612075.000,-141.833
658155.597,4612025.000,-141.887
658155.597,4611975.000,-141.484
658155.597,4611925.000,-140.520
658155.597,4611875.000,-139.901
658155.597,4611825.000,-139.990
658155.597,4611775.000,-140.158
658155.597,4611725.000,-140.165
658155.597,4611675.000,-140.386
658155.597,4611625.000,-140.680
658155.597,4611575.000,-140.857
658155.597,4611525.000,-140.966
658155.597,4611475.000,-141.091
658155.597,4611425.000,-141.096
658155.597,4611375.000,-141.226
658155.597,4611325.000,-141.305
658155.597,4611275.000,-141.249
658155.597,4611225.000,-141.068
658155.597,4611175.000,-140.849
658155.597,4611125.000,-140.794
658155.597,4611075.000,-141.133
658155.597,4611025.000,-141.684
658155.597,4610975.000,-141.976
658155.597,4610925.000,-141.824
658155.597,4610875.000,-141.854
658155.597,4610825.000,-141.999
658155.597,4610775.000,-142.209
658155.597,4610725.000,-142.344
658155.597,4610675.000,-142.366
658155.597,4610625.000,-142.211
658155.597,4610575.000,-142.040
658155.597,4610525.000,-141.276
658155.597,4610475.000,-139.037
658155.597,4610425.000,-136.829
658155.597,4610375.000,-136.856
658155.597,4610325.000,-137.166
658155.597,4610275.000,-137.500
658155.597,4610225.000,-137.786
658155.597,4610175.000,-138.134
658155.597,4610125.000,-138.508
658155.597,4610075.000,-138.886
658155.597,4610025.000,-139.165
658155.597,4609975.000,-139.517
658155.597,4609925.000,-139.879
658155.597,4609875.000,-140.209
658155.597,4609825.000,-140.249
658155.597,4609775.000,-139.342
658155.597,4609725.000,-138.465
658155.597,4609675.000,-138.331
658155.597,4609625.000,-138.791
658155.597,4609575.000,-139.147
658155.597,4609525.000,-139.300
658155.597,4609475.000,-139.439
658155.597,4609425.000,-139.734
658155.597,4609375.000,-140.034
658155.597,4609325.000,-140.406
658155.597,4609275.000,-140.971
658155.597,4609225.000,-141.642
658155.597,4609175.000,-142.036
658155.597,4609125.000,-142.291
658155.597,4609075.000,-142.707
658155.597,4609025.000,-143.212
658155.597,4608975.000,-143.616
658155.597,4608925.000,-143.842
658155.597,4608875.000,-144.098
658155.597,4608825.000,-144.187
658155.597,4608775.000,-143.874
658155.597,4608725.000,-143.739
658155.597,4608675.000,-144.029
658155.597,4608625.000,-144.197
658155.597,4608575.000,-144.313
658155.597,4608525.000,-144.642
658155.597,4608475.000,-144.978
658155.597,4608425.000,-145.369
658155.597,4608375.000,-145.804
658155.597,4608325.000,-146.320
658155.597,4608275.000,-146.732
658155.597,4608225.000,-147.071
658155.597,4608175.000,-147.358
658155.597,4608125.000,-147.705
658155.597,4608075.000,-148.366
658155.597,4608025.000,-148.714
658155.597,4607975.000,-149.113
658155.597,4607925.000,-149.611
658155.597,4607875.000,-149.869
658155.597,4607825.000,-150.090
658155.597,4607775.000,-150.364
658155.597,4607725.000,-150.525
658155.597,4607675.000,-150.632
658155.597,4607625.000,-150.799
658155.597,4607575.000,-151.030
658155.597,4607525.000,-151.221
658155.597,4607475.000,-151.253
658155.597,4607425.000,-151.367
658155.597,4607375.000,-151.497
658155.597,4607325.000,-151.610
658155.597,4607275.000,-151.714
658155.597,4607225.000,-151.854
658155.597,4607175.000,-152.001
658155.597,4607125.000,-152.001
658155.597,4607075.000,-151.976
658155.597,4607025.000,-152.059
658155.597,4606975.000,-152.094
658155.597,4606925.000,-152.275
658155.597,4606875.000,-152.474
658155.597,4606825.000,-152.533
658155.597,4606775.000,-152.427
658155.597,4606725.000,-152.099
658155.597,4606675.000,-152.226
658155.597,4606625.000,-152.162
658155.597,4606575.000,-151.912
658155.597,4606525.000,-152.050
658155.597,4606475.000,-152.234
658205.597,4613825.000,-176.894
658205.597,4613775.000,-173.090
658205.597,4613725.000,-169.010
658205.597,4613675.000,-163.951
658205.597,4613625.000,-159.872
658205.597,4613575.000,-157.956
658205.597,4613525.000,-156.698
658205.597,4613475.000,-155.683
658205.597,4613425.000,-154.617
658205.597,4613375.000,-152.894
658205.597,4613325.000,-151.387
658205.597,4613275.000,-150.594
658205.597,4613225.000,-150.383
658205.597,4613175.000,-150.371
658205.597,4613125.000,-150.000
658205.597,4613075.000,-149.632
658205.597,4613025.000,-149.262
658205.597,4612975.000,-148.724
658205.597,4612925.000,-148.065
658205.597,4612875.000,-147.751
658205.597,4612825.000,-147.716
658205.597,4612775.000,-147.621
658205.597,4612725.000,-147.138
658205.597,4612675.000,-146.236
658205.597,4612625.000,-145.633
658205.597,4612575.000,-145.818
658205.597,4612525.000,-146.397
658205.597,4612475.000,-146.668
658205.597,4612425.000,-146.798
658205.597,4612375.000,-146.046
658205.597,4612325.000,-145.001
658205.597,4612275.000,-144.229
658205.597,4612225.000,-142.908
658205.597,4612175.000,-141.896
658205.597,4612125.000,-141.666
658205.597,4612075.000,-141.480
658205.597,4612025.000,-141.303
658205.597,4611975.000,-140.999
658205.597,4611925.000,-140.361
658205.597,4611875.000,-139.818
658205.597,4611825.000,-139.663
658205.597,4611775.000,-139.693
658205.597,4611725.000,-139.659
658205.597,4611675.000,-139.696
658205.597,4611625.000,-140.115
658205.597,4611575.000,-140.346
658205.597,4611525.000,-140.625
658205.597,4611475.000,-140.958
658205.597,4611425.000,-140.886
658205.597,4611375.000,-141.024
658205.597,4611325.000,-141.240
658205.597,4611275.000,-141.239
658205.597,4611225.000,-141.156
658205.597,4611175.000,-140.924
658205.597,4611125.000,-140.567
658205.597,4611075.000,-140.990
658205.597,4611025.000,-141.970
658205.597,4610975.000,-142.342
658205.597,4610925.000,-141.987
658205.597,4610875.000,-141.714
658205.597,4610825.000,-141.646
658205.597,4610775.000,-141.986
658205.597,4610725.000,-142.165
658205.597,4610675.000,-142.024
658205.597,4610625.000,-141.594
658205.597,4610575.000,-141.713
658205.597,4610525.000,-141.496
658205.597,4610475.000,-139.628
658205.597,4610425.000,-137.781
658205.597,4610375.000,-137.327
658205.597,4610325.000,-137.601
658205.597,4610275.000,-137.962
658205.597,4610225.000,-138.336
658205.597,4610175.000,-138.688
658205.597,4610125.000,-139.040
658205.597,4610075.000,-139.534
658205.597,4610025.000,-139.908
658205.597,4609975.000,-140.277
658205.597,4609925.000,-140.547
658205.597,4609875.000,-140.614
658205.597,4609825.000,-140.577
658205.597,4609775.000,-140.096
658205.597,4609725.000,-139.314
658205.597,4609675.000,-139.031
658205.597,4609625.000,-139.131
658205.597,4609575.000,-139.434
658205.597,4609525.000,-139.516
658205.597,4609475.000,-139.615
658205.597,4609425.000,-139.780
658205.597,4609375.000,-140.041
658205.597,4609325.000,-140.428
658205.597,4609275.000,-140.984
658205.597,4609225.000,-141.589
658205.597,4609175.000,-141.903
658205.597,4609125.000,-142.090
658205.597,4609075.000,-142.554
658205.597,4609025.000,-143.079
658205.597,4608975.000,-143.503
658205.597,4608925.000,-143.813
658205.597,4608875.000,-144.212
658205.597,4608825.000,-144.452
658205.597,4608775.000,-144.416
658205.597,4608725.000,-144.153
658205.597,4608675.000,-144.229
658205.597,4608625.000,-144.386
658205.597,4608575.000,-144.579
658205.597,4608525.000,-144.744
658205.597,4608475.000,-145.011
658205.597,4608425.000,-145.323
658205.597,4608375.000,-145.719
658205.597,4608325.000,-146.140
658205.597,4608275.000,-146.571
658205.597,4608225.000,-146.928
658205.597,4608175.000,-147.278
658205.597,4608125.000,-147.730
658205.597,4608075.000,-148.234
658205.597,4608025.000,-148.729
658205.597,4607975.000,-149.132
658205.597,4607925.000,-149.505
658205.597,4607875.000,-149.863
658205.597,4607825.000,-150.202
658205.597,4607775.000,-150.451
658205.597,4607725.000,-150.632
658205.597,4607675.000,-150.769
658205.597,4607625.000,-150.929
658205.597,4607575.000,-151.008
658205.597,4607525.000,-151.099
658205.597,4607475.000,-151.279
658205.597,4607425.000,-151.462
658205.597,4607375.000,-151.620
658205.597,4607325.000,-151.744
658205.597,4607275.000,-151.853
658205.597,4607225.000,-151.992
658205.597,4607175.000,-152.145
658205.597,4607125.000,-152.194
658205.597,4607075.000,-152.281
658205.597,4607025.000,-152.385
658205.597,4606975.000,-152.384
658205.597,4606925.000,-152.501
658205.597,4606875.000,-152.684
658205.597,4606825.000,-152.753
658205.597,4606775.000,-152.766
658205.597,4606725.000,-152.625
658205.597,4606675.000,-152.603
658205.597,4606625.000,-152.699
658205.597,4606575.000,-152.634
658205.597,4606525.000,-152.721
658205.597,4606475.000,-152.676
658255.597,4613825.000,-179.780
658255.597,4613775.000,-176.211
658255.597,4613725.000,-171.926
658255.597,4613675.000,-166.284
658255.597,4613625.000,-161.209
658255.597,4613575.000,-159.289
658255.597,4613525.000,-158.161
658255.597,4613475.000,-157.137
658255.597,4613425.000,-156.079
658255.597,4613375.000,-154.548
658255.597,4613325.000,-152.626
658255.597,4613275.000,-151.082
658255.597,4613225.000,-150.305
658255.597,4613175.000,-150.031
658255.597,4613125.000,-149.889
658255.597,4613075.000,-149.657
658255.597,4613025.000,-149.370
658255.597,4612975.000,-149.101
658255.597,4612925.000,-148.878
658255.597,4612875.000,-148.158
658255.597,4612825.000,-147.531
658255.597,4612775.000,-147.091
658255.597,4612725.000,-146.494
658255.597,4612675.000,-145.454
658255.597,4612625.000,-144.879
658255.597,4612575.000,-145.029
658255.597,4612525.000,-145.571
658255.597,4612475.000,-146.184
658255.597,4612425.000,-146.557
658255.597,4612375.000,-146.302
658255.597,4612325.000,-145.654
658255.597,4612275.000,-144.699
658255.597,4612225.000,-143.673
658255.597,4612175.000,-143.052
658255.597,4612125.000,-142.334
658255.597,4612075.000,-141.566
658255.597,4612025.000,-141.101
658255.597,4611975.000,-141.047
658255.597,4611925.000,-140.756
658255.597,4611875.000,-140.292
658255.597,4611825.000,-139.899
658255.597,4611775.000,-139.711
658255.597,4611725.000,-139.705
658255.597,4611675.000,-139.732
658255.597,4611625.000,-139.845
658255.597,4611575.000,-139.886
658255.597,4611525.000,-139.960
658255.597,4611475.000,-140.268
658255.597,4611425.000,-140.213
658255.597,4611375.000,-140.147
658255.597,4611325.000,-140.677
658255.597,4611275.000,-140.866
658255.597,4611225.000,-140.904
658255.597,4611175.000,-140.988
658255.597,4611125.000,-140.829
658255.597,4611075.000,-141.188
658255.597,4611025.000,-142.148
658255.597,4610975.000,-142.536
658255.597,4610925.000,-142.439
658255.597,4610875.000,-142.300
658255.597,4610825.000,-141.688
658255.597,4610775.000,-141.638
658255.597,4610725.000,-141.902
658255.597,4610675.000,-141.400
658255.597,4610625.000,-140.792
658255.597,4610575.000,-140.625
658255.597,4610525.000,-141.185
658255.597,4610475.000,-140.586
658255.597,4610425.000,-139.071
658255.597,4610375.000,-138.303
658255.597,4610325.000,-138.178
658255.597,4610275.000,-138.138
658255.597,4610225.000,-138.529
658255.597,4610175.000,-139.031
658255.597,4610125.000,-139.372
658255.597,4610075.000,-139.879
658255.597,4610025.000,-140.178
658255.597,4609975.000,-140.486
658255.597,4609925.000,-140.677
658255.597,4609875.000,-140.669
658255.597,4609825.000,-140.690
658255.597,4609775.000,-140.604
658255.597,4609725.000,-139.952
658255.597,4609675.000,-139.458
658255.597,4609625.000,-139.339
658255.597,4609575.000,-139.408
658255.597,4609525.000,-139.577
658255.597,4609475.000,-139.749
658255.597,4609425.000,-139.791
658255.597,4609375.000,-140.016
658255.597,4609325.000,-140.310
658255.597,4609275.000,-140.793
658255.597,4609225.000,-141.224
658255.597,4609175.000,-141.544
658255.597,4609125.000,-141.919
658255.597,4609075.000,-142.375
658255.597,4609025.000,-142.801
658255.597,4608975.000,-143.210
658255.597,4608925.000,-143.608
658255.597,4608875.000,-144.041
658255.597,4608825.000,-144.444
658255.597,4608775.000,-144.625
658255.597,4608725.000,-144.393
658255.597,4608675.000,-144.264
658255.597,4608625.000,-144.280
658255.597,4608575.000,-144.439
658255.597,4608525.000,-144.636
658255.597,4608475.000,-144.897
658255.597,4608425.000,-145.180
658255.597,4608375.000,-145.485
658255.597,4608325.000,-145.952
658255.597,4608275.000,-146.368
658255.597,4608225.000,-146.803
658255.597,4608175.000,-147.192
658255.597,4608125.000,-147.624
658255.597,4608075.000,-148.109
658255.597,4608025.000,-148.578
658255.597,4607975.000,-149.046
658255.597,4607925.000,-149.459
658255.597,4607875.000,-149.839
658255.597,4607825.000,-150.184
658255.597,4607775.000,-150.429
658255.597,4607725.000,-150.573
658255.597,4607675.000,-150.701
658255.597,4607625.000,-150.876
658255.597,4607575.000,-151.000
658255.597,4607525.000,-151.094
658255.597,4607475.000,-151.201
658255.597,4607425.000,-151.327
658255.597,4607375.000,-151.446
658255.597,4607325.000,-151.527
658255.597,4607275.000,-151.633
658255.597,4607225.000,-151.784
658255.597,4607175.000,-151.928
658255.597,4607125.000,-152.095
658255.597,4607075.000,-152.188
658255.597,4607025.000,-152.218
658255.597,4606975.000,-152.291
658255.597,4606925.000,-152.391
658255.597,4606875.000,-152.499
658255.597,4606825.000,-152.636
658255.597,4606775.000,-152.673
658255.597,4606725.000,-152.706
658255.597,4606675.000,-152.743
658255.597,4606625.000,-152.753
658255.597,4606575.000,-152.798
658255.597,4606525.000,-152.850
658255.597,4606475.000,-152.832
658305.597,4613775.000,-177.533
658305.597,4613725.000,-173.114
658305.597,4613675.000,-167.633
658305.597,4613625.000,-162.202
658305.597,4613575.000,-159.753
658305.597,4613525.000,-158.775
658305.597,4613475.000,-157.869
658305.597,4613425.000,-156.728
658305.597,4613375.000,-155.337
658305.597,4613325.000,-153.802
658305.597,4613275.000,-152.063
658305.597,4613225.000,-150.634
658305.597,4613175.000,-149.573
658305.597,4613125.000,-149.331
658305.597,4613075.000,-149.622
658305.597,4613025.000,-149.545
658305.597,4612975.000,-149.265
658305.597,4612925.000,-149.222
658305.597,4612875.000,-148.819
658305.597,4612825.000,-148.384
658305.597,4612775.000,-147.887
658305.597,4612725.000,-146.834
658305.597,4612675.000,-145.631
658305.597,4612625.000,-145.016
658305.597,4612575.000,-144.924
658305.597,4612525.000,-145.053
658305.597,4612475.000,-145.417
658305.597,4612425.000,-145.886
658305.597,4612375.000,-146.092
658305.597,4612325.000,-145.996
658305.597,4612275.000,-145.324
658305.597,4612225.000,-144.241
658305.597,4612175.000,-143.779
658305.597,4612125.000,-143.563
658305.597,4612075.000,-143.032
658305.597,4612025.000,-142.319
658305.597,4611975.000,-141.616
658305.597,4611925.000,-141.262
658305.597,4611875.000,-141.066
658305.597,4611825.000,-140.574
658305.597,4611775.000,-140.036
658305.597,4611725.000,-139.815
658305.597,4611675.000,-139.897
658305.597,4611625.000,-139.919
658305.597,4611575.000,-139.916
658305.597,4611525.000,-139.799
658305.597,4611475.000,-139.949
658305.597,4611425.000,-139.932
658305.597,4611375.000,-139.724
658305.597,4611325.000,-140.041
658305.597,4611275.000,-140.226
658305.597,4611225.000,-140.596
658305.597,4611175.000,-140.908
658305.597,4611125.000,-141.136
658305.597,4611075.000,-141.415
658305.597,4611025.000,-142.186
658305.597,4610975.000,-142.632
658305.597,4610925.000,-142.747
658305.597,4610875.000,-142.799
658305.597,4610825.000,-142.656
658305.597,4610775.000,-142.224
658305.597,4610725.000,-142.435
658305.597,4610675.000,-141.950
658305.597,4610625.000,-140.926
658305.597,4610575.000,-140.623
658305.597,4610525.000,-140.926
658305.597,4610475.000,-141.428
658305.597,4610425.000,-140.853
658305.597,4610375.000,-140.057
658305.597,4610325.000,-139.231
658305.597,4610275.000,-138.250
658305.597,4610225.000,-138.406
658305.597,4610175.000,-138.778
658305.597,4610125.000,-139.057
658305.597,4610075.000,-139.563
658305.597,4610025.000,-139.904
658305.597,4609975.000,-140.211
658305.597,4609925.000,-140.397
658305.597,4609875.000,-140.563
658305.597,4609825.000,-140.634
658305.597,4609775.000,-140.566
658305.597,4609725.000,-140.195
658305.597,4609675.000,-139.796
658305.597,4609625.000,-139.455
658305.597,4609575.000,-139.357
658305.597,4609525.000,-139.449
658305.597,4609475.000,-139.673
658305.597,4609425.000,-139.720
658305.597,4609375.000,-139.723
658305.597,4609325.000,-140.000
658305.597,4609275.000,-140.375
658305.597,4609225.000,-140.742
658305.597,4609175.000,-141.071
658305.597,4609125.000,-141.541
658305.597,4609075.000,-141.978
658305.597,4609025.000,-142.406
658305.597,4608975.000,-142.860
658305.597,4608925.000,-143.334
658305.597,4608875.000,-143.869
658305.597,4608825.000,-144.341
658305.597,4608775.000,-144.766
658305.597,4608725.000,-144.732
658305.597,4608675.000,-144.558
658305.597,4608625.000,-144.400
658305.597,4608575.000,-144.503
658305.597,4608525.000,-144.734
658305.597,4608475.000,-145.025
658305.597,4608425.000,-145.303
658305.597,4608375.000,-145.655
658305.597,4608325.000,-146.065
658305.597,4608275.000,-146.466
658305.597,4608225.000,-146.925
658305.597,4608175.000,-147.394
658305.597,4608125.000,-147.844
658305.597,4608075.000,-148.309
658305.597,4608025.000,-148.781
658305.597,4607975.000,-149.268
658305.597,4607925.000,-149.758
658305.597,4607875.000,-150.130
658305.597,4607825.000,-150.469
658305.597,4607775.000,-150.720
658305.597,4607725.000,-150.880
658305.597,4607675.000,-150.987
658305.597,4607625.000,-151.097
658305.597,4607575.000,-151.184
658305.597,4607525.000,-151.292
658305.597,4607475.000,-151.430
658305.597,4607425.000,-151.549
658305.597,4607375.000,-151.668
658305.597,4607325.000,-151.719
658305.597,4607275.000,-151.774
658305.597,4607225.000,-151.854
658305.597,4607175.000,-151.943
658305.597,4607125.000,-152.018
658305.597,4607075.000,-152.121
658305.597,4607025.000,-152.214
658305.597,4606975.000,-152.322
658305.597,4606925.000,-152.403
658305.597,4606875.000,-152.477
658305.597,4606825.000,-152.534
658305.597,4606775.000,-152.583
658305.597,4606725.000,-152.605
658305.597,4606675.000,-152.620
658305.597,4606625.000,-152.663
658305.597,4606575.000,-152.693
658305.597,4606525.000,-152.682
658305.597,4606475.000,-152.701
658355.597,4613725.000,-173.221
658355.597,4613675.000,-168.231
658355.597,4613625.000,-163.376
658355.597,4613575.000,-160.159
658355.597,4613525.000,-158.985
658355.597,4613475.000,-158.166
658355.597,4613425.000,-157.085
658355.597,4613375.000,-155.859
658355.597,4613325.000,-154.482
658355.597,4613275.000,-152.973
658355.597,4613225.000,-151.415
658355.597,4613175.000,-149.588
658355.597,4613125.000,-148.226
658355.597,4613075.000,-148.951
658355.597,4613025.000,-149.371
658355.597,4612975.000,-149.289
658355.597,4612925.000,-149.189
658355.597,4612875.000,-149.179
658355.597,4612825.000,-149.175
658355.597,4612775.000,-148.917
658355.597,4612725.000,-147.696
658355.597,4612675.000,-146.252
658355.597,4612625.000,-145.460
658355.597,4612575.000,-145.167
658355.597,4612525.000,-145.050
658355.597,4612475.000,-145.136
658355.597,4612425.000,-145.458
658355.597,4612375.000,-145.778
658355.597,4612325.000,-145.974
658355.597,4612275.000,-145.809
658355.597,4612225.000,-145.003
658355.597,4612175.000,-144.052
658355.597,4612125.000,-144.107
658355.597,4612075.000,-143.924
658355.597,4612025.000,-143.363
658355.597,4611975.000,-142.644
658355.597,4611925.000,-141.887
658355.597,4611875.000,-141.727
658355.597,4611825.000,-141.597
658355.597,4611775.000,-140.916
658355.597,4611725.000,-140.253
658355.597,4611675.000,-139.990
658355.597,4611625.000,-139.963
658355.597,4611575.000,-139.999
658355.597,4611525.000,-139.976
658355.597,4611475.000,-140.090
658355.597,4611425.000,-140.193
658355.597,4611375.000,-140.229
658355.597,4611325.000,-140.326
658355.597,4611275.000,-140.523
658355.597,4611225.000,-140.607
658355.597,4611175.000,-140.949
658355.597,4611125.000,-141.338
658355.597,4611075.000,-141.557
658355.597,4611025.000,-141.997
658355.597,4610975.000,-142.411
658355.597,4610925.000,-142.568
658355.597,4610875.000,-142.737
658355.597,4610825.000,-142.818
658355.597,4610775.000,-142.831
658355.597,4610725.000,-142.846
658355.597,4610675.000,-142.818
658355.597,4610625.000,-142.677
658355.597,4610575.000,-142.343
658355.597,4610525.000,-142.457
658355.597,4610475.000,-142.682
658355.597,4610425.000,-142.733
658355.597,4610375.000,-142.324
658355.597,4610325.000,-141.163
658355.597,4610275.000,-139.143
658355.597,4610225.000,-137.791
658355.597,4610175.000,-138.022
658355.597,4610125.000,-138.432
658355.597,4610075.000,-138.838
658355.597,4610025.000,-139.276
658355.597,4609975.000,-139.646
658355.597,4609925.000,-140.009
658355.597,4609875.000,-140.305
658355.597,4609825.000,-140.492
658355.597,4609775.000,-140.568
658355.597,4609725.000,-140.398
658355.597,4609675.000,-140.102
658355.597,4609625.000,-139.618
658355.597,4609575.000,-139.328
658355.597,4609525.000,-139.373
658355.597,4609475.000,-139.501
658355.597,4609425.000,-139.596
658355.597,4609375.000,-139.613
658355.597,4609325.000,-139.791
658355.597,4609275.000,-140.092
658355.597,4609225.000,-140.446
658355.597,4609175.000,-140.818
658355.597,4609125.000,-141.264
658355.597,4609075.000,-141.678
658355.597,4609025.000,-142.142
658355.597,4608975.000,-142.662
658355.597,4608925.000,-143.220
658355.597,4608875.000,-143.838
658355.597,4608825.000,-144.451
658355.597,4608775.000,-144.992
658355.597,4608725.000,-145.281
658355.597,4608675.000,-145.143
658355.597,4608625.000,-144.834
658355.597,4608575.000,-144.763
658355.597,4608525.000,-145.013
658355.597,4608475.000,-145.318
658355.597,4608425.000,-145.603
658355.597,4608375.000,-145.928
658355.597,4608325.000,-146.357
658355.597,4608275.000,-146.734
658355.597,4608225.000,-147.214
658355.597,4608175.000,-147.739
658355.597,4608125.000,-148.226
658355.597,4608075.000,-148.678
658355.597,4608025.000,-149.150
658355.597,4607975.000,-149.663
658355.597,4607925.000,-150.128
658355.597,4607875.000,-150.521
658355.597,4607825.000,-150.831
658355.597,4607775.000,-151.089
658355.597,4607725.000,-151.301
658355.597,4607675.000,-151.408
658355.597,4607625.000,-151.477
658355.597,4607575.000,-151.574
658355.597,4607525.000,-151.715
658355.597,4607475.000,-151.830
658355.597,4607425.000,-151.916
658355.597,4607375.000,-152.034
658355.597,4607325.000,-152.107
658355.597,4607275.000,-152.163
658355.597,4607225.000,-152.223
658355.597,4607175.000,-152.258
658355.597,4607125.000,-152.283
658355.597,4607075.000,-152.311
658355.597,4607025.000,-152.384
658355.597,4606975.000,-152.505
658355.597,4606925.000,-152.640
658355.597,4606875.000,-152.670
658355.597,4606825.000,-152.712
658355.597,4606775.000,-152.781
658355.597,4606725.000,-152.798
658355.597,4606675.000,-152.825
658355.597,4606625.000,-152.868
658355.597,4606575.000,-152.848
658355.597,4606525.000,-152.787
658355.597,4606475.000,-152.835
658405.597,4613725.000,-173.266
658405.597,4613675.000,-167.923
658405.597,4613625.000,-163.787
658405.597,4613575.000,-160.981
658405.597,4613525.000,-159.616
658405.597,4613475.000,-158.719
658405.597,4613425.000,-157.714
658405.597,4613375.000,-156.624
658405.597,4613325.000,-155.366
658405.597,4613275.000,-153.947
658405.597,4613225.000,-152.492
658405.597,4613175.000,-150.774
658405.597,4613125.000,-148.924
658405.597,4613075.000,-147.841
658405.597,4613025.000,-147.995
658405.597,4612975.000,-148.747
658405.597,4612925.000,-149.080
658405.597,4612875.000,-149.234
658405.597,4612825.000,-149.263
658405.597,4612775.000,-149.574
658405.597,4612725.000,-148.294
