684430.597,4576000.000,-560.880
684430.597,4575900.000,-563.080
684430.597,4575800.000,-565.760
684430.597,4575700.000,-569.520
684430.597,4575600.000,-574.550
684430.597,4575500.000,-580.570
684430.597,4575400.000,-586.700
684430.597,4575300.000,-589.880
684430.597,4575200.000,-592.400
684430.597,4575100.000,-594.130
684430.597,4575000.000,-594.560
684430.597,4574900.000,-597.190
684430.597,4574800.000,-600.420
684430.597,4574700.000,-600.810
684430.597,4574600.000,-600.410
684430.597,4574500.000,-598.430
684430.597,4574400.000,-596.380
684430.597,4574300.000,-593.610
684430.597,4574200.000,-590.550
684430.597,4574100.000,-586.920
684430.597,4574000.000,-582.810
684430.597,4573900.000,-579.250
684430.597,4573800.000,-575.390
684430.597,4573700.000,-570.250
684430.597,4573600.000,-564.040
684430.597,4573500.000,-557.970
684430.597,4573400.000,-552.280
684430.597,4573300.000,-547.680
684430.597,4573200.000,-540.940
684430.597,4573100.000,-539.640
684430.597,4573000.000,-537.180
684430.597,4572900.000,-535.300
684430.597,4572800.000,-499.580
684430.597,4572700.000,-465.720
684430.597,4572600.000,-445.880
684430.597,4572500.000,-429.220
684430.597,4572400.000,-400.620
684430.597,4572300.000,-364.460
684430.597,4572200.000,-319.910
684430.597,4572100.000,-275.520
684430.597,4572000.000,-270.230
684430.597,4571900.000,-276.680
684430.597,4571800.000,-274.910
684430.597,4571700.000,-261.060
684430.597,4571600.000,-241.500
684430.597,4571500.000,-224.620
684430.597,4571400.000,-212.320
684430.597,4571300.000,-202.390
684430.597,4571200.000,-194.440
684430.597,4571100.000,-189.240
684430.597,4571000.000,-183.920
684430.597,4570900.000,-178.270
684430.597,4570800.000,-175.700
684430.597,4570700.000,-174.160
684430.597,4570600.000,-172.650
684430.597,4570500.000,-170.490
684430.597,4570400.000,-168.360
684430.597,4570300.000,-167.140
684430.597,4570200.000,-166.420
684430.597,4570100.000,-165.920
684430.597,4570000.000,-165.280
684430.597,4569900.000,-164.480
684430.597,4569800.000,-163.910
684430.597,4569700.000,-162.860
684430.597,4569600.000,-161.810
684430.597,4569500.000,-161.110
684430.597,4569400.000,-161.080
684430.597,4569300.000,-160.290
684430.597,4569200.000,-160.200
684430.597,4569100.000,-159.430
684430.597,4569000.000,-158.590
684430.597,4568900.000,-158.180
684430.597,4568800.000,-158.010
684430.597,4568700.000,-157.990
684430.597,4568600.000,-159.530
684430.597,4568500.000,-158.420
684430.597,4568400.000,-152.740
684430.597,4568300.000,-146.870
684430.597,4568200.000,-143.820
684430.597,4568100.000,-144.040
684430.597,4568000.000,-143.800
684430.597,4567900.000,-143.470
684430.597,4567800.000,-142.690
684430.597,4567700.000,-142.350
684430.597,4567600.000,-142.440
684430.597,4567500.000,-143.070
684430.597,4567400.000,-143.450
684430.597,4567300.000,-143.750
684430.597,4567200.000,-143.650
684430.597,4567100.000,-143.420
684430.597,4567000.000,-143.940
684430.597,4566900.000,-144.680
684430.597,4566800.000,-145.610
684430.597,4566700.000,-145.810
684430.597,4566600.000,-145.880
684430.597,4566500.000,-146.000
684430.597,4566400.000,-146.480
684430.597,4566300.000,-146.770
684430.597,4566200.000,-147.180
684430.597,4566100.000,-147.220
684430.597,4566000.000,-147.070
684430.597,4565900.000,-146.800
684430.597,4565800.000,-145.470
684430.597,4565700.000,-145.420
684430.597,4565600.000,-145.810
684430.597,4565500.000,-145.860
684430.597,4565400.000,-146.230
684430.597,4565300.000,-147.010
684430.597,4565200.000,-147.140
684430.597,4565100.000,-147.080
684430.597,4565000.000,-146.470
684430.597,4564900.000,-146.080
684430.597,4564800.000,-144.680
684430.597,4564700.000,-144.610
684430.597,4564600.000,-144.860
684430.597,4564500.000,-143.820
684430.597,4564400.000,-143.670
684430.597,4564300.000,-144.660
684430.597,4564200.000,-144.170
684430.597,4564100.000,-141.460
684430.597,4564000.000,-140.560
684430.597,4563900.000,-142.460
684430.597,4563800.000,-140.250
684430.597,4563700.000,-141.780
684430.597,4563600.000,-143.500
684430.597,4563500.000,-143.370
684430.597,4563400.000,-142.230
684430.597,4563300.000,-142.910
684430.597,4563200.000,-143.640
684430.597,4563100.000,-143.440
684430.597,4563000.000,-142.950
684430.597,4562900.000,-142.570
684430.597,4562800.000,-142.010
684430.597,4562700.000,-140.670
684430.597,4562600.000,-140.350
684430.597,4562500.000,-140.720
684430.597,4562400.000,-140.140
684430.597,4562300.000,-140.220
684430.597,4562200.000,-140.550
684430.597,4562100.000,-140.920
684430.597,4562000.000,-141.180
684430.597,4561900.000,-141.770
684430.597,4561800.000,-142.630
684430.597,4561700.000,-143.180
684430.597,4561600.000,-143.490
684430.597,4561500.000,-143.250
684430.597,4561400.000,-142.530
684430.597,4561300.000,-141.880
684430.597,4561200.000,-141.600
684430.597,4561100.000,-141.150
684430.597,4561000.000,-140.410
684530.597,4594500.000,-666.110
684530.597,4594400.000,-667.480
684530.597,4594300.000,-668.510
684530.597,4594200.000,-669.090
684530.597,4594100.000,-669.870
684530.597,4594000.000,-670.550
684530.597,4593900.000,-671.150
684530.597,4593800.000,-671.630
684530.597,4593700.000,-671.800
684530.597,4593600.000,-671.850
684530.597,4593500.000,-672.230
684530.597,4593400.000,-672.720
684530.597,4593300.000,-673.670
684530.597,4593200.000,-674.280
684530.597,4593100.000,-674.010
684530.597,4593000.000,-673.310
684530.597,4592900.000,-673.240
684530.597,4592800.000,-673.380
684530.597,4592700.000,-671.970
684530.597,4592600.000,-669.630
684530.597,4592500.000,-666.450
684530.597,4592400.000,-661.940
684530.597,4592300.000,-657.250
684530.597,4592200.000,-653.090
684530.597,4592100.000,-650.490
684530.597,4592000.000,-648.000
684530.597,4591900.000,-646.300
684530.597,4591800.000,-643.960
684530.597,4591700.000,-640.620
684530.597,4591600.000,-637.420
684530.597,4591500.000,-635.240
684530.597,4591400.000,-633.990
684530.597,4591300.000,-633.110
684530.597,4591200.000,-632.520
684530.597,4591100.000,-630.880
684530.597,4591000.000,-628.980
684530.597,4590900.000,-626.820
684530.597,4590800.000,-624.740
684530.597,4590700.000,-622.890
684530.597,4590600.000,-621.720
684530.597,4590500.000,-620.530
684530.597,4590400.000,-619.700
684530.597,4590300.000,-618.650
684530.597,4590200.000,-617.190
684530.597,4590100.000,-617.480
684530.597,4590000.000,-618.590
684530.597,4589900.000,-619.730
684530.597,4589800.000,-619.600
684530.597,4589700.000,-617.960
684530.597,4589600.000,-616.790
684530.597,4589500.000,-616.670
684530.597,4589400.000,-615.660
684530.597,4589300.000,-605.470
684530.597,4589200.000,-599.160
684530.597,4589100.000,-596.330
684530.597,4589000.000,-593.740
684530.597,4588900.000,-591.490
684530.597,4588800.000,-589.540
684530.597,4588700.000,-587.780
684530.597,4588600.000,-585.850
684530.597,4588500.000,-584.910
684530.597,4588400.000,-584.860
684530.597,4588300.000,-584.930
684530.597,4588200.000,-585.430
684530.597,4588100.000,-584.590
684530.597,4588000.000,-584.320
684530.597,4587900.000,-583.480
684530.597,4587800.000,-581.610
684530.597,4587700.000,-580.180
684530.597,4587600.000,-578.990
684530.597,4587500.000,-578.060
684530.597,4587400.000,-576.920
684530.597,4587300.000,-576.270
684530.597,4587200.000,-575.900
684530.597,4587100.000,-575.440
684530.597,4587000.000,-575.710
684530.597,4586900.000,-575.880
684530.597,4586800.000,-574.420
684530.597,4586700.000,-572.860
684530.597,4586600.000,-570.780
684530.597,4586500.000,-567.170
684530.597,4586400.000,-563.180
684530.597,4586300.000,-558.980
684530.597,4586200.000,-555.970
684530.597,4586100.000,-553.380
684530.597,4586000.000,-551.800
684530.597,4585900.000,-549.770
684530.597,4585800.000,-549.190
684530.597,4585700.000,-547.250
684530.597,4585600.000,-544.160
684530.597,4585500.000,-542.180
684530.597,4585400.000,-540.120
684530.597,4585300.000,-537.440
684530.597,4585200.000,-534.630
684530.597,4585100.000,-532.060
684530.597,4585000.000,-529.520
684530.597,4584900.000,-527.320
684530.597,4584800.000,-525.540
684530.597,4584700.000,-523.730
684530.597,4584600.000,-521.640
684530.597,4584500.000,-519.590
684530.597,4584400.000,-518.200
684530.597,4584300.000,-515.740
684530.597,4584200.000,-513.570
684530.597,4584100.000,-512.260
684530.597,4584000.000,-511.100
684530.597,4583900.000,-510.390
684530.597,4583800.000,-509.950
684530.597,4583700.000,-509.330
684530.597,4583600.000,-508.220
684530.597,4583500.000,-506.890
684530.597,4583400.000,-504.840
684530.597,4583300.000,-502.120
684530.597,4583200.000,-499.750
684530.597,4583100.000,-497.510
684530.597,4583000.000,-494.770
684530.597,4582900.000,-491.670
684530.597,4582800.000,-489.860
684530.597,4582700.000,-488.620
684530.597,4582600.000,-487.870
684530.597,4582500.000,-486.970
684530.597,4582400.000,-486.150
684530.597,4582300.000,-485.720
684530.597,4582200.000,-485.580
684530.597,4582100.000,-486.120
684530.597,4582000.000,-486.870
684530.597,4581900.000,-487.840
684530.597,4581800.000,-489.040
684530.597,4581700.000,-490.340
684530.597,4581600.000,-492.240
684530.597,4581500.000,-494.610
684530.597,4581400.000,-497.930
684530.597,4581300.000,-500.740
684530.597,4581200.000,-503.780
684530.597,4581100.000,-507.750
684530.597,4581000.000,-512.280
684530.597,4580900.000,-516.910
684530.597,4580800.000,-522.560
684530.597,4580700.000,-528.610
684530.597,4580600.000,-534.990
684530.597,4580500.000,-543.030
684530.597,4580400.000,-552.600
684530.597,4580300.000,-561.870
684530.597,4580200.000,-573.340
684530.597,4580100.000,-581.870
684530.597,4580000.000,-588.110
684530.597,4579900.000,-592.770
684530.597,4579800.000,-593.620
684530.597,4579700.000,-589.880
684530.597,4579600.000,-583.940
684530.597,4579500.000,-577.270
684530.597,4579400.000,-570.620
684530.597,4579300.000,-563.830
684530.597,4579200.000,-559.630
684530.597,4579100.000,-559.980
684530.597,4579000.000,-564.830
684530.597,4578900.000,-579.260
684530.597,4578800.000,-597.780
684530.597,4578700.000,-607.750
684530.597,4578600.000,-610.990
684530.597,4578500.000,-612.740
684530.597,4578400.000,-614.090
684530.597,4578300.000,-615.380
684530.597,4578200.000,-615.380
684530.597,4578100.000,-615.020
684530.597,4578000.000,-613.860
684530.597,4577900.000,-609.250
684530.597,4577800.000,-604.780
684530.597,4577700.000,-594.980
684530.597,4577600.000,-581.690
684530.597,4577500.000,-565.090
684530.597,4577400.000,-549.810
684530.597,4577300.000,-534.380
684530.597,4577200.000,-519.690
684530.597,4577100.000,-510.970
684530.597,4577000.000,-508.090
684530.597,4576900.000,-508.940
684530.597,4576800.000,-512.480
684530.597,4576700.000,-518.100
684530.597,4576600.000,-524.760
684530.597,4576500.000,-533.880
684530.597,4576400.000,-545.110
684530.597,4576300.000,-553.900
684530.597,4576200.000,-556.610
684530.597,4576100.000,-558.770
684530.597,4576000.000,-560.750
684530.597,4575900.000,-562.650
684530.597,4575800.000,-565.680
684530.597,4575700.000,-569.950
684530.597,4575600.000,-575.380
684530.597,4575500.000,-580.920
684530.597,4575400.000,-586.650
684530.597,4575300.000,-590.300
684530.597,4575200.000,-592.500
684530.597,4575100.000,-594.370
684530.597,4575000.000,-594.670
684530.597,4574900.000,-595.410
684530.597,4574800.000,-598.730
684530.597,4574700.000,-599.990
684530.597,4574600.000,-599.360
684530.597,4574500.000,-597.580
684530.597,4574400.000,-595.840
684530.597,4574300.000,-593.530
684530.597,4574200.000,-590.450
684530.597,4574100.000,-586.140
684530.597,4574000.000,-581.690
684530.597,4573900.000,-577.910
684530.597,4573800.000,-574.420
684530.597,4573700.000,-570.160
684530.597,4573600.000,-565.360
684530.597,4573500.000,-560.170
684530.597,4573400.000,-555.830
684530.597,4573300.000,-549.380
684530.597,4573200.000,-546.420
684530.597,4573100.000,-543.760
684530.597,4573000.000,-539.820
684530.597,4572900.000,-534.480
684530.597,4572800.000,-517.820
684530.597,4572700.000,-488.460
684530.597,4572600.000,-476.060
684530.597,4572500.000,-446.790
684530.597,4572400.000,-405.040
684530.597,4572300.000,-368.850
684530.597,4572200.000,-330.060
684530.597,4572100.000,-272.630
684530.597,4572000.000,-262.310
684530.597,4571900.000,-268.350
684530.597,4571800.000,-267.450
684530.597,4571700.000,-253.120
684530.597,4571600.000,-233.850
684530.597,4571500.000,-217.650
684530.597,4571400.000,-205.910
684530.597,4571300.000,-196.870
684530.597,4571200.000,-190.140
684530.597,4571100.000,-186.570
684530.597,4571000.000,-182.750
684530.597,4570900.000,-177.110
684530.597,4570800.000,-174.690
684530.597,4570700.000,-172.930
684530.597,4570600.000,-170.500
684530.597,4570500.000,-170.050
684530.597,4570400.000,-168.020
684530.597,4570300.000,-166.840
684530.597,4570200.000,-166.120
684530.597,4570100.000,-165.530
684530.597,4570000.000,-164.920
684530.597,4569900.000,-163.960
684530.597,4569800.000,-163.120
684530.597,4569700.000,-162.240
684530.597,4569600.000,-161.560
684530.597,4569500.000,-161.200
684530.597,4569400.000,-160.570
684530.597,4569300.000,-159.950
684530.597,4569200.000,-159.180
684530.597,4569100.000,-158.910
684530.597,4569000.000,-158.230
684530.597,4568900.000,-157.880
684530.597,4568800.000,-157.730
684530.597,4568700.000,-157.790
684530.597,4568600.000,-158.070
684530.597,4568500.000,-159.370
684530.597,4568400.000,-156.840
684530.597,4568300.000,-150.960
684530.597,4568200.000,-145.770
684530.597,4568100.000,-144.750
684530.597,4568000.000,-143.950
684530.597,4567900.000,-144.050
684530.597,4567800.000,-143.430
684530.597,4567700.000,-142.730
684530.597,4567600.000,-142.520
684530.597,4567500.000,-142.780
684530.597,4567400.000,-143.390
684530.597,4567300.000,-143.470
684530.597,4567200.000,-143.670
684530.597,4567100.000,-143.450
684530.597,4567000.000,-143.340
684530.597,4566900.000,-144.070
684530.597,4566800.000,-145.160
684530.597,4566700.000,-145.550
684530.597,4566600.000,-145.760
684530.597,4566500.000,-146.100
684530.597,4566400.000,-146.470
684530.597,4566300.000,-146.940
684530.597,4566200.000,-147.000
684530.597,4566100.000,-147.360
684530.597,4566000.000,-146.880
684530.597,4565900.000,-147.110
684530.597,4565800.000,-146.330
684530.597,4565700.000,-145.730
684530.597,4565600.000,-146.230
684530.597,4565500.000,-146.190
684530.597,4565400.000,-146.550
684530.597,4565300.000,-146.860
684530.597,4565200.000,-147.140
684530.597,4565100.000,-147.400
684530.597,4565000.000,-147.070
684530.597,4564900.000,-146.060
684530.597,4564800.000,-145.620
684530.597,4564700.000,-144.610
684530.597,4564600.000,-145.190
684530.597,4564500.000,-144.880
684530.597,4564400.000,-143.480
684530.597,4564300.000,-144.460
684530.597,4564200.000,-144.460
684530.597,4564100.000,-141.150
684530.597,4564000.000,-141.960
684530.597,4563900.000,-141.740
684530.597,4563800.000,-141.415
684530.597,4563700.000,-140.710
684530.597,4563600.000,-142.870
684530.597,4563500.000,-143.230
684530.597,4563400.000,-141.740
684530.597,4563300.000,-142.990
684530.597,4563200.000,-143.600
684530.597,4563100.000,-143.630
684530.597,4563000.000,-143.600
684530.597,4562900.000,-142.510
684530.597,4562800.000,-142.440
684530.597,4562700.000,-141.320
684530.597,4562600.000,-140.410
684530.597,4562500.000,-140.400
684530.597,4562400.000,-140.470
684530.597,4562300.000,-140.050
684530.597,4562200.000,-140.270
684530.597,4562100.000,-140.560
684530.597,4562000.000,-141.090
684530.597,4561900.000,-141.370
684530.597,4561800.000,-142.160
684530.597,4561700.000,-142.990
684530.597,4561600.000,-143.500
684530.597,4561500.000,-143.400
684530.597,4561400.000,-143.130
684530.597,4561300.000,-142.320
684530.597,4561200.000,-141.240
684530.597,4561100.000,-141.140
684530.597,4561000.000,-140.530
684530.597,4560900.000,-140.050
684630.597,4594500.000,-669.710
684630.597,4594400.000,-671.450
684630.597,4594300.000,-672.520
684630.597,4594200.000,-673.400
684630.597,4594100.000,-673.980
684630.597,4594000.000,-674.350
684630.597,4593900.000,-674.900
684630.597,4593800.000,-675.350
684630.597,4593700.000,-675.560
684630.597,4593600.000,-675.610
684630.597,4593500.000,-675.770
684630.597,4593400.000,-676.350
684630.597,4593300.000,-676.810
684630.597,4593200.000,-676.940
684630.597,4593100.000,-676.330
684630.597,4593000.000,-675.500
684630.597,4592900.000,-674.890
684630.597,4592800.000,-675.060
684630.597,4592700.000,-673.800
684630.597,4592600.000,-671.580
684630.597,4592500.000,-667.700
684630.597,4592400.000,-662.310
684630.597,4592300.000,-657.310
684630.597,4592200.000,-653.130
684630.597,4592100.000,-650.690
684630.597,4592000.000,-648.400
684630.597,4591900.000,-646.500
684630.597,4591800.000,-644.510
684630.597,4591700.000,-642.050
684630.597,4591600.000,-639.110
684630.597,4591500.000,-636.790
684630.597,4591400.000,-635.340
684630.597,4591300.000,-634.880
684630.597,4591200.000,-634.520
684630.597,4591100.000,-632.850
684630.597,4591000.000,-630.950
684630.597,4590900.000,-629.160
684630.597,4590800.000,-627.080
684630.597,4590700.000,-625.640
684630.597,4590600.000,-624.450
684630.597,4590500.000,-624.090
684630.597,4590400.000,-623.420
684630.597,4590300.000,-622.440
684630.597,4590200.000,-621.170
684630.597,4590100.000,-620.390
684630.597,4590000.000,-620.620
684630.597,4589900.000,-620.260
684630.597,4589800.000,-619.920
684630.597,4589700.000,-618.690
684630.597,4589600.000,-618.860
684630.597,4589500.000,-618.610
684630.597,4589400.000,-618.580
684630.597,4589300.000,-614.080
684630.597,4589200.000,-604.630
684630.597,4589100.000,-599.290
684630.597,4589000.000,-596.830
684630.597,4588900.000,-595.020
684630.597,4588800.000,-593.010
684630.597,4588700.000,-591.230
684630.597,4588600.000,-590.260
684630.597,4588500.000,-590.210
684630.597,4588400.000,-591.420
684630.597,4588300.000,-591.470
684630.597,4588200.000,-590.990
684630.597,4588100.000,-589.750
684630.597,4588000.000,-588.460
684630.597,4587900.000,-586.590
684630.597,4587800.000,-584.380
684630.597,4587700.000,-582.210
684630.597,4587600.000,-580.620
684630.597,4587500.000,-579.330
684630.597,4587400.000,-578.510
684630.597,4587300.000,-578.050
684630.597,4587200.000,-577.740
684630.597,4587100.000,-577.590
684630.597,4587000.000,-579.170
684630.597,4586900.000,-579.470
684630.597,4586800.000,-578.500
684630.597,4586700.000,-576.490
684630.597,4586600.000,-574.250
684630.597,4586500.000,-571.520
684630.597,4586400.000,-568.580
684630.597,4586300.000,-565.640
684630.597,4586200.000,-562.450
684630.597,4586100.000,-560.040
684630.597,4586000.000,-557.950
684630.597,4585900.000,-555.610
684630.597,4585800.000,-554.240
684630.597,4585700.000,-551.910
684630.597,4585600.000,-549.380
684630.597,4585500.000,-547.260
684630.597,4585400.000,-544.880
684630.597,4585300.000,-542.440
684630.597,4585200.000,-539.460
684630.597,4585100.000,-536.680
684630.597,4585000.000,-534.060
684630.597,4584900.000,-531.420
684630.597,4584800.000,-529.400
684630.597,4584700.000,-527.650
684630.597,4584600.000,-525.650
684630.597,4584500.000,-523.800
684630.597,4584400.000,-522.320
684630.597,4584300.000,-520.420
684630.597,4584200.000,-518.310
684630.597,4584100.000,-516.850
684630.597,4584000.000,-515.500
684630.597,4583900.000,-514.360
684630.597,4583800.000,-513.760
684630.597,4583700.000,-513.520
684630.597,4583600.000,-512.710
684630.597,4583500.000,-511.600
684630.597,4583400.000,-509.980
684630.597,4583300.000,-507.660
684630.597,4583200.000,-505.170
684630.597,4583100.000,-502.250
684630.597,4583000.000,-499.700
684630.597,4582900.000,-496.430
684630.597,4582800.000,-492.790
684630.597,4582700.000,-491.050
684630.597,4582600.000,-490.040
684630.597,4582500.000,-488.880
684630.597,4582400.000,-488.180
684630.597,4582300.000,-488.020
684630.597,4582200.000,-488.270
684630.597,4582100.000,-488.590
684630.597,4582000.000,-489.210
684630.597,4581900.000,-490.070
684630.597,4581800.000,-490.970
684630.597,4581700.000,-492.430
684630.597,4581600.000,-494.010
684630.597,4581500.000,-496.010
684630.597,4581400.000,-498.890
684630.597,4581300.000,-501.590
684630.597,4581200.000,-504.650
684630.597,4581100.000,-508.650
684630.597,4581000.000,-512.970
684630.597,4580900.000,-517.250
684630.597,4580800.000,-522.190
684630.597,4580700.000,-527.460
684630.597,4580600.000,-533.880
684630.597,4580500.000,-541.530
684630.597,4580400.000,-550.600
684630.597,4580300.000,-560.110
684630.597,4580200.000,-570.220
684630.597,4580100.000,-581.490
684630.597,4580000.000,-588.960
684630.597,4579900.000,-594.540
684630.597,4579800.000,-597.310
684630.597,4579700.000,-595.410
684630.597,4579600.000,-591.120
684630.597,4579500.000,-583.860
684630.597,4579400.000,-576.410
684630.597,4579300.000,-569.740
684630.597,4579200.000,-564.470
684630.597,4579100.000,-562.070
684630.597,4579000.000,-562.870
684630.597,4578900.000,-571.170
684630.597,4578800.000,-586.540
684630.597,4578700.000,-601.820
684630.597,4578600.000,-609.240
684630.597,4578500.000,-611.290
684630.597,4578400.000,-612.630
684630.597,4578300.000,-614.070
684630.597,4578200.000,-614.720
684630.597,4578100.000,-615.210
684630.597,4578000.000,-614.600
684630.597,4577900.000,-612.100
684630.597,4577800.000,-608.180
684630.597,4577700.000,-599.710
684630.597,4577600.000,-588.640
684630.597,4577500.000,-573.740
684630.597,4577400.000,-558.050
684630.597,4577300.000,-538.580
684630.597,4577200.000,-522.740
684630.597,4577100.000,-513.240
684630.597,4577000.000,-510.380
684630.597,4576900.000,-510.890
684630.597,4576800.000,-513.700
684630.597,4576700.000,-519.200
684630.597,4576600.000,-525.330
684630.597,4576500.000,-534.010
684630.597,4576400.000,-545.900
684630.597,4576300.000,-553.450
684630.597,4576200.000,-556.820
684630.597,4576100.000,-558.810
684630.597,4576000.000,-560.980
684630.597,4575900.000,-562.840
684630.597,4575800.000,-565.890
684630.597,4575700.000,-570.180
684630.597,4575600.000,-575.550
684630.597,4575500.000,-581.160
684630.597,4575400.000,-585.640
684630.597,4575300.000,-589.160
684630.597,4575200.000,-591.480
684630.597,4575100.000,-593.150
684630.597,4575000.000,-593.720
684630.597,4574900.000,-594.670
684630.597,4574800.000,-596.690
684630.597,4574700.000,-598.010
684630.597,4574600.000,-597.860
684630.597,4574500.000,-597.100
684630.597,4574400.000,-595.630
684630.597,4574300.000,-593.210
684630.597,4574200.000,-589.900
684630.597,4574100.000,-585.110
684630.597,4574000.000,-580.780
684630.597,4573900.000,-576.950
684630.597,4573800.000,-573.910
684630.597,4573700.000,-570.540
684630.597,4573600.000,-567.070
684630.597,4573500.000,-563.110
684630.597,4573400.000,-559.470
684630.597,4573300.000,-553.740
684630.597,4573200.000,-550.610
684630.597,4573100.000,-549.170
684630.597,4573000.000,-546.770
684630.597,4572900.000,-538.030
684630.597,4572800.000,-524.930
684630.597,4572700.000,-509.870
684630.597,4572600.000,-491.090
684630.597,4572500.000,-454.410
684630.597,4572400.000,-415.480
684630.597,4572300.000,-377.300
684630.597,4572200.000,-333.510
684630.597,4572100.000,-272.660
684630.597,4572000.000,-250.730
684630.597,4571900.000,-259.040
684630.597,4571800.000,-256.460
684630.597,4571700.000,-242.970
684630.597,4571600.000,-225.820
684630.597,4571500.000,-211.610
684630.597,4571400.000,-200.610
684630.597,4571300.000,-192.110
684630.597,4571200.000,-183.450
684630.597,4571100.000,-181.580
684630.597,4571000.000,-181.390
684630.597,4570900.000,-176.740
684630.597,4570800.000,-174.230
684630.597,4570700.000,-172.160
684630.597,4570600.000,-169.270
684630.597,4570500.000,-168.870
684630.597,4570400.000,-167.600
684630.597,4570300.000,-166.280
684630.597,4570200.000,-165.680
684630.597,4570100.000,-165.260
684630.597,4570000.000,-164.730
684630.597,4569900.000,-163.710
684630.597,4569800.000,-162.490
684630.597,4569700.000,-161.710
684630.597,4569600.000,-161.030
684630.597,4569500.000,-160.660
684630.597,4569400.000,-159.800
684630.597,4569300.000,-159.550
684630.597,4569200.000,-158.870
684630.597,4569100.000,-158.210
684630.597,4569000.000,-158.020
684630.597,4568900.000,-157.540
684630.597,4568800.000,-157.500
684630.597,4568700.000,-157.430
684630.597,4568600.000,-157.400
684630.597,4568500.000,-158.040
684630.597,4568400.000,-158.730
684630.597,4568300.000,-155.190
684630.597,4568200.000,-149.550
684630.597,4568100.000,-146.410
684630.597,4568000.000,-144.420
684630.597,4567900.000,-144.200
684630.597,4567800.000,-144.060
684630.597,4567700.000,-143.360
684630.597,4567600.000,-142.850
684630.597,4567500.000,-142.820
684630.597,4567400.000,-143.240
684630.597,4567300.000,-143.390
684630.597,4567200.000,-143.580
684630.597,4567100.000,-143.800
684630.597,4567000.000,-143.690
684630.597,4566900.000,-143.700
684630.597,4566800.000,-144.690
684630.597,4566700.000,-144.800
684630.597,4566600.000,-145.370
684630.597,4566500.000,-145.850
684630.597,4566400.000,-146.320
684630.597,4566300.000,-146.850
684630.597,4566200.000,-147.190
684630.597,4566100.000,-147.270
684630.597,4566000.000,-147.080
684630.597,4565900.000,-147.040
684630.597,4565800.000,-146.790
684630.597,4565700.000,-145.950
684630.597,4565600.000,-146.030
684630.597,4565500.000,-146.520
684630.597,4565400.000,-147.250
684630.597,4565300.000,-147.140
684630.597,4565200.000,-147.430
684630.597,4565100.000,-147.690
684630.597,4565000.000,-146.920
684630.597,4564900.000,-145.980
684630.597,4564800.000,-146.140
684630.597,4564700.000,-145.020
684630.597,4564600.000,-145.170
684630.597,4564500.000,-145.690
684630.597,4564400.000,-144.780
684630.597,4564300.000,-144.380
684630.597,4564200.000,-144.560
684630.597,4564100.000,-143.980
684630.597,4564000.000,-141.600
684630.597,4563900.000,-140.830
684630.597,4563800.000,-142.580
684630.597,4563700.000,-141.527
684630.597,4563600.000,-142.290
684630.597,4563500.000,-142.110
684630.597,4563400.000,-141.460
684630.597,4563300.000,-142.080
684630.597,4563200.000,-143.310
684630.597,4563100.000,-143.970
684630.597,4563000.000,-143.830
684630.597,4562900.000,-143.140
684630.597,4562800.000,-142.250
684630.597,4562700.000,-141.990
684630.597,4562600.000,-140.850
684630.597,4562500.000,-140.420
684630.597,4562400.000,-140.430
684630.597,4562300.000,-140.110
684630.597,4562200.000,-140.183
684630.597,4562100.000,-140.580
684630.597,4562000.000,-140.530
684630.597,4561900.000,-141.250
684630.597,4561800.000,-141.620
684630.597,4561700.000,-142.660
684630.597,4561600.000,-143.390
684630.597,4561500.000,-143.400
684630.597,4561400.000,-143.280
684630.597,4561300.000,-142.920
684630.597,4561200.000,-142.080
684630.597,4561100.000,-141.180
684630.597,4561000.000,-140.560
684630.597,4560900.000,-140.420
684630.597,4560800.000,-140.130
684730.597,4594500.000,-671.580
684730.597,4594400.000,-673.470
684730.597,4594300.000,-675.110
684730.597,4594200.000,-676.550
684730.597,4594100.000,-677.040
684730.597,4594000.000,-677.550
684730.597,4593900.000,-677.930
684730.597,4593800.000,-678.380
684730.597,4593700.000,-678.560
684730.597,4593600.000,-679.230
684730.597,4593500.000,-679.140
684730.597,4593400.000,-679.110
684730.597,4593300.000,-679.550
684730.597,4593200.000,-679.730
684730.597,4593100.000,-679.460
684730.597,4593000.000,-678.620
684730.597,4592900.000,-677.990
684730.597,4592800.000,-677.390
684730.597,4592700.000,-675.280
684730.597,4592600.000,-673.040
684730.597,4592500.000,-668.610
684730.597,4592400.000,-662.780
684730.597,4592300.000,-657.170
684730.597,4592200.000,-652.880
684730.597,4592100.000,-650.580
684730.597,4592000.000,-648.480
684730.597,4591900.000,-646.980
684730.597,4591800.000,-645.310
684730.597,4591700.000,-642.810
684730.597,4591600.000,-640.870
684730.597,4591500.000,-638.410
684730.597,4591400.000,-636.400
684730.597,4591300.000,-636.060
684730.597,4591200.000,-635.850
684730.597,4591100.000,-634.610
684730.597,4591000.000,-632.890
684730.597,4590900.000,-631.540
684730.597,4590800.000,-630.010
684730.597,4590700.000,-629.240
684730.597,4590600.000,-628.810
684730.597,4590500.000,-628.340
684730.597,4590400.000,-627.690
684730.597,4590300.000,-626.130
684730.597,4590200.000,-624.940
684730.597,4590100.000,-623.480
684730.597,4590000.000,-621.680
684730.597,4589900.000,-620.350
684730.597,4589800.000,-620.050
684730.597,4589700.000,-620.970
684730.597,4589600.000,-621.330
684730.597,4589500.000,-621.950
684730.597,4589400.000,-621.930
684730.597,4589300.000,-619.700
684730.597,4589200.000,-613.020
684730.597,4589100.000,-604.210
684730.597,4589000.000,-599.420
684730.597,4588900.000,-597.790
684730.597,4588800.000,-596.970
684730.597,4588700.000,-595.210
684730.597,4588600.000,-595.160
684730.597,4588500.000,-595.540
684730.597,4588400.000,-596.860
684730.597,4588300.000,-599.550
684730.597,4588200.000,-600.440
684730.597,4588100.000,-599.840
684730.597,4588000.000,-598.040
684730.597,4587900.000,-594.760
684730.597,4587800.000,-590.100
684730.597,4587700.000,-585.870
684730.597,4587600.000,-583.790
684730.597,4587500.000,-582.120
684730.597,4587400.000,-581.060
684730.597,4587300.000,-580.290
684730.597,4587200.000,-579.630
684730.597,4587100.000,-579.700
684730.597,4587000.000,-581.140
684730.597,4586900.000,-583.500
684730.597,4586800.000,-582.970
684730.597,4586700.000,-579.630
684730.597,4586600.000,-576.690
684730.597,4586500.000,-573.850
684730.597,4586400.000,-570.980
684730.597,4586300.000,-568.680
684730.597,4586200.000,-565.870
684730.597,4586100.000,-564.640
684730.597,4586000.000,-562.810
684730.597,4585900.000,-561.360
684730.597,4585800.000,-559.770
684730.597,4585700.000,-557.310
684730.597,4585600.000,-554.500
684730.597,4585500.000,-552.030
684730.597,4585400.000,-549.750
684730.597,4585300.000,-547.500
684730.597,4585200.000,-544.440
684730.597,4585100.000,-541.570
684730.597,4585000.000,-538.690
684730.597,4584900.000,-535.960
684730.597,4584800.000,-533.870
684730.597,4584700.000,-531.910
684730.597,4584600.000,-530.130
684730.597,4584500.000,-528.240
684730.597,4584400.000,-526.730
684730.597,4584300.000,-525.400
684730.597,4584200.000,-523.180
684730.597,4584100.000,-521.570
684730.597,4584000.000,-519.830
684730.597,4583900.000,-518.550
684730.597,4583800.000,-517.800
684730.597,4583700.000,-517.470
684730.597,4583600.000,-516.940
684730.597,4583500.000,-515.870
684730.597,4583400.000,-514.380
684730.597,4583300.000,-512.290
684730.597,4583200.000,-509.700
684730.597,4583100.000,-506.830
684730.597,4583000.000,-504.160
684730.597,4582900.000,-501.490
684730.597,4582800.000,-499.250
684730.597,4582700.000,-497.290
684730.597,4582600.000,-495.600
684730.597,4582500.000,-493.820
684730.597,4582400.000,-492.180
684730.597,4582300.000,-491.170
684730.597,4582200.000,-490.980
684730.597,4582100.000,-491.140
684730.597,4582000.000,-491.320
684730.597,4581900.000,-492.250
684730.597,4581800.000,-493.290
684730.597,4581700.000,-494.540
684730.597,4581600.000,-496.160
684730.597,4581500.000,-497.890
684730.597,4581400.000,-500.320
684730.597,4581300.000,-503.180
684730.597,4581200.000,-506.160
684730.597,4581100.000,-509.770
684730.597,4581000.000,-513.810
684730.597,4580900.000,-517.980
684730.597,4580800.000,-522.510
684730.597,4580700.000,-527.390
684730.597,4580600.000,-533.330
684730.597,4580500.000,-540.570
684730.597,4580400.000,-549.580
684730.597,4580300.000,-559.580
684730.597,4580200.000,-570.660
684730.597,4580100.000,-581.620
684730.597,4580000.000,-590.510
684730.597,4579900.000,-596.790
684730.597,4579800.000,-600.340
684730.597,4579700.000,-600.350
684730.597,4579600.000,-597.120
684730.597,4579500.000,-590.000
684730.597,4579400.000,-583.110
684730.597,4579300.000,-576.090
684730.597,4579200.000,-570.750
684730.597,4579100.000,-566.730
684730.597,4579000.000,-565.530
684730.597,4578900.000,-568.240
684730.597,4578800.000,-577.840
684730.597,4578700.000,-596.000
684730.597,4578600.000,-606.110
684730.597,4578500.000,-609.580
684730.597,4578400.000,-611.010
684730.597,4578300.000,-611.780
684730.597,4578200.000,-612.970
684730.597,4578100.000,-613.510
684730.597,4578000.000,-614.500
684730.597,4577900.000,-613.110
684730.597,4577800.000,-610.010
684730.597,4577700.000,-603.820
684730.597,4577600.000,-595.260
684730.597,4577500.000,-579.630
684730.597,4577400.000,-560.630
684730.597,4577300.000,-542.170
684730.597,4577200.000,-527.200
684730.597,4577100.000,-516.650
684730.597,4577000.000,-513.300
684730.597,4576900.000,-512.900
684730.597,4576800.000,-515.410
684730.597,4576700.000,-519.840
684730.597,4576600.000,-526.270
684730.597,4576500.000,-534.080
684730.597,4576400.000,-543.670
684730.597,4576300.000,-552.380
684730.597,4576200.000,-557.010
684730.597,4576100.000,-558.850
684730.597,4576000.000,-561.380
684730.597,4575900.000,-563.270
684730.597,4575800.000,-566.450
684730.597,4575700.000,-570.180
684730.597,4575600.000,-575.670
684730.597,4575500.000,-580.850
684730.597,4575400.000,-585.060
684730.597,4575300.000,-587.890
684730.597,4575200.000,-590.360
684730.597,4575100.000,-591.300
684730.597,4575000.000,-592.310
684730.597,4574900.000,-593.510
684730.597,4574800.000,-595.420
684730.597,4574700.000,-596.730
684730.597,4574600.000,-596.730
684730.597,4574500.000,-596.380
684730.597,4574400.000,-594.980
684730.597,4574300.000,-592.480
684730.597,4574200.000,-589.010
684730.597,4574100.000,-584.250
684730.597,4574000.000,-579.980
684730.597,4573900.000,-576.720
684730.597,4573800.000,-574.160
684730.597,4573700.000,-571.680
684730.597,4573600.000,-569.080
684730.597,4573500.000,-566.250
684730.597,4573400.000,-562.750
684730.597,4573300.000,-559.380
684730.597,4573200.000,-556.000
684730.597,4573100.000,-551.930
684730.597,4573000.000,-543.470
684730.597,4572900.000,-533.120
684730.597,4572800.000,-522.250
684730.597,4572700.000,-507.810
684730.597,4572600.000,-489.920
684730.597,4572500.000,-456.560
684730.597,4572400.000,-420.750
684730.597,4572300.000,-379.980
684730.597,4572200.000,-329.330
684730.597,4572100.000,-276.980
684730.597,4572000.000,-241.170
684730.597,4571900.000,-248.390
684730.597,4571800.000,-243.190
684730.597,4571700.000,-231.720
684730.597,4571600.000,-218.860
684730.597,4571500.000,-207.330
684730.597,4571400.000,-196.910
684730.597,4571300.000,-188.980
684730.597,4571200.000,-181.990
684730.597,4571100.000,-178.060
684730.597,4571000.000,-179.150
684730.597,4570900.000,-176.490
684730.597,4570800.000,-173.430
684730.597,4570700.000,-171.040
684730.597,4570600.000,-168.500
684730.597,4570500.000,-167.850
684730.597,4570400.000,-166.690
684730.597,4570300.000,-165.420
684730.597,4570200.000,-164.730
684730.597,4570100.000,-164.630
684730.597,4570000.000,-164.530
684730.597,4569900.000,-163.550
684730.597,4569800.000,-162.160
684730.597,4569700.000,-161.400
684730.597,4569600.000,-160.660
684730.597,4569500.000,-159.910
684730.597,4569400.000,-158.770
684730.597,4569300.000,-158.370
684730.597,4569200.000,-158.530
684730.597,4569100.000,-157.620
684730.597,4569000.000,-157.020
684730.597,4568900.000,-156.860
684730.597,4568800.000,-156.990
684730.597,4568700.000,-157.160
684730.597,4568600.000,-157.070
684730.597,4568500.000,-157.120
684730.597,4568400.000,-157.910
684730.597,4568300.000,-157.810
684730.597,4568200.000,-153.800
684730.597,4568100.000,-149.720
684730.597,4568000.000,-145.780
684730.597,4567900.000,-144.440
684730.597,4567800.000,-144.310
684730.597,4567700.000,-144.150
684730.597,4567600.000,-143.480
684730.597,4567500.000,-143.150
684730.597,4567400.000,-143.320
684730.597,4567300.000,-143.340
684730.597,4567200.000,-143.240
684730.597,4567100.000,-143.490
684730.597,4567000.000,-144.020
684730.597,4566900.000,-144.100
684730.597,4566800.000,-144.690
684730.597,4566700.000,-144.710
684730.597,4566600.000,-144.760
684730.597,4566500.000,-145.350
684730.597,4566400.000,-145.950
684730.597,4566300.000,-146.510
684730.597,4566200.000,-147.030
684730.597,4566100.000,-147.540
684730.597,4566000.000,-147.270
684730.597,4565900.000,-147.100
684730.597,4565800.000,-147.260
684730.597,4565700.000,-146.590
684730.597,4565600.000,-145.670
684730.597,4565500.000,-146.220
684730.597,4565400.000,-147.450
684730.597,4565300.000,-147.250
684730.597,4565200.000,-147.750
684730.597,4565100.000,-148.190
684730.597,4565000.000,-147.040
684730.597,4564900.000,-146.180
684730.597,4564800.000,-145.520
684730.597,4564700.000,-145.860
684730.597,4564600.000,-145.070
684730.597,4564500.000,-145.830
684730.597,4564400.000,-145.520
684730.597,4564300.000,-144.490
684730.597,4564200.000,-144.710
684730.597,4564100.000,-145.270
684730.597,4564000.000,-140.180
684730.597,4563900.000,-141.640
684730.597,4563800.000,-143.090
684730.597,4563700.000,-142.343
684730.597,4563600.000,-141.450
684730.597,4563500.000,-142.270
684730.597,4563400.000,-140.740
684730.597,4563300.000,-141.590
684730.597,4563200.000,-143.270
684730.597,4563100.000,-143.640
684730.597,4563000.000,-143.990
684730.597,4562900.000,-143.670
684730.597,4562800.000,-142.910
684730.597,4562700.000,-142.170
684730.597,4562600.000,-141.460
684730.597,4562500.000,-140.480
684730.597,4562400.000,-140.300
684730.597,4562300.000,-140.550
684730.597,4562200.000,-140.097
684730.597,4562100.000,-140.120
684730.597,4562000.000,-140.300
684730.597,4561900.000,-140.950
684730.597,4561800.000,-141.120
684730.597,4561700.000,-142.090
684730.597,4561600.000,-143.100
684730.597,4561500.000,-143.440
684730.597,4561400.000,-143.300
684730.597,4561300.000,-143.040
684730.597,4561200.000,-142.840
684730.597,4561100.000,-141.940
684730.597,4561000.000,-140.860
684730.597,4560900.000,-140.340
684730.597,4560800.000,-140.120
684830.597,4594500.000,-673.120
684830.597,4594400.000,-675.260
684830.597,4594300.000,-677.100
684830.597,4594200.000,-678.240
684830.597,4594100.000,-678.700
684830.597,4594000.000,-679.390
684830.597,4593900.000,-679.690
684830.597,4593800.000,-679.860
684830.597,4593700.000,-680.040
684830.597,4593600.000,-680.310
684830.597,4593500.000,-680.430
684830.597,4593400.000,-680.540
684830.597,4593300.000,-680.710
684830.597,4593200.000,-680.790
684830.597,4593100.000,-680.780
684830.597,4593000.000,-680.330
684830.597,4592900.000,-679.730
684830.597,4592800.000,-679.350
684830.597,4592700.000,-677.600
684830.597,4592600.000,-674.830
684830.597,4592500.000,-669.710
684830.597,4592400.000,-663.630
684830.597,4592300.000,-657.900
684830.597,4592200.000,-653.630
684830.597,4592100.000,-651.190
684830.597,4592000.000,-649.500
684830.597,4591900.000,-648.770
684830.597,4591800.000,-647.500
684830.597,4591700.000,-645.390
684830.597,4591600.000,-644.370
684830.597,4591500.000,-641.610
684830.597,4591400.000,-639.220
684830.597,4591300.000,-639.030
684830.597,4591200.000,-637.910
684830.597,4591100.000,-636.970
684830.597,4591000.000,-636.190
684830.597,4590900.000,-635.370
684830.597,4590800.000,-634.960
684830.597,4590700.000,-634.980
684830.597,4590600.000,-634.380
684830.597,4590500.000,-633.850
684830.597,4590400.000,-633.370
684830.597,4590300.000,-631.220
684830.597,4590200.000,-628.500
684830.597,4590100.000,-625.570
684830.597,4590000.000,-622.530
684830.597,4589900.000,-620.460
684830.597,4589800.000,-620.950
684830.597,4589700.000,-622.510
684830.597,4589600.000,-624.410
684830.597,4589500.000,-624.910
684830.597,4589400.000,-625.140
684830.597,4589300.000,-622.760
684830.597,4589200.000,-614.590
684830.597,4589100.000,-606.150
684830.597,4589000.000,-602.560
684830.597,4588900.000,-601.550
684830.597,4588800.000,-601.670
684830.597,4588700.000,-601.050
684830.597,4588600.000,-599.820
684830.597,4588500.000,-600.070
684830.597,4588400.000,-602.610
684830.597,4588300.000,-606.140
684830.597,4588200.000,-608.670
684830.597,4588100.000,-608.340
684830.597,4588000.000,-606.560
684830.597,4587900.000,-603.220
684830.597,4587800.000,-599.670
684830.597,4587700.000,-594.590
684830.597,4587600.000,-589.680
684830.597,4587500.000,-587.550
684830.597,4587400.000,-586.110
684830.597,4587300.000,-584.450
684830.597,4587200.000,-582.770
684830.597,4587100.000,-581.830
684830.597,4587000.000,-582.260
684830.597,4586900.000,-585.190
684830.597,4586800.000,-587.950
684830.597,4586700.000,-585.130
684830.597,4586600.000,-580.480
684830.597,4586500.000,-576.060
684830.597,4586400.000,-572.870
684830.597,4586300.000,-570.530
684830.597,4586200.000,-568.430
684830.597,4586100.000,-567.170
684830.597,4586000.000,-565.730
684830.597,4585900.000,-564.570
684830.597,4585800.000,-563.800
684830.597,4585700.000,-562.040
684830.597,4585600.000,-559.940
684830.597,4585500.000,-557.270
684830.597,4585400.000,-554.450
684830.597,4585300.000,-552.020
684830.597,4585200.000,-548.910
684830.597,4585100.000,-545.990
684830.597,4585000.000,-543.170
684830.597,4584900.000,-540.340
684830.597,4584800.000,-538.220
684830.597,4584700.000,-535.900
684830.597,4584600.000,-534.280
684830.597,4584500.000,-532.770
684830.597,4584400.000,-531.480
684830.597,4584300.000,-530.380
684830.597,4584200.000,-528.170
684830.597,4584100.000,-526.620
684830.597,4584000.000,-525.080
684830.597,4583900.000,-523.640
684830.597,4583800.000,-522.800
684830.597,4583700.000,-522.300
684830.597,4583600.000,-521.740
684830.597,4583500.000,-520.710
684830.597,4583400.000,-519.130
684830.597,4583300.000,-517.100
684830.597,4583200.000,-514.220
684830.597,4583100.000,-511.390
684830.597,4583000.000,-508.520
684830.597,4582900.000,-505.750
684830.597,4582800.000,-503.520
684830.597,4582700.000,-501.660
684830.597,4582600.000,-500.080
684830.597,4582500.000,-498.950
684830.597,4582400.000,-497.660
684830.597,4582300.000,-497.010
684830.597,4582200.000,-495.920
684830.597,4582100.000,-495.070
684830.597,4582000.000,-494.740
684830.597,4581900.000,-494.490
684830.597,4581800.000,-495.350
684830.597,4581700.000,-496.610
684830.597,4581600.000,-498.340
684830.597,4581500.000,-499.910
684830.597,4581400.000,-501.970
684830.597,4581300.000,-504.700
684830.597,4581200.000,-507.500
684830.597,4581100.000,-510.820
684830.597,4581000.000,-514.430
684830.597,4580900.000,-518.670
684830.597,4580800.000,-522.920
684830.597,4580700.000,-527.580
684830.597,4580600.000,-533.060
684830.597,4580500.000,-539.910
684830.597,4580400.000,-548.740
684830.597,4580300.000,-558.080
684830.597,4580200.000,-570.220
684830.597,4580100.000,-582.100
684830.597,4580000.000,-591.530
684830.597,4579900.000,-598.530
684830.597,4579800.000,-601.770
684830.597,4579700.000,-603.960
684830.597,4579600.000,-602.010
684830.597,4579500.000,-597.060
684830.597,4579400.000,-591.070
684830.597,4579300.000,-584.140
684830.597,4579200.000,-577.760
684830.597,4579100.000,-572.880
684830.597,4579000.000,-570.540
684830.597,4578900.000,-570.740
684830.597,4578800.000,-575.050
684830.597,4578700.000,-586.270
684830.597,4578600.000,-601.890
684830.597,4578500.000,-608.140
684830.597,4578400.000,-609.900
684830.597,4578300.000,-610.650
684830.597,4578200.000,-611.150
684830.597,4578100.000,-611.640
684830.597,4578000.000,-612.310
684830.597,4577900.000,-611.900
684830.597,4577800.000,-609.660
684830.597,4577700.000,-606.440
684830.597,4577600.000,-599.520
684830.597,4577500.000,-586.120
684830.597,4577400.000,-566.340
684830.597,4577300.000,-546.080
684830.597,4577200.000,-529.110
684830.597,4577100.000,-519.870
684830.597,4577000.000,-516.560
684830.597,4576900.000,-516.400
684830.597,4576800.000,-517.630
684830.597,4576700.000,-520.560
684830.597,4576600.000,-526.310
684830.597,4576500.000,-534.470
684830.597,4576400.000,-544.060
684830.597,4576300.000,-552.140
684830.597,4576200.000,-556.420
684830.597,4576100.000,-559.260
684830.597,4576000.000,-561.540
684830.597,4575900.000,-563.280
684830.597,4575800.000,-566.460
684830.597,4575700.000,-570.190
684830.597,4575600.000,-575.560
684830.597,4575500.000,-580.670
684830.597,4575400.000,-584.590
684830.597,4575300.000,-587.690
684830.597,4575200.000,-590.020
684830.597,4575100.000,-590.760
684830.597,4575000.000,-591.500
684830.597,4574900.000,-592.800
684830.597,4574800.000,-594.580
684830.597,4574700.000,-596.470
684830.597,4574600.000,-596.630
684830.597,4574500.000,-596.320
684830.597,4574400.000,-594.170
684830.597,4574300.000,-591.540
684830.597,4574200.000,-587.810
684830.597,4574100.000,-583.380
684830.597,4574000.000,-579.560
684830.597,4573900.000,-576.550
684830.597,4573800.000,-574.580
684830.597,4573700.000,-573.350
684830.597,4573600.000,-571.470
684830.597,4573500.000,-569.710
684830.597,4573400.000,-567.950
684830.597,4573300.000,-563.060
684830.597,4573200.000,-557.780
684830.597,4573100.000,-550.180
684830.597,4573000.000,-540.020
684830.597,4572900.000,-527.410
684830.597,4572800.000,-512.470
684830.597,4572700.000,-497.470
684830.597,4572600.000,-479.530
684830.597,4572500.000,-455.230
684830.597,4572400.000,-429.310
684830.597,4572300.000,-385.120
684830.597,4572200.000,-327.230
684830.597,4572100.000,-276.310
684830.597,4572000.000,-244.130
684830.597,4571900.000,-239.980
684830.597,4571800.000,-234.650
684830.597,4571700.000,-225.200
684830.597,4571600.000,-214.680
684830.597,4571500.000,-204.470
684830.597,4571400.000,-194.660
684830.597,4571300.000,-187.160
684830.597,4571200.000,-182.430
684830.597,4571100.000,-177.550
684830.597,4571000.000,-175.150
684830.597,4570900.000,-174.830
684830.597,4570800.000,-172.920
684830.597,4570700.000,-169.670
684830.597,4570600.000,-168.240
684830.597,4570500.000,-166.770
684830.597,4570400.000,-165.770
684830.597,4570300.000,-164.360
684830.597,4570200.000,-163.190
684830.597,4570100.000,-163.580
684830.597,4570000.000,-163.840
684830.597,4569900.000,-163.550
684830.597,4569800.000,-162.110
684830.597,4569700.000,-160.960
684830.597,4569600.000,-160.230
684830.597,4569500.000,-159.320
684830.597,4569400.000,-157.990
684830.597,4569300.000,-156.860
684830.597,4569200.000,-156.830
684830.597,4569100.000,-157.460
684830.597,4569000.000,-156.450
684830.597,4568900.000,-156.160
684830.597,4568800.000,-156.320
684830.597,4568700.000,-156.600
684830.597,4568600.000,-156.690
684830.597,4568500.000,-156.690
684830.597,4568400.000,-156.780
684830.597,4568300.000,-157.410
684830.597,4568200.000,-157.040
684830.597,4568100.000,-153.180
684830.597,4568000.000,-148.550
684830.597,4567900.000,-144.830
684830.597,4567800.000,-144.510
684830.597,4567700.000,-144.490
684830.597,4567600.000,-143.870
684830.597,4567500.000,-143.610
684830.597,4567400.000,-143.710
684830.597,4567300.000,-143.260
684830.597,4567200.000,-143.290
684830.597,4567100.000,-143.390
684830.597,4567000.000,-143.830
684830.597,4566900.000,-144.170
684830.597,4566800.000,-144.680
684830.597,4566700.000,-145.520
684830.597,4566600.000,-144.910
684830.597,4566500.000,-144.410
684830.597,4566400.000,-145.370
684830.597,4566300.000,-145.910
684830.597,4566200.000,-146.960
684830.597,4566100.000,-147.500
684830.597,4566000.000,-147.350
684830.597,4565900.000,-147.390
684830.597,4565800.000,-147.390
684830.597,4565700.000,-147.290
684830.597,4565600.000,-145.210
