684280.597,4577350.000,-609.229
684280.597,4577150.000,-608.572
684280.597,4576950.000,-607.914
684280.597,4576750.000,-607.256
684280.597,4576550.000,-606.599
684280.597,4576350.000,-605.941
684280.597,4576150.000,-605.284
684280.597,4575950.000,-604.626
684280.597,4575750.000,-603.968
684280.597,4575550.000,-603.311
684280.597,4575350.000,-602.653
684280.597,4575150.000,-601.995
684280.597,4574950.000,-601.338
684280.597,4574750.000,-600.680
684280.597,4574350.000,-601.909
684480.597,4594550.000,-663.700
684480.597,4594350.000,-666.040
684480.597,4594150.000,-667.540
684480.597,4593950.000,-669.030
684480.597,4593750.000,-670.150
684480.597,4593550.000,-670.300
684480.597,4593350.000,-671.760
684480.597,4593150.000,-672.910
684480.597,4592950.000,-672.200
684480.597,4592750.000,-672.090
684480.597,4592550.000,-667.390
684480.597,4592350.000,-659.550
684480.597,4592150.000,-651.470
684480.597,4591950.000,-646.740
684480.597,4591750.000,-641.520
684480.597,4591550.000,-634.650
684480.597,4591350.000,-632.060
684480.597,4591150.000,-630.030
684480.597,4590950.000,-626.440
684480.597,4590750.000,-622.710
684480.597,4590550.000,-619.790
684480.597,4590350.000,-617.860
684480.597,4590150.000,-615.840
684480.597,4589950.000,-618.930
684480.597,4589750.000,-618.510
684480.597,4589550.000,-615.880
684480.597,4589350.000,-605.300
684480.597,4584750.000,-605.882
684480.597,4584550.000,-605.907
684480.597,4584350.000,-605.932
684480.597,4584150.000,-605.957
684480.597,4583950.000,-605.983
684480.597,4583750.000,-606.008
684480.597,4583550.000,-606.033
684480.597,4583350.000,-606.058
684480.597,4579150.000,-605.266
684480.597,4578950.000,-604.354
684480.597,4578750.000,-606.640
684480.597,4578550.000,-612.170
684480.597,4578350.000,-615.200
684480.597,4578150.000,-614.170
684480.597,4577950.000,-609.170
684480.597,4577750.000,-608.625
684480.597,4577550.000,-608.080
684480.597,4577350.000,-607.535
684480.597,4577150.000,-606.990
684480.597,4576950.000,-606.445
684480.597,4576750.000,-605.900
684480.597,4576550.000,-605.355
684480.597,4576350.000,-604.810
684480.597,4576150.000,-604.265
684480.597,4575950.000,-603.720
684480.597,4575750.000,-603.175
684480.597,4575550.000,-602.630
684480.597,4575350.000,-602.085
684480.597,4575150.000,-601.540
684480.597,4574950.000,-600.995
684480.597,4574750.000,-600.450
684480.597,4574350.000,-601.751
684680.597,4594550.000,-670.050
684680.597,4594350.000,-673.400
684680.597,4594150.000,-675.410
684680.597,4593950.000,-676.300
684680.597,4593750.000,-677.370
684680.597,4593550.000,-677.670
684680.597,4593350.000,-678.060
684680.597,4593150.000,-678.580
684680.597,4592950.000,-676.630
684680.597,4592750.000,-675.260
684680.597,4592550.000,-670.250
684680.597,4592350.000,-659.680
684680.597,4592150.000,-651.480
684680.597,4591950.000,-647.450
684680.597,4591750.000,-643.570
684680.597,4591550.000,-638.500
684680.597,4591350.000,-635.530
684680.597,4591150.000,-634.660
684680.597,4590950.000,-631.110
684680.597,4590750.000,-627.720
684680.597,4590550.000,-626.080
684680.597,4590350.000,-624.740
684680.597,4590150.000,-622.470
684680.597,4589950.000,-620.800
684680.597,4589750.000,-619.900
684680.597,4589550.000,-620.170
684680.597,4589350.000,-620.020
684680.597,4589150.000,-604.760
684680.597,4584550.000,-606.735
684680.597,4584350.000,-606.820
684680.597,4584150.000,-606.906
684680.597,4583950.000,-606.992
684680.597,4583750.000,-607.078
684680.597,4583550.000,-607.164
684680.597,4583350.000,-607.250
684680.597,4583150.000,-607.335
684680.597,4579150.000,-605.797
684680.597,4578950.000,-605.691
684680.597,4578750.000,-605.422
684680.597,4578550.000,-609.310
684680.597,4578350.000,-612.220
684680.597,4578150.000,-614.300
684680.597,4577950.000,-613.660
684680.597,4577750.000,-606.270
684680.597,4574750.000,-600.403
684680.597,4574350.000,-601.593
684880.597,4594550.000,-673.100
684880.597,4594350.000,-676.680
684880.597,4594150.000,-678.870
684880.597,4593950.000,-679.910
684880.597,4593750.000,-680.070
684880.597,4593550.000,-680.450
684880.597,4593350.000,-680.680
684880.597,4593150.000,-680.910
684880.597,4592950.000,-680.130
684880.597,4592750.000,-678.390
684880.597,4592550.000,-672.290
684880.597,4592350.000,-660.700
684880.597,4592150.000,-652.770
684880.597,4591950.000,-650.410
684880.597,4591750.000,-648.770
684880.597,4591550.000,-645.570
684880.597,4591350.000,-642.160
684880.597,4591150.000,-639.370
684880.597,4590950.000,-638.420
684880.597,4590750.000,-638.090
684880.597,4590550.000,-636.640
684880.597,4590350.000,-634.620
684880.597,4590150.000,-628.650
684880.597,4589950.000,-621.670
684880.597,4589750.000,-622.360
684880.597,4589550.000,-626.170
684880.597,4589350.000,-626.160
684880.597,4589150.000,-609.240
684880.597,4588950.000,-603.850
684880.597,4588750.000,-604.670
684880.597,4588550.000,-602.770
684880.597,4588350.000,-607.200
684880.597,4588150.000,-611.970
684880.597,4587950.000,-607.990
684880.597,4587750.000,-601.840
684880.597,4585750.000,-602.408
684880.597,4585550.000,-602.464
684880.597,4585350.000,-602.521
684880.597,4585150.000,-602.578
684880.597,4584950.000,-602.635
684880.597,4584750.000,-602.691
684880.597,4584550.000,-602.748
684880.597,4584350.000,-602.805
684880.597,4584150.000,-602.862
684880.597,4583950.000,-602.918
684880.597,4583750.000,-602.975
684880.597,4583550.000,-603.032
684880.597,4583350.000,-603.089
684880.597,4583150.000,-603.145
684880.597,4582950.000,-603.202
684880.597,4582750.000,-603.259
684880.597,4582550.000,-603.315
684880.597,4582350.000,-603.372
684880.597,4582150.000,-603.429
684880.597,4581950.000,-603.486
684880.597,4581750.000,-603.542
684880.597,4579750.000,-604.110
684880.597,4579550.000,-602.670
684880.597,4579350.000,-602.920
684880.597,4579150.000,-606.328
684880.597,4578950.000,-607.029
684880.597,4578750.000,-604.204
684880.597,4578550.000,-603.920
684880.597,4578350.000,-609.850
684880.597,4578150.000,-610.910
684880.597,4577950.000,-611.680
684880.597,4577750.000,-608.400
684880.597,4574750.000,-600.355
684880.597,4574350.000,-601.435
685080.597,4594550.000,-676.150
685080.597,4594350.000,-679.500
685080.597,4594150.000,-679.920
685080.597,4593950.000,-680.040
685080.597,4593750.000,-679.630
685080.597,4593550.000,-679.550
685080.597,4593350.000,-679.730
685080.597,4593150.000,-679.790
685080.597,4592950.000,-677.970
685080.597,4592750.000,-674.000
685080.597,4592550.000,-666.430
685080.597,4592350.000,-658.000
685080.597,4592150.000,-651.420
685080.597,4591950.000,-653.200
685080.597,4591750.000,-656.980
685080.597,4591550.000,-658.010
685080.597,4591350.000,-656.170
685080.597,4591150.000,-654.700
685080.597,4590950.000,-652.280
685080.597,4590750.000,-650.480
685080.597,4590550.000,-646.510
685080.597,4590350.000,-639.550
685080.597,4590150.000,-633.630
685080.597,4589950.000,-628.970
685080.597,4589750.000,-627.560
685080.597,4589550.000,-630.970
685080.597,4589350.000,-630.490
685080.597,4589150.000,-626.220
685080.597,4588950.000,-620.050
685080.597,4588750.000,-619.250
685080.597,4588550.000,-618.450
685080.597,4588350.000,-617.610
685080.597,4588150.000,-615.810
685080.597,4587950.000,-612.550
685080.597,4587750.000,-609.470
685080.597,4587550.000,-607.970
685080.597,4587350.000,-604.790
685080.597,4585750.000,-605.535
685080.597,4585550.000,-605.628
685080.597,4585350.000,-605.722
685080.597,4585150.000,-605.815
685080.597,4584950.000,-605.908
685080.597,4584750.000,-606.001
685080.597,4584550.000,-606.094
685080.597,4584350.000,-606.187
685080.597,4584150.000,-606.281
685080.597,4583950.000,-606.374
685080.597,4583750.000,-606.467
685080.597,4583550.000,-606.560
685080.597,4583350.000,-606.653
685080.597,4583150.000,-606.746
685080.597,4582950.000,-606.839
685080.597,4582750.000,-606.933
685080.597,4582550.000,-607.026
685080.597,4582350.000,-607.119
685080.597,4582150.000,-607.212
685080.597,4581950.000,-607.305
685080.597,4581750.000,-607.398
685080.597,4581550.000,-607.492
685080.597,4581350.000,-607.585
685080.597,4579750.000,-608.330
685080.597,4579550.000,-612.850
685080.597,4579350.000,-604.500
685080.597,4579150.000,-606.859
685080.597,4578950.000,-608.366
685080.597,4578750.000,-602.986
685080.597,4578550.000,-604.352
685080.597,4578350.000,-607.540
685080.597,4578150.000,-609.500
685080.597,4577950.000,-609.610
685080.597,4577750.000,-608.260
685080.597,4577550.000,-603.020
685080.597,4574750.000,-600.307
685080.597,4574350.000,-601.277
685280.597,4594550.000,-678.380
685280.597,4594350.000,-679.590
685280.597,4594150.000,-679.240
685280.597,4593950.000,-678.930
685280.597,4593750.000,-678.410
685280.597,4593550.000,-678.360
685280.597,4593350.000,-678.610
685280.597,4593150.000,-678.330
685280.597,4592950.000,-675.920
685280.597,4592750.000,-670.580
685280.597,4592550.000,-663.320
685280.597,4592350.000,-656.660
685280.597,4592150.000,-653.260
685280.597,4591950.000,-655.940
685280.597,4591750.000,-661.670
685280.597,4591550.000,-664.260
685280.597,4591350.000,-664.980
685280.597,4591150.000,-663.660
685280.597,4590950.000,-660.770
685280.597,4590750.000,-656.540
685280.597,4590550.000,-651.330
685280.597,4590350.000,-643.220
685280.597,4590150.000,-636.890
685280.597,4589950.000,-636.570
685280.597,4589750.000,-639.480
685280.597,4589550.000,-638.870
685280.597,4589350.000,-635.230
685280.597,4589150.000,-629.720
685280.597,4588950.000,-628.410
685280.597,4588750.000,-626.600
685280.597,4588550.000,-624.290
685280.597,4588350.000,-622.500
685280.597,4588150.000,-620.880
685280.597,4587950.000,-617.680
685280.597,4587750.000,-613.620
685280.597,4587550.000,-611.350
685280.597,4587350.000,-609.120
685280.597,4587150.000,-603.680
685280.597,4585750.000,-605.069
685280.597,4585550.000,-605.267
685280.597,4585350.000,-605.465
685280.597,4585150.000,-605.664
685280.597,4584950.000,-605.862
685280.597,4584750.000,-606.061
685280.597,4584550.000,-606.259
685280.597,4584350.000,-606.457
685280.597,4584150.000,-606.656
685280.597,4583950.000,-606.854
685280.597,4583750.000,-607.052
685280.597,4583550.000,-607.251
685280.597,4583350.000,-607.449
685280.597,4583150.000,-607.648
685280.597,4582950.000,-607.846
685280.597,4582750.000,-608.044
685280.597,4582550.000,-608.243
685280.597,4582350.000,-608.441
685280.597,4582150.000,-608.639
685280.597,4581950.000,-608.838
685280.597,4581750.000,-609.036
685280.597,4581550.000,-609.235
685280.597,4581350.000,-609.433
685280.597,4581150.000,-609.631
685280.597,4579750.000,-611.020
685280.597,4579550.000,-620.910
685280.597,4579350.000,-619.380
685280.597,4579150.000,-607.390
685280.597,4578950.000,-609.703
685280.597,4578750.000,-601.768
685280.597,4578550.000,-604.784
685280.597,4578350.000,-604.950
685280.597,4578150.000,-607.840
685280.597,4577950.000,-608.240
685280.597,4577750.000,-607.450
685280.597,4577550.000,-602.850
685280.597,4574750.000,-600.260
685280.597,4574350.000,-601.119
685480.597,4594550.000,-677.290
685480.597,4594350.000,-677.720
685480.597,4594150.000,-677.050
685480.597,4593950.000,-676.250
685480.597,4593750.000,-675.030
685480.597,4593550.000,-674.840
685480.597,4593350.000,-675.200
685480.597,4593150.000,-674.360
685480.597,4592950.000,-671.690
685480.597,4592750.000,-666.940
685480.597,4592550.000,-661.110
685480.597,4592350.000,-657.400
685480.597,4592150.000,-658.170
685480.597,4591950.000,-662.330
685480.597,4591750.000,-665.720
685480.597,4591550.000,-665.490
685480.597,4591350.000,-665.020
685480.597,4591150.000,-665.440
685480.597,4590950.000,-663.800
685480.597,4590750.000,-659.290
685480.597,4590550.000,-652.930
685480.597,4590350.000,-645.060
685480.597,4590150.000,-641.140
685480.597,4589950.000,-642.920
685480.597,4589750.000,-646.140
685480.597,4589550.000,-646.850
685480.597,4589350.000,-640.320
685480.597,4589150.000,-634.160
685480.597,4588950.000,-631.770
685480.597,4588750.000,-630.910
685480.597,4588550.000,-630.350
685480.597,4588350.000,-629.040
685480.597,4588150.000,-627.260
685480.597,4587950.000,-625.650
685480.597,4587750.000,-622.090
685480.597,4587550.000,-617.680
685480.597,4587350.000,-614.270
685480.597,4587150.000,-609.400
685480.597,4586950.000,-601.790
685480.597,4586750.000,-601.190
685480.597,4586550.000,-600.590
685480.597,4586350.000,-602.090
685480.597,4585750.000,-602.824
685480.597,4585550.000,-603.068
685480.597,4585350.000,-603.313
685480.597,4585150.000,-603.557
685480.597,4584950.000,-603.802
685480.597,4584750.000,-604.046
685480.597,4584550.000,-604.291
685480.597,4584350.000,-604.535
685480.597,4584150.000,-604.780
685480.597,4583950.000,-605.025
685480.597,4583750.000,-605.269
685480.597,4583550.000,-605.514
685480.597,4583350.000,-605.758
685480.597,4583150.000,-606.003
685480.597,4582950.000,-606.247
685480.597,4582750.000,-606.492
685480.597,4582550.000,-606.736
685480.597,4582350.000,-606.981
685480.597,4582150.000,-607.225
685480.597,4581950.000,-607.470
685480.597,4581750.000,-607.715
685480.597,4581550.000,-607.959
685480.597,4581350.000,-608.204
685480.597,4581150.000,-608.448
685480.597,4580950.000,-608.693
685480.597,4580750.000,-608.937
685480.597,4580550.000,-609.182
685480.597,4580350.000,-609.426
685480.597,4579750.000,-610.160
685480.597,4579550.000,-627.730
685480.597,4579350.000,-632.350
685480.597,4579150.000,-624.310
685480.597,4578950.000,-611.040
685480.597,4578750.000,-600.550
685480.597,4578550.000,-605.216
685480.597,4578350.000,-600.300
685480.597,4578150.000,-605.980
685480.597,4577950.000,-607.000
685480.597,4577750.000,-605.940
685480.597,4577550.000,-600.860
685480.597,4574750.000,-600.213
685480.597,4574350.000,-600.961
685680.597,4594550.000,-676.780
685680.597,4594350.000,-677.720
685680.597,4594150.000,-677.480
685680.597,4593950.000,-676.850
685680.597,4593750.000,-675.320
685680.597,4593550.000,-674.070
685680.597,4593350.000,-673.190
685680.597,4593150.000,-671.610
685680.597,4592950.000,-668.900
685680.597,4592750.000,-664.320
685680.597,4592550.000,-658.540
685680.597,4592350.000,-654.570
685680.597,4592150.000,-657.120
685680.597,4591950.000,-660.490
685680.597,4591750.000,-662.680
685680.597,4591550.000,-661.610
685680.597,4591350.000,-660.180
685680.597,4591150.000,-660.630
685680.597,4590950.000,-661.760
685680.597,4590750.000,-660.510
685680.597,4590550.000,-656.000
685680.597,4590350.000,-650.300
685680.597,4590150.000,-648.020
685680.597,4589950.000,-647.900
685680.597,4589750.000,-649.420
685680.597,4589550.000,-648.770
685680.597,4589350.000,-642.780
685680.597,4589150.000,-638.880
685680.597,4588950.000,-636.770
685680.597,4588750.000,-635.140
685680.597,4588550.000,-635.200
685680.597,4588350.000,-634.200
685680.597,4588150.000,-633.520
685680.597,4587950.000,-630.900
685680.597,4587750.000,-628.350
685680.597,4587550.000,-624.930
685680.597,4587350.000,-620.870
685680.597,4587150.000,-616.640
685680.597,4586950.000,-611.350
685680.597,4586750.000,-604.130
685680.597,4586550.000,-604.950
685680.597,4586350.000,-608.200
685680.597,4586150.000,-605.140
685680.597,4585950.000,-600.910
685680.597,4585750.000,-601.223
685680.597,4585550.000,-601.535
685680.597,4585350.000,-601.848
685680.597,4585150.000,-602.160
685680.597,4584950.000,-602.473
685680.597,4584750.000,-602.785
685680.597,4584550.000,-603.098
685680.597,4584350.000,-603.411
685680.597,4584150.000,-603.723
685680.597,4583950.000,-604.036
685680.597,4583750.000,-604.348
685680.597,4583550.000,-604.661
685680.597,4583350.000,-604.974
685680.597,4583150.000,-605.286
685680.597,4582950.000,-605.599
685680.597,4582750.000,-605.911
685680.597,4582550.000,-606.224
685680.597,4582350.000,-606.536
685680.597,4582150.000,-606.849
685680.597,4581950.000,-607.162
685680.597,4581750.000,-607.474
685680.597,4581550.000,-607.787
685680.597,4581350.000,-608.099
685680.597,4581150.000,-608.412
685680.597,4580950.000,-608.724
685680.597,4580750.000,-609.037
685680.597,4580550.000,-609.350
685680.597,4580350.000,-609.662
685680.597,4580150.000,-609.975
685680.597,4579950.000,-610.287
685680.597,4579750.000,-610.600
685680.597,4579550.000,-630.600
685680.597,4579350.000,-642.610
685680.597,4579150.000,-639.420
685680.597,4578950.000,-624.170
685680.597,4578750.000,-608.930
685680.597,4578550.000,-605.648
685680.597,4578350.000,-601.517
685680.597,4578150.000,-602.160
685680.597,4577950.000,-605.670
685680.597,4577750.000,-604.520
685680.597,4577550.000,-600.825
685680.597,4574750.000,-600.165
685680.597,4574350.000,-600.804
685880.597,4594550.000,-679.460
685880.597,4594350.000,-680.720
685880.597,4594150.000,-680.620
685880.597,4593950.000,-680.030
685880.597,4593750.000,-678.320
685880.597,4593550.000,-675.940
685880.597,4593350.000,-674.150
685880.597,4593150.000,-671.250
685880.597,4592950.000,-668.310
685880.597,4592750.000,-663.480
685880.597,4592550.000,-657.700
685880.597,4592350.000,-653.560
685880.597,4592150.000,-652.120
685880.597,4591950.000,-653.360
685880.597,4591750.000,-654.530
685880.597,4591550.000,-656.190
685880.597,4591350.000,-658.230
685880.597,4591150.000,-660.740
685880.597,4590950.000,-662.580
685880.597,4590750.000,-662.180
685880.597,4590550.000,-660.460
685880.597,4590350.000,-657.830
685880.597,4590150.000,-656.460
685880.597,4589950.000,-655.110
685880.597,4589750.000,-653.380
685880.597,4589550.000,-651.860
685880.597,4589350.000,-646.280
685880.597,4589150.000,-643.210
685880.597,4588950.000,-641.590
685880.597,4588750.000,-639.750
685880.597,4588550.000,-638.460
685880.597,4588350.000,-637.510
685880.597,4588150.000,-636.230
685880.597,4587950.000,-633.860
685880.597,4587750.000,-632.050
685880.597,4587550.000,-629.690
685880.597,4587350.000,-626.720
685880.597,4587150.000,-622.860
685880.597,4586950.000,-618.790
685880.597,4586750.000,-614.330
685880.597,4586550.000,-613.050
685880.597,4586350.000,-615.050
685880.597,4586150.000,-613.120
685880.597,4585950.000,-606.300
685880.597,4585750.000,-600.300
685880.597,4585550.000,-600.678
685880.597,4585350.000,-601.055
685880.597,4585150.000,-601.433
685880.597,4584950.000,-601.811
685880.597,4584750.000,-602.188
685880.597,4584550.000,-602.566
685880.597,4584350.000,-602.944
685880.597,4584150.000,-603.321
685880.597,4583950.000,-603.699
685880.597,4583750.000,-604.077
685880.597,4583550.000,-604.454
685880.597,4583350.000,-604.832
685880.597,4583150.000,-605.210
685880.597,4582950.000,-605.587
685880.597,4582750.000,-605.965
685880.597,4582550.000,-606.343
685880.597,4582350.000,-606.720
685880.597,4582150.000,-607.098
685880.597,4581950.000,-607.476
685880.597,4581750.000,-607.853
685880.597,4581550.000,-608.231
685880.597,4581350.000,-608.609
685880.597,4581150.000,-608.986
685880.597,4580950.000,-609.364
685880.597,4580750.000,-609.742
685880.597,4580550.000,-610.119
685880.597,4580350.000,-610.497
685880.597,4580150.000,-610.875
685880.597,4579950.000,-611.252
685880.597,4579750.000,-611.630
685880.597,4579550.000,-630.520
685880.597,4579350.000,-648.870
685880.597,4579150.000,-651.550
685880.597,4578950.000,-638.280
685880.597,4578750.000,-620.080
685880.597,4578550.000,-606.080
685880.597,4578350.000,-602.733
685880.597,4578150.000,-602.200
685880.597,4577950.000,-603.690
685880.597,4577750.000,-603.460
685880.597,4577550.000,-600.790
685880.597,4574750.000,-600.117
685880.597,4574350.000,-600.646
686080.597,4594550.000,-682.720
686080.597,4594350.000,-683.640
686080.597,4594150.000,-684.540
686080.597,4593950.000,-683.540
686080.597,4593750.000,-681.400
686080.597,4593550.000,-678.810
686080.597,4593350.000,-675.370
686080.597,4593150.000,-670.700
686080.597,4592950.000,-667.470
686080.597,4592750.000,-662.350
686080.597,4592550.000,-656.150
686080.597,4592350.000,-649.850
686080.597,4592150.000,-647.330
686080.597,4591950.000,-647.780
686080.597,4591750.000,-650.090
686080.597,4591550.000,-654.480
686080.597,4591350.000,-660.090
686080.597,4591150.000,-666.640
686080.597,4590950.000,-670.160
686080.597,4590750.000,-670.090
686080.597,4590550.000,-668.080
686080.597,4590350.000,-665.170
686080.597,4590150.000,-662.510
686080.597,4589950.000,-661.060
686080.597,4589750.000,-658.980
686080.597,4589550.000,-655.180
686080.597,4589350.000,-649.720
686080.597,4589150.000,-646.690
686080.597,4588950.000,-645.360
686080.597,4588750.000,-643.680
686080.597,4588550.000,-642.530
686080.597,4588350.000,-641.200
686080.597,4588150.000,-640.160
686080.597,4587950.000,-637.790
686080.597,4587750.000,-636.350
686080.597,4587550.000,-634.400
686080.597,4587350.000,-631.380
686080.597,4587150.000,-628.460
686080.597,4586950.000,-625.850
686080.597,4586750.000,-623.270
686080.597,4586550.000,-623.970
686080.597,4586350.000,-624.630
686080.597,4586150.000,-622.400
686080.597,4585950.000,-615.110
686080.597,4585750.000,-607.210
686080.597,4585550.000,-601.440
686080.597,4585350.000,-601.886
686080.597,4585150.000,-602.332
686080.597,4584950.000,-602.778
686080.597,4584750.000,-603.223
686080.597,4584550.000,-603.669
686080.597,4584350.000,-604.115
686080.597,4584150.000,-604.561
686080.597,4583950.000,-605.007
686080.597,4583750.000,-605.453
686080.597,4583550.000,-605.899
686080.597,4583350.000,-606.344
686080.597,4583150.000,-606.790
686080.597,4582950.000,-607.236
686080.597,4582750.000,-607.682
686080.597,4582550.000,-608.128
686080.597,4582350.000,-608.574
686080.597,4582150.000,-609.020
686080.597,4581950.000,-609.466
686080.597,4581750.000,-609.911
686080.597,4581550.000,-610.357
686080.597,4581350.000,-610.803
686080.597,4581150.000,-611.249
686080.597,4580950.000,-611.695
686080.597,4580750.000,-612.141
686080.597,4580550.000,-612.587
686080.597,4580350.000,-613.032
686080.597,4580150.000,-613.478
686080.597,4579950.000,-613.924
686080.597,4579750.000,-614.370
686080.597,4579550.000,-640.640
686080.597,4579350.000,-654.070
686080.597,4579150.000,-656.770
686080.597,4578950.000,-644.460
686080.597,4578750.000,-626.640
686080.597,4578550.000,-614.470
686080.597,4578350.000,-603.950
686080.597,4578150.000,-602.240
686080.597,4577950.000,-601.270
686080.597,4577750.000,-602.150
686080.597,4577550.000,-600.755
686080.597,4577350.000,-601.873
686080.597,4577150.000,-601.734
686080.597,4576950.000,-601.595
686080.597,4576750.000,-601.457
686080.597,4576550.000,-601.318
686080.597,4576350.000,-601.179
686080.597,4576150.000,-601.041
686080.597,4575950.000,-600.902
686080.597,4575750.000,-600.763
686080.597,4575550.000,-600.625
686080.597,4575350.000,-600.486
686080.597,4575150.000,-600.347
686080.597,4574950.000,-600.209
686080.597,4574750.000,-600.070
686080.597,4574350.000,-600.488
686280.597,4594550.000,-687.350
686280.597,4594350.000,-689.160
686280.597,4594150.000,-689.420
686280.597,4593950.000,-689.100
686280.597,4593750.000,-686.830
686280.597,4593550.000,-682.890
686280.597,4593350.000,-678.820
686280.597,4593150.000,-672.580
686280.597,4592950.000,-666.740
686280.597,4592750.000,-660.670
686280.597,4592550.000,-651.580
686280.597,4592350.000,-644.850
686280.597,4592150.000,-644.340
686280.597,4591950.000,-646.560
686280.597,4591750.000,-651.380
686280.597,4591550.000,-659.870
686280.597,4591350.000,-669.210
686280.597,4591150.000,-675.320
686280.597,4590950.000,-677.930
686280.597,4590750.000,-677.160
686280.597,4590550.000,-675.140
686280.597,4590350.000,-672.400
686280.597,4590150.000,-670.030
686280.597,4589950.000,-667.370
686280.597,4589750.000,-663.850
686280.597,4589550.000,-658.620
686280.597,4589350.000,-654.160
686280.597,4589150.000,-651.010
686280.597,4588950.000,-649.170
686280.597,4588750.000,-647.660
686280.597,4588550.000,-646.250
686280.597,4588350.000,-645.220
686280.597,4588150.000,-643.970
686280.597,4587950.000,-642.340
686280.597,4587750.000,-641.080
686280.597,4587550.000,-639.430
686280.597,4587350.000,-636.670
686280.597,4587150.000,-634.790
686280.597,4586950.000,-632.600
686280.597,4586750.000,-630.460
686280.597,4586550.000,-629.920
686280.597,4586350.000,-630.530
686280.597,4586150.000,-628.040
686280.597,4585950.000,-620.640
686280.597,4585750.000,-614.010
686280.597,4585550.000,-611.200
686280.597,4585350.000,-608.270
686280.597,4585150.000,-603.000
686280.597,4584950.000,-603.509
686280.597,4584750.000,-604.017
686280.597,4584550.000,-604.526
686280.597,4584350.000,-605.034
686280.597,4584150.000,-605.543
686280.597,4583950.000,-606.051
686280.597,4583750.000,-606.560
686280.597,4583550.000,-607.068
686280.597,4583350.000,-607.577
686280.597,4583150.000,-608.085
686280.597,4582950.000,-608.594
686280.597,4582750.000,-609.102
686280.597,4582550.000,-609.611
686280.597,4582350.000,-610.119
686280.597,4582150.000,-610.628
686280.597,4581950.000,-611.136
686280.597,4581750.000,-611.645
686280.597,4581550.000,-612.153
686280.597,4581350.000,-612.662
686280.597,4581150.000,-613.170
686280.597,4580950.000,-613.679
686280.597,4580750.000,-614.187
686280.597,4580550.000,-614.696
686280.597,4580350.000,-615.204
686280.597,4580150.000,-615.713
686280.597,4579950.000,-616.221
686280.597,4579750.000,-616.730
686280.597,4579550.000,-644.830
686280.597,4579350.000,-659.360
686280.597,4579150.000,-658.020
686280.597,4578950.000,-646.920
686280.597,4578750.000,-631.750
686280.597,4578550.000,-619.070
686280.597,4578350.000,-607.580
686280.597,4578150.000,-602.280
686280.597,4577950.000,-601.150
686280.597,4577750.000,-602.544
686280.597,4577550.000,-600.720
686280.597,4577350.000,-605.696
686280.597,4577150.000,-605.319
686280.597,4576950.000,-604.942
686280.597,4576750.000,-604.565
686280.597,4576550.000,-604.188
686280.597,4576350.000,-603.811
686280.597,4576150.000,-603.434
686280.597,4575950.000,-603.057
686280.597,4575750.000,-602.681
686280.597,4575550.000,-602.304
686280.597,4575350.000,-601.927
686280.597,4575150.000,-601.550
686280.597,4574950.000,-603.390
686280.597,4574750.000,-604.030
686280.597,4574550.000,-603.560
686280.597,4574350.000,-600.330
686480.597,4594550.000,-686.700
686480.597,4594350.000,-687.990
686480.597,4594150.000,-688.770
686480.597,4593950.000,-688.320
686480.597,4593750.000,-686.540
686480.597,4593550.000,-683.730
686480.597,4593350.000,-679.800
686480.597,4593150.000,-674.640
686480.597,4592950.000,-666.730
686480.597,4592750.000,-658.910
686480.597,4592550.000,-650.290
686480.597,4592350.000,-646.760
686480.597,4592150.000,-647.400
686480.597,4591950.000,-652.210
686480.597,4591750.000,-661.200
686480.597,4591550.000,-671.520
686480.597,4591350.000,-680.990
686480.597,4591150.000,-684.420
686480.597,4590950.000,-685.180
686480.597,4590750.000,-682.970
686480.597,4590550.000,-681.070
686480.597,4590350.000,-679.870
686480.597,4590150.000,-677.840
686480.597,4589950.000,-674.200
686480.597,4589750.000,-668.170
686480.597,4589550.000,-664.160
686480.597,4589350.000,-660.560
686480.597,4589150.000,-656.830
686480.597,4588950.000,-654.490
686480.597,4588750.000,-652.930
686480.597,4588550.000,-651.690
686480.597,4588350.000,-650.820
686480.597,4588150.000,-648.980
686480.597,4587950.000,-647.130
686480.597,4587750.000,-645.780
686480.597,4587550.000,-643.800
686480.597,4587350.000,-641.000
686480.597,4587150.000,-639.130
686480.597,4586950.000,-637.510
686480.597,4586750.000,-636.370
686480.597,4586550.000,-635.430
686480.597,4586350.000,-633.370
686480.597,4586150.000,-629.100
686480.597,4585950.000,-624.360
686480.597,4585750.000,-620.140
686480.597,4585550.000,-617.340
686480.597,4585350.000,-614.530
686480.597,4585150.000,-609.640
686480.597,4584950.000,-603.890
686480.597,4584750.000,-600.900
686480.597,4584550.000,-601.722
686480.597,4584350.000,-602.545
686480.597,4584150.000,-603.367
686480.597,4583950.000,-604.190
686480.597,4583750.000,-605.012
686480.597,4583550.000,-605.834
686480.597,4583350.000,-606.657
686480.597,4583150.000,-607.479
686480.597,4582950.000,-608.302
686480.597,4582750.000,-609.124
686480.597,4582550.000,-609.946
686480.597,4582350.000,-610.769
686480.597,4582150.000,-611.591
686480.597,4581950.000,-612.414
686480.597,4581750.000,-613.236
686480.597,4581550.000,-614.058
686480.597,4581350.000,-614.881
686480.597,4581150.000,-615.703
686480.597,4580950.000,-616.526
686480.597,4580750.000,-617.348
686480.597,4580550.000,-618.170
686480.597,4580350.000,-618.993
686480.597,4580150.000,-619.815
686480.597,4579950.000,-620.638
686480.597,4579750.000,-621.460
686480.597,4579550.000,-649.100
686480.597,4579350.000,-660.740
686480.597,4579150.000,-659.810
686480.597,4578950.000,-650.670
686480.597,4578750.000,-637.310
686480.597,4578550.000,-624.560
686480.597,4578350.000,-615.260
686480.597,4578150.000,-602.320
686480.597,4577950.000,-601.030
686480.597,4577750.000,-602.939
686480.597,4577550.000,-600.685
686480.597,4577350.000,-601.994
686480.597,4577150.000,-601.913
686480.597,4576950.000,-601.831
686480.597,4576750.000,-601.750
686480.597,4576550.000,-601.669
686480.597,4576350.000,-601.587
686480.597,4576150.000,-601.506
686480.597,4575950.000,-601.424
686480.597,4575750.000,-601.343
686480.597,4575550.000,-601.261
686480.597,4575350.000,-601.180
686480.597,4575150.000,-605.880
686480.597,4574950.000,-608.630
686480.597,4574750.000,-609.390
686480.597,4574550.000,-609.440
686480.597,4574350.000,-606.410
686480.597,4574150.000,-601.280
686680.597,4594550.000,-688.160
686680.597,4594350.000,-688.160
686680.597,4594150.000,-687.900
686680.597,4593950.000,-687.130
686680.597,4593750.000,-685.770
686680.597,4593550.000,-681.770
686680.597,4593350.000,-676.800
686680.597,4593150.000,-672.550
686680.597,4592950.000,-664.920
686680.597,4592750.000,-657.300
686680.597,4592550.000,-651.650
686680.597,4592350.000,-650.880
686680.597,4592150.000,-654.390
686680.597,4591950.000,-659.690
686680.597,4591750.000,-670.270
686680.597,4591550.000,-682.120
686680.597,4591350.000,-689.580
686680.597,4591150.000,-691.730
686680.597,4590950.000,-691.170
686680.597,4590750.000,-689.270
686680.597,4590550.000,-687.110
686680.597,4590350.000,-686.000
686680.597,4590150.000,-683.540
686680.597,4589950.000,-679.330
686680.597,4589750.000,-673.400
686680.597,4589550.000,-670.200
686680.597,4589350.000,-666.420
686680.597,4589150.000,-662.580
686680.597,4588950.000,-660.090
686680.597,4588750.000,-658.630
686680.597,4588550.000,-657.770
686680.597,4588350.000,-656.460
686680.597,4588150.000,-654.460
686680.597,4587950.000,-652.280
686680.597,4587750.000,-650.100
686680.597,4587550.000,-647.650
686680.597,4587350.000,-644.950
686680.597,4587150.000,-642.710
686680.597,4586950.000,-640.670
686680.597,4586750.000,-639.260
686680.597,4586550.000,-638.390
686680.597,4586350.000,-635.150
686680.597,4586150.000,-629.560
686680.597,4585950.000,-625.160
686680.597,4585750.000,-624.370
686680.597,4585550.000,-621.290
686680.597,4585350.000,-616.200
686680.597,4585150.000,-610.730
686680.597,4584950.000,-607.420
686680.597,4584750.000,-605.860
686680.597,4584550.000,-603.880
686680.597,4584350.000,-602.110
686680.597,4584150.000,-600.780
686680.597,4583950.000,-600.600
686680.597,4583750.000,-600.828
686680.597,4583550.000,-601.056
686680.597,4583350.000,-601.284
686680.597,4583150.000,-601.512
686680.597,4582950.000,-601.740
686680.597,4582750.000,-601.968
686680.597,4582550.000,-602.196
686680.597,4582350.000,-602.424
686680.597,4582150.000,-602.652
686680.597,4581950.000,-602.880
686680.597,4581750.000,-603.108
686680.597,4581550.000,-603.336
686680.597,4581350.000,-603.564
686680.597,4581150.000,-603.792
686680.597,4580950.000,-604.020
686680.597,4580750.000,-604.248
686680.597,4580550.000,-604.476
686680.597,4580350.000,-604.704
686680.597,4580150.000,-604.932
686680.597,4579950.000,-605.160
686680.597,4579750.000,-627.230
686680.597,4579550.000,-650.530
686680.597,4579350.000,-662.940
686680.597,4579150.000,-660.900
686680.597,4578950.000,-653.270
686680.597,4578750.000,-641.170
686680.597,4578550.000,-630.540
686680.597,4578350.000,-620.480
686680.597,4578150.000,-607.300
686680.597,4577950.000,-600.910
686680.597,4577750.000,-603.333
686680.597,4577550.000,-600.650
686680.597,4577350.000,-605.263
686680.597,4577150.000,-604.754
686680.597,4576950.000,-604.245
686680.597,4576750.000,-603.735
686680.597,4576550.000,-603.226
686680.597,4576350.000,-602.717
686680.597,4576150.000,-602.208
686680.597,4575950.000,-601.698
686680.597,4575750.000,-601.189
686680.597,4575550.000,-600.680
686680.597,4575350.000,-607.850
686680.597,4575150.000,-612.400
686680.597,4574950.000,-613.300
686680.597,4574750.000,-613.360
686680.597,4574550.000,-613.780
686680.597,4574350.000,-611.420
686680.597,4574150.000,-605.720
686880.597,4594550.000,-688.800
686880.597,4594350.000,-688.570
686880.597,4594150.000,-687.830
686880.597,4593950.000,-686.730
686880.597,4593750.000,-685.390
686880.597,4593550.000,-681.520
686880.597,4593350.000,-677.690
686880.597,4593150.000,-674.410
686880.597,4592950.000,-669.370
686880.597,4592750.000,-660.570
686880.597,4592550.000,-656.980
686880.597,4592350.000,-658.600
686880.597,4592150.000,-661.360
686880.597,4591950.000,-665.910
686880.597,4591750.000,-674.210
686880.597,4591550.000,-684.240
686880.597,4591350.000,-690.600
686880.597,4591150.000,-693.350
686880.597,4590950.000,-694.340
686880.597,4590750.000,-694.080
686880.597,4590550.000,-693.780
686880.597,4590350.000,-692.290
686880.597,4590150.000,-690.870
686880.597,4589950.000,-686.130
686880.597,4589750.000,-682.470
686880.597,4589550.000,-679.520
686880.597,4589350.000,-674.920
686880.597,4589150.000,-670.600
686880.597,4588950.000,-667.370
686880.597,4588750.000,-666.530
686880.597,4588550.000,-665.360
686880.597,4588350.000,-662.700
686880.597,4588150.000,-659.560
686880.597,4587950.000,-656.600
686880.597,4587750.000,-653.820
686880.597,4587550.000,-651.030
686880.597,4587350.000,-648.760
686880.597,4587150.000,-646.400
686880.597,4586950.000,-644.600
686880.597,4586750.000,-643.580
686880.597,4586550.000,-641.460
686880.597,4586350.000,-636.810
686880.597,4586150.000,-632.390
686880.597,4585950.000,-628.140
686880.597,4585750.000,-626.970
686880.597,4585550.000,-624.670
686880.597,4585350.000,-618.880
686880.597,4585150.000,-613.520
686880.597,4584950.000,-611.160
686880.597,4584750.000,-609.810
686880.597,4584550.000,-609.020
686880.597,4584350.000,-607.410
686880.597,4584150.000,-606.270
686880.597,4583950.000,-606.450
686880.597,4583750.000,-607.050
686880.597,4583550.000,-606.720
686880.597,4583350.000,-606.590
686880.597,4583150.000,-605.630
686880.597,4582950.000,-602.340
686880.597,4582750.000,-602.426
686880.597,4582550.000,-602.513
686880.597,4582350.000,-602.599
686880.597,4582150.000,-602.686
686880.597,4581950.000,-602.772
686880.597,4581750.000,-602.859
686880.597,4581550.000,-602.945
686880.597,4581350.000,-603.031
686880.597,4581150.000,-603.118
686880.597,4580950.000,-603.204
686880.597,4580750.000,-603.291
686880.597,4580550.000,-603.377
686880.597,4580350.000,-603.464
686880.597,4580150.000,-603.550
686880.597,4579950.000,-617.320
686880.597,4579750.000,-636.550
686880.597,4579550.000,-658.940
686880.597,4579350.000,-666.570
686880.597,4579150.000,-663.120
686880.597,4578950.000,-655.020
686880.597,4578750.000,-644.090
686880.597,4578550.000,-633.040
686880.597,4578350.000,-622.240
686880.597,4578150.000,-610.660
686880.597,4577950.000,-600.790
686880.597,4577750.000,-603.727
686880.597,4577550.000,-600.615
686880.597,4577350.000,-602.094
686880.597,4577150.000,-602.528
686880.597,4576950.000,-602.963
686880.597,4576750.000,-603.397
686880.597,4576550.000,-603.832
686880.597,4576350.000,-604.266
686880.597,4576150.000,-604.701
686880.597,4575950.000,-605.135
686880.597,4575750.000,-605.570
686880.597,4575550.000,-608.460
686880.597,4575350.000,-616.590
686880.597,4575150.000,-618.040
686880.597,4574950.000,-618.050
686880.597,4574750.000,-618.750
686880.597,4574550.000,-619.770
686880.597,4574350.000,-617.860
686880.597,4574150.000,-609.230
686880.597,4573950.000,-602.210
686880.597,4573750.000,-601.260
687080.597,4594550.000,-691.910
687080.597,4594350.000,-691.680
687080.597,4594150.000,-690.990
687080.597,4593950.000,-688.340
687080.597,4593750.000,-685.560
687080.597,4593550.000,-683.850
687080.597,4593350.000,-680.780
687080.597,4593150.000,-676.650
687080.597,4592950.000,-672.400
687080.597,4592750.000,-666.020
687080.597,4592550.000,-663.610
687080.597,4592350.000,-664.070
687080.597,4592150.000,-667.300
687080.597,4591950.000,-671.480
687080.597,4591750.000,-678.070
687080.597,4591550.000,-686.330
687080.597,4591350.000,-692.610
687080.597,4591150.000,-693.860
687080.597,4590950.000,-695.840
687080.597,4590750.000,-696.020
687080.597,4590550.000,-695.320
687080.597,4590350.000,-693.230
687080.597,4590150.000,-691.240
687080.597,4589950.000,-688.700
687080.597,4589750.000,-687.410
687080.597,4589550.000,-685.670
687080.597,4589350.000,-681.500
687080.597,4589150.000,-676.580
687080.597,4588950.000,-673.760
687080.597,4588750.000,-673.670
687080.597,4588550.000,-673.560
687080.597,4588350.000,-670.200
687080.597,4588150.000,-665.600
687080.597,4587950.000,-662.380
687080.597,4587750.000,-659.610
687080.597,4587550.000,-656.340
687080.597,4587350.000,-654.040
687080.597,4587150.000,-651.290
687080.597,4586950.000,-649.590
687080.597,4586750.000,-648.720
687080.597,4586550.000,-645.360
687080.597,4586350.000,-639.320
687080.597,4586150.000,-635.070
687080.597,4585950.000,-633.400
687080.597,4585750.000,-632.680
687080.597,4585550.000,-628.870
687080.597,4585350.000,-623.740
687080.597,4585150.000,-619.530
687080.597,4584950.000,-617.550
687080.597,4584750.000,-616.540
687080.597,4584550.000,-615.310
687080.597,4584350.000,-613.690
687080.597,4584150.000,-611.900
687080.597,4583950.000,-611.730
687080.597,4583750.000,-612.270
687080.597,4583550.000,-612.600
687080.597,4583350.000,-613.550
687080.597,4583150.000,-611.750
687080.597,4582950.000,-607.840
687080.597,4582750.000,-603.700
687080.597,4582550.000,-600.240
687080.597,4582350.000,-600.361
687080.597,4582150.000,-600.482
687080.597,4581950.000,-600.603
687080.597,4581750.000,-600.724
687080.597,4581550.000,-600.845
687080.597,4581350.000,-600.966
687080.597,4581150.000,-601.087
687080.597,4580950.000,-601.208
687080.597,4580750.000,-601.329
687080.597,4580550.000,-601.450
687080.597,4580350.000,-606.510
687080.597,4580150.000,-613.960
687080.597,4579950.000,-627.150
687080.597,4579750.000,-646.700
687080.597,4579550.000,-665.180
687080.597,4579350.000,-669.800
687080.597,4579150.000,-665.650
687080.597,4578950.000,-655.750
687080.597,4578750.000,-645.580
687080.597,4578550.000,-635.270
687080.597,4578350.000,-626.240
687080.597,4578150.000,-616.090
687080.597,4577950.000,-605.340
687080.597,4577750.000,-604.121
687080.597,4577550.000,-600.580
687080.597,4577350.000,-604.119
687080.597,4577150.000,-603.712
687080.597,4576950.000,-603.305
687080.597,4576750.000,-602.898
687080.597,4576550.000,-602.491
687080.597,4576350.000,-602.084
687080.597,4576150.000,-601.677
687080.597,4575950.000,-601.270
687080.597,4575750.000,-613.400
687080.597,4575550.000,-618.570
687080.597,4575350.000,-626.100
687080.597,4575150.000,-627.270
687080.597,4574950.000,-625.110
687080.597,4574750.000,-627.440
687080.597,4574550.000,-628.580
687080.597,4574350.000,-626.310
687080.597,4574150.000,-615.390
687080.597,4573950.000,-620.320
687080.597,4573750.000,-615.960
687280.597,4594550.000,-693.680
687280.597,4594350.000,-693.710
687280.597,4594150.000,-692.220
687280.597,4593950.000,-688.450
687280.597,4593750.000,-687.250
687280.597,4593550.000,-686.470
687280.597,4593350.000,-685.230
687280.597,4593150.000,-682.570
687280.597,4592950.000,-676.160
687280.597,4592750.000,-673.480
687280.597,4592550.000,-674.750
687280.597,4592350.000,-674.920
687280.597,4592150.000,-676.170
687280.597,4591950.000,-678.170
687280.597,4591750.000,-684.020
687280.597,4591550.000,-690.700
687280.597,4591350.000,-696.740
687280.597,4591150.000,-697.970
687280.597,4590950.000,-699.040
687280.597,4590750.000,-698.250
687280.597,4590550.000,-695.860
687280.597,4590350.000,-692.160
687280.597,4590150.000,-690.720
687280.597,4589950.000,-692.150
687280.597,4589750.000,-692.560
687280.597,4589550.000,-691.160
687280.597,4589350.000,-685.740
687280.597,4589150.000,-680.540
687280.597,4588950.000,-675.790
687280.597,4588750.000,-676.240
687280.597,4588550.000,-676.110
687280.597,4588350.000,-672.540
687280.597,4588150.000,-668.910
687280.597,4587950.000,-667.160
687280.597,4587750.000,-665.960
687280.597,4587550.000,-664.430
687280.597,4587350.000,-661.660
687280.597,4587150.000,-659.250
687280.597,4586950.000,-656.210
687280.597,4586750.000,-654.830
687280.597,4586550.000,-650.540
687280.597,4586350.000,-644.360
687280.597,4586150.000,-639.000
687280.597,4585950.000,-637.430
687280.597,4585750.000,-636.740
687280.597,4585550.000,-633.550
687280.597,4585350.000,-628.790
687280.597,4585150.000,-626.240
687280.597,4584950.000,-624.570
687280.597,4584750.000,-623.800
687280.597,4584550.000,-622.260
687280.597,4584350.000,-619.600
687280.597,4584150.000,-618.860
687280.597,4583950.000,-618.410
687280.597,4583750.000,-619.130
687280.597,4583550.000,-619.300
687280.597,4583350.000,-619.520
687280.597,4583150.000,-615.880
687280.597,4582950.000,-611.100
687280.597,4582750.000,-606.160
687280.597,4582550.000,-603.480
687280.597,4582350.000,-601.360
687280.597,4582150.000,-600.270
687280.597,4581950.000,-600.570
687280.597,4581750.000,-601.300
687280.597,4581550.000,-600.840
687280.597,4581350.000,-602.540
687280.597,4581150.000,-604.600
687280.597,4580950.000,-606.630
687280.597,4580750.000,-608.900
687280.597,4580550.000,-611.370
687280.597,4580350.000,-616.130
687280.597,4580150.000,-624.020
687280.597,4579950.000,-638.620
687280.597,4579750.000,-655.180
687280.597,4579550.000,-669.700
687280.597,4579350.000,-673.950
687280.597,4579150.000,-667.280
687280.597,4578950.000,-657.080
687280.597,4578750.000,-647.340
687280.597,4578550.000,-637.420
687280.597,4578350.000,-628.910
687280.597,4578150.000,-619.400
687280.597,4577950.000,-607.530
687280.597,4577750.000,-604.516
687280.597,4577550.000,-600.545
687280.597,4577350.000,-607.386
687280.597,4577150.000,-607.338
687280.597,4576950.000,-607.290
687280.597,4576750.000,-607.242
687280.597,4576550.000,-607.194
687280.597,4576350.000,-607.146
687280.597,4576150.000,-607.098
687280.597,4575950.000,-607.050
687280.597,4575750.000,-621.580
687280.597,4575550.000,-626.510
687280.597,4575350.000,-633.390
687280.597,4575150.000,-637.670
687280.597,4574950.000,-634.480
687280.597,4574750.000,-637.320
687280.597,4574550.000,-637.110
687280.597,4574350.000,-639.020
687280.597,4574150.000,-633.860
687280.597,4573950.000,-637.320
687280.597,4573750.000,-629.210
687280.597,4573550.000,-608.180
687480.597,4594550.000,-695.790
687480.597,4594350.000,-695.660
687480.597,4594150.000,-694.330
687480.597,4593950.000,-689.660
687480.597,4593750.000,-688.990
687480.597,4593550.000,-689.330
687480.597,4593350.000,-689.500
687480.597,4593150.000,-686.920
687480.597,4592950.000,-682.390
687480.597,4592750.000,-681.020
687480.597,4592550.000,-682.760
687480.597,4592350.000,-684.630
687480.597,4592150.000,-684.850
687480.597,4591950.000,-686.980
687480.597,4591750.000,-698.400
687480.597,4591550.000,-706.290
687480.597,4591350.000,-706.860
687480.597,4591150.000,-705.950
687480.597,4590950.000,-704.590
687480.597,4590750.000,-702.400
687480.597,4590550.000,-696.300
687480.597,4590350.000,-691.360
687480.597,4590150.000,-690.740
687480.597,4589950.000,-692.900
687480.597,4589750.000,-694.670
687480.597,4589550.000,-693.270
687480.597,4589350.000,-688.770
687480.597,4589150.000,-684.160
687480.597,4588950.000,-682.480
687480.597,4588750.000,-682.210
687480.597,4588550.000,-680.640
687480.597,4588350.000,-675.130
687480.597,4588150.000,-669.860
687480.597,4587950.000,-667.830
687480.597,4587750.000,-667.610
687480.597,4587550.000,-666.320
687480.597,4587350.000,-665.450
687480.597,4587150.000,-665.160
687480.597,4586950.000,-664.110
687480.597,4586750.000,-662.690
687480.597,4586550.000,-657.370
687480.597,4586350.000,-649.970
687480.597,4586150.000,-644.330
687480.597,4585950.000,-641.920
687480.597,4585750.000,-639.610
687480.597,4585550.000,-635.350
687480.597,4585350.000,-630.970
687480.597,4585150.000,-629.720
687480.597,4584950.000,-628.560
687480.597,4584750.000,-627.690
687480.597,4584550.000,-627.570
687480.597,4584350.000,-625.630
687480.597,4584150.000,-627.890
687480.597,4583950.000,-626.750
687480.597,4583750.000,-626.370
687480.597,4583550.000,-626.680
687480.597,4583350.000,-624.900
687480.597,4583150.000,-619.370
687480.597,4582950.000,-614.290
687480.597,4582750.000,-611.050
687480.597,4582550.000,-609.810
687480.597,4582350.000,-608.770
687480.597,4582150.000,-607.760
687480.597,4581950.000,-608.090
687480.597,4581750.000,-609.110
687480.597,4581550.000,-609.760
687480.597,4581350.000,-610.850
687480.597,4581150.000,-612.700
687480.597,4580950.000,-614.470
687480.597,4580750.000,-616.490
687480.597,4580550.000,-619.300
687480.597,4580350.000,-623.780
687480.597,4580150.000,-631.290
687480.597,4579950.000,-646.980
687480.597,4579750.000,-664.770
687480.597,4579550.000,-676.140
687480.597,4579350.000,-676.260
687480.597,4579150.000,-668.120
687480.597,4578950.000,-657.810
687480.597,4578750.000,-649.720
687480.597,4578550.000,-643.120
687480.597,4578350.000,-636.680
687480.597,4578150.000,-625.930
687480.597,4577950.000,-612.430
687480.597,4577750.000,-604.910
687480.597,4577550.000,-600.510
687480.597,4577350.000,-604.237
687480.597,4577150.000,-603.901
687480.597,4576950.000,-603.565
687480.597,4576750.000,-603.229
687480.597,4576550.000,-602.892
687480.597,4576350.000,-602.556
687480.597,4576150.000,-602.220
687480.597,4575950.000,-615.350
687480.597,4575750.000,-630.220
687480.597,4575550.000,-632.970
687480.597,4575350.000,-638.820
687480.597,4575150.000,-645.800
687480.597,4574950.000,-649.010
687480.597,4574750.000,-648.510
687480.597,4574550.000,-648.230
687480.597,4574350.000,-654.020
687480.597,4574150.000,-658.200
687480.597,4573950.000,-650.500
687480.597,4573750.000,-638.150
687480.597,4573550.000,-611.100
687680.597,4594550.000,-699.610
687680.597,4594350.000,-698.560
687680.597,4594150.000,-697.270
687680.597,4593950.000,-690.600
687680.597,4593750.000,-686.720
687680.597,4593550.000,-691.120
687680.597,4593350.000,-694.820
687680.597,4593150.000,-693.610
687680.597,4592950.000,-690.850
687680.597,4592750.000,-688.870
687680.597,4592550.000,-688.900
687680.597,4592350.000,-689.930
687680.597,4592150.000,-690.690
687680.597,4591950.000,-694.750
687680.597,4591750.000,-705.370
687680.597,4591550.000,-716.490
687680.597,4591350.000,-713.840
687680.597,4591150.000,-708.850
687680.597,4590950.000,-705.130
687680.597,4590750.000,-702.450
687680.597,4590550.000,-696.640
687680.597,4590350.000,-693.740
687680.597,4590150.000,-695.850
687680.597,4589950.000,-697.110
